-7.879434081826171277e-02 -1.105725178654106133e-01 4.623356794278827842e-01
-1.932405030389153927e-02 -1.260075821724105372e-01 5.238929466201560636e-01
-6.899493939520812136e-02 -1.213190382854339722e-01 4.956360716612067119e-01
-6.262746647701472602e-02 -6.787337704327564558e-02 4.385954279064770422e-01
-7.159508832283092983e-02 -7.279898038177094743e-02 4.377519273493967189e-01
-3.018353606803745801e-02 -8.608369019032729996e-02 4.492211045251501278e-01
-7.614286360008040710e-02 -9.524948857987582118e-02 4.495007642940661574e-01
-3.059361489126691605e-02 -1.235605040429183510e-01 5.169607235462183592e-01
-1.452513961550337684e-02 -1.088610790044745869e-01 5.635540344379987854e-01
-3.435202713024046450e-02 -1.174141882441417234e-01 4.869666718316357223e-01
-6.161744898301398793e-03 -1.209836812491756342e-01 5.438002845858349588e-01
-3.180730216119484477e-02 -1.208699841241064471e-01 4.963151646573950582e-01
-8.558103089202129254e-02 -1.202262684964161554e-01 5.124976206399287637e-01
-3.969627579280265300e-02 -1.170947195642990796e-01 4.863738099006035820e-01
-8.316787331115237103e-02 -1.160797443609187379e-01 4.672502552972705447e-01
-4.366975587712097068e-02 -6.988589177302698130e-02 4.419722430524083423e-01
-8.688406217889313443e-02 -1.182994677022069507e-01 4.670132090277710479e-01
-6.004986844056009465e-02 -1.126389729795699429e-01 5.308193048108805767e-01
-2.355127639247989874e-02 -1.246776198853609963e-01 5.098971808983504550e-01
-1.562441519418859663e-02 -1.110886853753521863e-01 5.618512198098752908e-01
-4.194037104660781889e-02 -1.154740929650458769e-01 4.828112958827984191e-01
-2.635216967683479822e-02 -1.176266875273463269e-01 5.499211605068001774e-01
-2.384661153302197398e-02 -1.099341915062549274e-01 5.576468519409782942e-01
-1.177171292954205944e-01 -1.183839116640170580e-01 4.797190007096782116e-01
-1.186883510083872190e-01 -1.107713494563576373e-01 4.694827832545706014e-01
-1.051594699008898820e-02 -1.260901607282602088e-01 5.317449683320593090e-01
-1.086481719418187220e-01 -1.229696385724573099e-01 4.902016383775233410e-01
-1.741655256664421947e-02 -1.114509397872723573e-01 5.613841595433518572e-01
-1.654199597135199568e-02 -1.217483737772888652e-01 4.897726913578115959e-01
-8.211263449113387347e-02 -1.198937945169771674e-01 4.758787308047520148e-01
-5.663551290880731309e-02 -1.207076988776421417e-01 5.004639979314375875e-01
-8.276787820456885103e-02 -1.151545509522796384e-01 5.199152532621162948e-01
-1.990539161137239166e-02 -1.253659972799795741e-01 5.073717679502055544e-01
-2.045787520270419407e-02 -1.196265296947660040e-01 4.862955537580076482e-01
-8.685826610239841261e-02 -1.229428043487618971e-01 4.946848690278499161e-01
-5.995686135007490675e-02 -1.102395220520740043e-01 5.316332189606077785e-01
-9.076984157532189124e-02 -1.219462956801627279e-01 4.729563450488167287e-01
-8.156602377511458501e-02 -1.124069788816633025e-01 5.230931385057946414e-01
-2.132586733272982815e-02 -1.216626964480566064e-01 4.928214475040556541e-01
-5.340790544299647835e-02 -1.211808843120982665e-01 5.041638483141276383e-01
-9.721218867403953745e-02 -1.074039453747455269e-01 4.556492677356125398e-01
-3.667967147128330108e-02 -7.708708982070350269e-02 4.446554720703189689e-01
-5.507430189238709389e-02 -1.119272894078639641e-01 5.337611078147413979e-01
-6.798630857677415151e-02 -1.121301024938696211e-01 4.701087844724426978e-01
-9.679427573991138123e-02 -1.080438802329101583e-01 4.560026206119936476e-01
-6.661597965070939487e-02 -9.919630331460067840e-02 4.540019799216161722e-01
-3.630863041354182724e-02 -1.205270430218468303e-01 4.968434096836928937e-01
-7.192868920595558990e-02 -1.198491779672995472e-01 5.177030727495918194e-01
-4.823666493361688373e-02 -1.077549475917224941e-01 4.685363206405670500e-01
-4.638788795078607058e-02 -9.139015108132785004e-02 4.518012967518448830e-01
-9.268449348898466500e-02 -1.150674531761801678e-01 5.139451565671749877e-01
-1.324328659840192865e-02 -1.201499726040813620e-01 5.505596173867203236e-01
-9.787829463893496507e-02 -1.116356892538349216e-01 4.580017550754644229e-01
-5.306425333148657303e-02 -1.142836128076602786e-01 5.333350595689759777e-01
-2.835410664523401250e-02 -1.219172491557301008e-01 4.981642172979990901e-01
-9.172638020093412670e-02 -9.233572284621476001e-02 4.467202213375992548e-01
-9.240508306393055427e-02 -8.219891407535614980e-02 4.448822649155544928e-01
-6.571148804536376675e-02 -8.285424594559780143e-02 4.426041224916475447e-01
-8.924001668748361704e-02 -1.075180950072018721e-01 4.560991113362590776e-01
-1.189019151432048754e-01 -1.167313558968172960e-01 4.896770073893435549e-01
-5.420606965133577260e-02 -1.215307298776842210e-01 5.155466773191529350e-01
-1.278297319176373466e-02 -1.067265540711763022e-01 5.647726259255916315e-01
-1.028319284599183842e-01 -1.047756091399482253e-01 4.544238813923867637e-01
-4.776333237133852799e-02 -6.422500520167144511e-02 4.400611475089175051e-01
-7.361974772634952147e-02 -1.212911957685701564e-01 5.137705351989104718e-01
-1.593722265714516209e-02 -1.136428963242973600e-01 5.597974007840520461e-01
-6.800163854436912236e-02 -5.183489778637837692e-02 4.392438107027064054e-01
-7.617534161370353996e-02 -1.200896198593484204e-01 4.846709492419962184e-01
-5.611558144242217994e-02 -1.149999753165465016e-01 4.799511068769158895e-01
-7.276219963075492014e-02 -6.502903721053415742e-02 4.358707011339924553e-01
-5.687679863376043921e-02 -1.213892276218716398e-01 5.153183023666737528e-01
-4.451916303268613900e-02 -1.102709369321214633e-01 4.733283366952655835e-01
-5.463358819525839655e-02 -1.190423516394395753e-01 5.264577507435350689e-01
-4.168516649307849389e-03 -1.255741112086461442e-01 4.968250233481410483e-01
-4.755419586986869840e-02 -1.210341396771405231e-01 5.037198393226522963e-01
-3.828653366852341478e-02 -1.218601274374299520e-01 5.055949971464264170e-01
-3.107895393754802477e-02 -1.126961593590583149e-01 5.482251348308596617e-01
-9.193907175917634400e-02 -1.232187427860942930e-01 4.883553820962578396e-01
-1.156092972142257549e-02 -1.264423928094571825e-01 5.302289858937682121e-01
-4.806221169153050699e-02 -8.792767547542756912e-02 4.491244694676895799e-01
-2.690195457948555552e-02 -1.146769689964578509e-01 4.799055621229868507e-01
-8.569734261246397811e-02 -1.165779701925134110e-01 5.168817360877906442e-01
-2.466208685953386395e-02 -1.217418561112003084e-01 4.953936285977758036e-01
-1.346843657637972029e-02 -1.126000856724057447e-01 5.608885605394333673e-01
-7.269237621764086665e-02 -1.224223743458930647e-01 5.018317216388904489e-01
-4.033740397597500998e-02 -1.223458526526773199e-01 5.177668580716424662e-01
-7.902038493651451778e-02 -1.159663246459702313e-01 4.708620472201896501e-01
-5.872000685501786027e-02 -6.951500009922330359e-02 4.400632151705392570e-01
-8.540672075592009582e-02 -7.288716905089472065e-02 4.398033049133396322e-01
-7.799109354676278527e-02 -1.114174755062128097e-01 4.640137477203143401e-01
-7.927486681868040064e-02 -1.120390570841579420e-01 4.642775028753677313e-01
-9.122897943457160264e-02 -7.812377808619591635e-02 4.451888558861213929e-01
-7.480582837932722717e-02 -5.864388708065695205e-02 4.371635150818118931e-01
-1.299563850494988432e-02 -1.260838799243901853e-01 5.030905843814676981e-01
-5.976682395824698540e-02 -1.206850740181778930e-01 4.986159772405612256e-01
-8.647072975999073319e-02 -1.038540150925709171e-01 4.539523075392685181e-01
-8.961389280192519347e-02 -8.318162922962388239e-02 4.432207931407610713e-01
-8.226379720245033389e-02 -1.193668991060152229e-01 4.742123056355365129e-01
-1.228999785429272899e-02 -1.253040492914246629e-01 5.336196960087654650e-01
-2.150450179409680793e-02 -1.222378466696024263e-01 5.436778230945137347e-01
-9.154033945792590388e-02 -1.222386153166260675e-01 4.693630591484082015e-01
-6.748889761128155397e-03 -1.201116025761983092e-01 5.476323580807156421e-01
-4.604755979251566600e-02 -1.132812227528268295e-01 5.372111415856061223e-01
-8.805067047853848416e-02 -1.203875217836202355e-01 5.106836962065286478e-01
-7.993035130910662589e-02 -6.506758849992684557e-02 4.377516308061525918e-01
-4.699659343202987338e-02 -1.203205525323589736e-01 4.988028904961948617e-01
-1.197895969594677257e-01 -1.168334512074746950e-01 4.839847986907371835e-01
-7.704896480691544869e-02 -1.140718771665505948e-01 4.690995558094225859e-01
-7.891958558560847881e-02 -1.217171461628659551e-01 4.910501486732660181e-01
-9.299052855764788905e-02 -8.161266607504594206e-02 4.454169453626424247e-01
-9.911197959670329377e-03 -9.322065020286701698e-02 5.711388568553688039e-01
-7.492671355173327608e-02 -1.068968226702726315e-01 4.598254754522348442e-01
-1.206602894820183597e-02 -1.241157137540859906e-01 4.946876953672325605e-01
-4.763457530560634423e-02 -7.585777992934011893e-02 4.437971691803926921e-01
-5.204057819518828620e-02 -9.337634301764811962e-02 4.518654496333665005e-01
-3.149330659079310757e-02 -1.156971593276862331e-01 5.466955646898726817e-01
-5.564706042202390707e-02 -1.129728512556196218e-01 4.758625298577586205e-01
-8.754626606104660980e-02 -1.099878446224820117e-01 4.585989872360118902e-01
-4.781014940787790130e-02 -1.091568444605931359e-01 5.387128036346792159e-01
-1.307613705865404152e-02 -1.231760992317471881e-01 5.422143478409189310e-01
-9.140026670588358160e-02 -1.214071071909779698e-01 4.789807641328780452e-01
-9.232315819616952746e-02 -1.226689512418653594e-01 5.015257592539694720e-01
-7.610075276481179096e-02 -1.202532657202791122e-01 5.165515088197677462e-01
-5.255914090478672196e-02 -1.058524218317400123e-01 4.647346498354026356e-01
-7.019840983775563203e-02 -1.212274756717405394e-01 4.940544162960662788e-01
-5.940275113022654152e-02 -1.160331558071022451e-01 4.818123942233369927e-01
-4.085160671641188679e-02 -7.854274566953792225e-02 4.453973772430047107e-01
-4.547250300048946009e-02 -1.080145784689105909e-01 4.695745843442349909e-01
-5.334456413475271996e-02 -9.645673348500131972e-02 4.541539867307811118e-01
-6.940656119335203954e-03 -1.249188474156592288e-01 5.341827821928847309e-01
-1.110987570689071224e-01 -9.985581013945425688e-02 4.555744014318315327e-01
-6.163232055062211473e-02 -1.158392399667635964e-01 5.284137036039899815e-01
-3.073444821796817231e-02 -9.399620031801370068e-02 4.554111904496984664e-01
-3.520306569854596973e-02 -9.363535635739944629e-02 4.554371245290851911e-01
-1.163200195042762009e-01 -1.151073787042145302e-01 4.707488004231341061e-01
-7.192966347008417083e-02 -9.546997053917578857e-02 4.501885913904792313e-01
-8.440634816475960089e-02 -7.867084703727747486e-02 4.401697819131349942e-01
-4.314232761054023063e-02 -1.190224954175239935e-01 4.922451097543421028e-01
-2.957631757312493420e-02 -1.009086905612386204e-01 4.610024700234944262e-01
-3.226917903897164042e-02 -1.099911715715570504e-01 4.724598706069568776e-01
-9.512460643175668640e-02 -1.221284882492502666e-01 4.786337724451040221e-01
-5.798015604201579160e-02 -1.159239567876357291e-01 4.817919570898711035e-01
-8.651388386518038542e-02 -9.928929411689126072e-02 4.507760549600209332e-01
-8.691792417833679729e-02 -1.081120455036379407e-01 4.573281593314456606e-01
-5.867424758950635227e-02 -1.192706609853230182e-01 4.923975609609601012e-01
-6.591794143430466935e-02 -1.206725430287728107e-01 4.946790920302230887e-01
-9.023418321755675986e-03 -1.192359704805080328e-01 4.814589636023117181e-01
-7.507716666435865216e-02 -1.062794727985490462e-01 4.591299070668788396e-01
-1.123674957381002176e-01 -9.733933859158765134e-02 4.573687863426323941e-01
-1.095859473328805178e-01 -1.204939490817800302e-01 4.740364956621296866e-01
-7.034849785235505748e-02 -8.571990616727274970e-02 4.435771356593838366e-01
-9.146535325185389809e-02 -1.197517773434084720e-01 4.618113942608890743e-01
-9.869397514212838174e-02 -1.044496816804554584e-01 4.538850950512082760e-01
-4.916168594227215971e-02 -9.736838695682741018e-02 4.559745192572980943e-01
-2.281712749731953579e-02 -1.072142855311224163e-01 5.602644744727571791e-01
-1.098844711495719217e-01 -1.123653974213316420e-01 4.630208499993542226e-01
-2.187497501815739015e-02 -1.035447983480617395e-01 5.622749170350358483e-01
-7.319577622524289784e-02 -1.221230106271714300e-01 5.087164921912925575e-01
-4.484895368243135838e-02 -1.146369180533813592e-01 4.809587188628871579e-01
-1.396448615968931377e-02 -1.269863810420189254e-01 5.120501027388169035e-01
-3.146099542564777946e-02 -1.059245300279064439e-01 4.668257798086231092e-01
-1.067643389291832307e-01 -1.015537710498322227e-01 4.536275635357424618e-01
-7.501150674252496375e-02 -5.688569038873300676e-02 4.379298754448572861e-01
-2.415152606123828830e-02 -1.128517303639775676e-01 5.563506905205326536e-01
-4.237795544287734084e-02 -1.097367576733624117e-01 4.725289236094766809e-01
-5.572452162677887094e-02 -1.163596763868590261e-01 4.833018186538106109e-01
-1.552793132063210596e-02 -1.053725078489282513e-01 5.648462765266685226e-01
-9.833777744174210245e-02 -9.207072998774902539e-02 4.487000962745876231e-01
-5.573062205193355517e-02 -1.195352080259610844e-01 5.247870301455730413e-01
-9.961822228646798061e-02 -9.361747131751227413e-02 4.486880231343962078e-01
-4.978195789106617392e-02 -1.048140116828264468e-01 4.641066020810753479e-01
-5.382290432092599192e-02 -8.958153586357736620e-02 4.490085490207447183e-01
-4.842947825395765155e-02 -1.095108738200101378e-01 4.714787766453791273e-01
-7.995995270091360574e-02 -1.221604861322269087e-01 5.092595702730765561e-01
-7.196369789434627073e-02 -1.104246628696211319e-01 4.654630993511801873e-01
-8.435683106161659395e-02 -1.227127024938576699e-01 5.032301280796899201e-01
-1.294069050782145104e-02 -1.260083357639337487e-01 5.311170937602780473e-01
-5.244095474637019971e-02 -1.209064023324284004e-01 5.214278066726442118e-01
-1.086639650303498766e-01 -1.049013885128127627e-01 4.559803880924373498e-01
-1.627183302862601766e-02 -9.779281014615845424e-02 5.662476527857706055e-01
-6.736705213566616945e-02 -1.112765121307859317e-01 4.689062588262174480e-01
-1.100049794436890188e-01 -1.227348486171155745e-01 4.886417877912384022e-01
-4.677253489917446161e-02 -8.597789030426224166e-02 4.482951281436032831e-01
-8.411828333111220912e-02 -9.622098166113525475e-02 4.490425392877927524e-01
-7.757696928049616358e-02 -7.679441287532313976e-02 4.384389715626505479e-01
-3.306371190084021749e-02 -1.182297983402826463e-01 4.887817666268567396e-01
-3.773876887789204271e-02 -1.204817106806300719e-01 5.361595096781401892e-01
-5.821000386058306636e-02 -1.199217754528362490e-01 4.954124947969415493e-01
-1.877546900832507623e-02 -1.232030622322152491e-01 4.959074018309179155e-01
-4.703437335158550114e-02 -1.180146560935838029e-01 5.340372398708366219e-01
-7.544053389478102764e-03 -1.285358858929681325e-01 5.162469819896584600e-01
-6.129165639888021350e-02 -1.083576030418079011e-01 4.659211427894044966e-01
-2.744863141773320331e-02 -1.236282876326726954e-01 5.079099014745147578e-01
-1.197862983739546652e-02 -1.241280834948797901e-01 5.381837992146857319e-01
-7.363803758239866049e-02 -1.123649836409420649e-01 4.678388840363577050e-01
-9.101947241386798559e-02 -8.320473053015801923e-02 4.437445052787521993e-01
-4.824115436055891049e-02 -7.838567769300448795e-02 4.446582551000377026e-01
-3.361480315470979918e-02 -1.211688523629945446e-01 4.988951879130609224e-01
-2.553954049647554417e-02 -1.120599987120678848e-01 4.749535798875296755e-01
-3.366221896640646943e-02 -1.231699058458857049e-01 5.185585024546958133e-01
-7.122084300442149685e-02 -6.949581205362258263e-02 4.369310885879479356e-01
-2.578337624304767595e-02 -1.070022857517448772e-01 5.561376613041096872e-01
-4.895833177045287588e-02 -1.036682595948753699e-01 4.627468502571511211e-01
-5.993622134981825555e-02 -1.195558672052827870e-01 4.929444377411401068e-01
-2.332559221283872150e-02 -1.249474242603564877e-01 5.134431706281659125e-01
-9.130301323571456129e-02 -9.051964122359860976e-02 4.457801941457983919e-01
-8.439962594615935121e-02 -1.202109631366323345e-01 4.811633670273779972e-01
-5.068631092137877714e-02 -1.125240999344686715e-01 5.356319897595593904e-01
-1.011986590389581109e-01 -1.160496183459861358e-01 4.637729544285412175e-01
-1.188221192377762470e-01 -1.141870937992585516e-01 4.745747551996801206e-01
-7.734578693760468804e-02 -1.164479145101039032e-01 4.734405238950017414e-01
-5.698453226564863250e-02 -1.095193093709407456e-01 4.690567528141002529e-01
-1.055162317870181610e-01 -1.234305628289301127e-01 4.926455630560328536e-01
-4.439824067953629383e-02 -5.838966785376831226e-02 4.390077995055713389e-01
-1.335607328803946683e-02 -1.265260429982212331e-01 5.286061208850016957e-01
-7.121141885564116758e-02 -1.190679520124266061e-01 4.846832136095245991e-01
-3.563654212818646860e-02 -1.095889028964892598e-01 5.440450673282930527e-01
-7.866166853113858159e-02 -1.150088274689606699e-01 4.697974584964780265e-01
-3.987778239303178818e-02 -1.131530150940840695e-01 4.782396509379970295e-01
-8.165021506058449396e-02 -1.074491944819480627e-01 4.581125324974510415e-01
-1.105811474870174033e-01 -1.223028161236839190e-01 4.921491150637805068e-01
-7.628113483258681937e-02 -1.167350917248406172e-01 4.747459663813742292e-01
-7.482255064626607000e-02 -1.159891730668171361e-01 5.238531461880358009e-01
-7.903559431225391438e-03 -1.257855804960605339e-01 4.987980740765748933e-01
-1.170541714636322977e-01 -1.213223961382055988e-01 4.866167262391803972e-01
-1.147768920461357672e-01 -1.217334303040769339e-01 4.845711598863882696e-01
-6.326033590104147841e-02 -1.207160863269218509e-01 5.184300769670933118e-01
-4.057329580248430351e-02 -1.217556297751313382e-01 5.060643060120295633e-01
-2.718553192905414154e-02 -1.028820613585996468e-01 5.533247842736981337e-01
-2.828421131878949835e-02 -1.089565997595526026e-01 4.707621930898954754e-01
-4.959512960738651777e-02 -1.218554747093079094e-01 5.134913922059582969e-01
-5.421081801399859137e-03 -1.253607330948690590e-01 5.337705161730246228e-01
-1.182549855591889798e-01 -1.199207551099332192e-01 4.849105437976558020e-01
-7.387176685366841911e-03 -1.201883054551895480e-01 5.479255418986395121e-01
-2.970184206097733690e-02 -1.078928768189725274e-01 5.506760749176451419e-01
-5.492556048058350182e-02 -1.181319006775748415e-01 4.889624172668112778e-01
-4.769250504995962980e-02 -1.171408430327285366e-01 4.862520376145561540e-01
-8.803917585982288380e-03 -1.151795559931754614e-01 5.582045875146899316e-01
-5.613124593440671321e-03 -1.271948803374372550e-01 5.031243302356710467e-01
-5.545229415775087406e-02 -7.022802241050245253e-02 4.408571949158273107e-01
-9.163968410956357946e-02 -1.198374228775674066e-01 4.612560951244646379e-01
-8.273553160114870131e-02 -1.221664892898925159e-01 5.086438941924752433e-01
-1.020429631887351946e-01 -1.236945438116349300e-01 4.844879342550979517e-01
-8.613982824271271266e-02 -1.194842237603920831e-01 5.136960446797242952e-01
-1.564475196136124943e-02 -1.172875215772850310e-01 4.789396990790451558e-01
-3.715332152624564038e-02 -9.067964074606492397e-02 4.528599839611308631e-01
-7.549865137950345639e-02 -1.224477967283876534e-01 4.984326444085813157e-01
-9.587100746155326203e-02 -1.184110530049008597e-01 5.103827202469890523e-01
-1.026684229681587984e-01 -1.148098610893972527e-01 5.079733740534483344e-01
-1.309672314902179426e-02 -1.195747769631908541e-01 4.832202361541804714e-01
-8.651429186847256481e-02 -1.113699177820271086e-01 5.190408030387790861e-01
-7.909859362615116740e-02 -1.228272031801367903e-01 4.995228446537546274e-01
-9.412574720188389421e-02 -1.232705844150881469e-01 4.698890286793719895e-01
-2.355002657613980074e-02 -1.189237832004329254e-01 4.865496782224669747e-01
-4.890953881648463925e-02 -8.966719092445937789e-02 4.501260491177487832e-01
-3.234486332003134318e-02 -1.145194159630930353e-01 5.464719081928656186e-01
-3.916428656608204883e-02 -7.586052352910419017e-02 4.441841193350930528e-01
-3.054296178303440162e-02 -1.219098614388187257e-01 5.366577580646414436e-01
-1.188911923853521596e-01 -1.158215284584936527e-01 4.797269710943677379e-01
-1.762233657311215035e-02 -1.227390708435585481e-01 4.934025420121360139e-01
-3.936438598005659317e-02 -1.215796093787196441e-01 5.302774010465048926e-01
-2.498693378154932809e-02 -1.242331922897964708e-01 5.300012167328814749e-01
-1.867683992943632021e-02 -1.185534089645079447e-01 4.826964070299464837e-01
-4.660830613997134220e-02 -1.215669646088377159e-01 5.216694995199461227e-01
-4.927024052895428996e-02 -1.199531388048609148e-01 4.972034860409972334e-01
-1.003573019125789459e-02 -1.270151478849529114e-01 5.277131942401828146e-01
-8.269199324348629199e-02 -1.129228763440699584e-01 5.206006762416153233e-01
-1.185018636658326380e-01 -1.144941598963035850e-01 4.743174333534187492e-01
-2.981289613374081202e-02 -1.169918801943169162e-01 4.857480124313470204e-01
-3.301204917461888350e-02 -1.231233807369599004e-01 5.259017711085131053e-01
-1.102971993070684387e-01 -1.224678451934894524e-01 4.824727491631684018e-01
-1.392802622790896734e-02 -1.259514674127713285e-01 5.035243436004845918e-01
-4.294533804968496404e-02 -1.220389614855033472e-01 5.195126736575348403e-01
-5.310543428305841002e-02 -1.174409641049761199e-01 4.868194388915352278e-01
-8.150240729379198967e-02 -1.200658025640170962e-01 5.152859944113068469e-01
-9.804938019821086981e-02 -1.214024794746164926e-01 5.057871054759396356e-01
-8.589165076037713620e-02 -1.166806139935389619e-01 5.166668080820199238e-01
-8.500282377165244152e-02 -1.225881553425613446e-01 5.045191793792610513e-01
-4.551541809889253498e-02 -7.007028942564387519e-02 4.419110699137802634e-01
-8.347894371187285223e-02 -7.353151274870257936e-02 4.386143440398668769e-01
-9.561822404560055277e-02 -1.212666841347674190e-01 5.069127748087302043e-01
-4.794427848587633212e-02 -9.330001849838318040e-02 4.528986220929899220e-01
-2.144729260343750631e-03 -1.290990128254389802e-01 5.178039882993369369e-01
-3.484531253994614663e-02 -1.220060411763439490e-01 5.328577377068819398e-01
-2.801537243596051441e-02 -1.145774213746007381e-01 5.510876673259496039e-01
-1.079957543011570154e-01 -1.072800822277292787e-01 4.576116698219230283e-01
-2.348228431813465314e-02 -1.220796271708778774e-01 4.957338804504284324e-01
-7.659393370991547656e-02 -1.078714672666120228e-01 4.603783241157206607e-01
-1.045510773189095577e-01 -9.418914640797411419e-02 4.516033223251072481e-01
-4.259279126090494312e-03 -1.276663227496219466e-01 5.292035983556909740e-01
-9.694432531277470677e-02 -1.222782911511330617e-01 4.747341055784128350e-01
-7.211102159568305581e-02 -1.018085444241230986e-01 4.553666696919041468e-01
-1.807395800892162147e-02 -1.235396132947749748e-01 5.410901785139451414e-01
-2.190205363816441486e-02 -1.188701869894058377e-01 4.851065911582996826e-01
-6.568531509915542799e-02 -1.095730572211943837e-01 5.293635359824377939e-01
-5.057882456378931524e-02 -1.205057043171216535e-01 4.999299772580067525e-01
-6.343544213241175678e-02 -1.007337558330972521e-01 4.559461826676020624e-01
-5.043332328806919562e-02 -1.215432973494106894e-01 5.089174379519781910e-01
-1.274953218229840646e-02 -1.180131881849978553e-01 5.540731885870895379e-01
-6.326695633597198554e-02 -1.207804309426449285e-01 5.181243297321717067e-01
-4.274682977249562310e-02 -7.969202516351456267e-02 4.459159348174169257e-01
-4.171985014383138013e-02 -1.172642137023303527e-01 4.869250426015998001e-01
-9.770861562332654182e-02 -1.228311294684488741e-01 4.793926945105960735e-01
-4.868670317063591990e-02 -8.992821483918471415e-02 4.503426780458897327e-01
-2.461648960404378556e-02 -1.046838063474247738e-01 4.636817892716746936e-01
-4.220558643160519929e-02 -1.212076139785586842e-01 5.309831062953613845e-01
-1.582163530844112737e-03 -1.290686038006862435e-01 5.146570966011242421e-01
-2.504399542876108858e-02 -1.233936113003641782e-01 5.353951858986056855e-01
-2.128447565994103993e-02 -1.242102731506489477e-01 5.023217273450528708e-01
-3.962755619589754946e-02 -1.080323082428168990e-01 4.697521476844726540e-01
-5.672297201922707477e-02 -1.128912020652976106e-01 4.753716655944855152e-01
-8.230139824299199935e-02 -1.069640029248455637e-01 4.574538294643738512e-01
-5.455590806243677121e-02 -6.521362660093280028e-02 4.394790397142789851e-01
-2.287830381889467343e-02 -1.055409888152905318e-01 5.608576249346157727e-01
-1.614920087607181866e-03 -1.290432830780729734e-01 5.236479582130644239e-01
-4.368461290728583440e-02 -8.366565155781430230e-02 4.475414912855338323e-01
-3.061688552630774385e-02 -1.227500530670338069e-01 5.046922202745162123e-01
-3.841542344795321334e-02 -8.077878907776823991e-02 4.463671290834645422e-01
-4.764459024716213853e-02 -1.206045347820378227e-01 5.009052012251316022e-01
-5.702722324250783514e-02 -1.203750524476561029e-01 4.981709735307064402e-01
-4.211585528343728818e-02 -1.006824851506731150e-01 4.607689111579581498e-01
-4.576580462132814192e-02 -1.161187840376064900e-01 4.840304421935625045e-01
-7.604186520908039204e-02 -7.899755519169142370e-02 4.392508923611835869e-01
-4.634933914827469789e-03 -1.206292504282153871e-01 5.424462283210196301e-01
-1.882710271284829956e-02 -1.256658623347861325e-01 5.081989996942671839e-01
-1.041117765855929245e-01 -1.199606290304254252e-01 4.689505022344170326e-01
-5.672307081220733654e-02 -1.043457989060725816e-01 4.614283155967466299e-01
-9.762417502333158026e-02 -1.234212143115586968e-01 4.943291836555611107e-01
-2.114781155321769981e-02 -1.212812147607760516e-01 4.913933458169666979e-01
-7.460831845848032995e-02 -1.095819551170206380e-01 4.629311498198927510e-01
-4.909132351347562234e-02 -6.447693919358629677e-02 4.400044731213032523e-01
-2.530496388584814113e-02 -1.234718072005285550e-01 5.031894277833401929e-01
-1.193817256735306559e-01 -1.169256171751707485e-01 4.821991631958393865e-01
-1.711695064371697092e-02 -1.109780899797186693e-01 5.618452755349354621e-01
-6.765391598114524341e-02 -1.180290322701490063e-01 5.228931574751796152e-01
-6.709432170855260912e-03 -1.263411506039167076e-01 5.001963638269616430e-01
-5.124188453737485438e-02 -1.205211834176754399e-01 4.999705108665419284e-01
-7.746677534213745886e-02 -6.614913377240490278e-02 4.359036658695777944e-01
-3.894043696941922733e-02 -1.223908135815228032e-01 5.131059450929268406e-01
-8.336037467225479447e-02 -1.228901792176114172e-01 4.975553999020272400e-01
-2.130805000919529582e-02 -1.233780909723249802e-01 5.394459455499681644e-01
-7.607221603993091774e-02 -1.182852172101994254e-01 4.781392920026391047e-01
-5.556625025446643856e-02 -1.073185474773601100e-01 5.351518270577158010e-01
-5.718304636059272361e-02 -1.018285534117664010e-01 4.582166273434005177e-01
-9.499429542449464026e-02 -1.185347941062413757e-01 4.613011708977715064e-01
-2.170807796089578925e-02 -1.148821694120738118e-01 5.562213027286156963e-01
-4.241960835137287278e-02 -1.060902926105173477e-01 4.669662586412746119e-01
-7.873511636103019962e-02 -1.218747409128580761e-01 4.919000788119723411e-01
-9.932890058652021903e-02 -1.235370610136913710e-01 4.829668275969036251e-01
-1.084572859529748939e-01 -1.198968414317794634e-01 4.723815399875325172e-01
-6.223487809602341186e-02 -1.200854658307851375e-01 4.941711984108621003e-01
-1.119199251180143101e-01 -1.184948884150559684e-01 4.713439497009750401e-01
-7.963534985106190955e-02 -1.198048595756351087e-01 4.833905698662188666e-01
-1.110956260815281899e-01 -1.140677774299143354e-01 4.654082573349476171e-01
-2.089677047984656380e-02 -1.211642781492456300e-01 5.464293464544660583e-01
-7.281182284258937154e-02 -1.184145741143516617e-01 4.812131684223839856e-01
-3.357386321833129988e-02 -1.083818196132097927e-01 4.702762976505034942e-01
-8.859890519941224230e-02 -9.188464664140827409e-02 4.463891487915347400e-01
-1.567431965800526739e-02 -1.115670829498918853e-01 5.615046036269294438e-01
-7.616886148854172534e-02 -8.335821653991194735e-02 4.414259324725505196e-01
-1.475395531905902835e-02 -1.196910129343675550e-01 5.513194993442513958e-01
-6.826289443613042796e-02 -1.176782337503848863e-01 4.824312847228127699e-01
-9.940332017927279440e-02 -8.796015173153955147e-02 4.492442187148904531e-01
-4.843678236156204880e-02 -5.809366057049926424e-02 4.386639563817589238e-01
-6.750879060126659115e-02 -1.216841426824971373e-01 4.994308690718916033e-01
-4.583181288224603273e-02 -6.601585540152961340e-02 4.407155994533454857e-01
-6.964319420676125250e-02 -1.217410626545984142e-01 4.972612390248759007e-01
-7.103927572014782921e-02 -1.152498177168470028e-01 5.252115096176351861e-01
-2.767388155484215573e-02 -1.241445949039828162e-01 5.184355369956260562e-01
-6.193863245956166691e-02 -9.852085449099906578e-02 4.540519172117400970e-01
-2.271004811703428855e-02 -1.217019599415979925e-01 4.940882791904938065e-01
-9.643981475052382235e-02 -1.041947411872359841e-01 4.534110048624748757e-01
-7.550545360875730860e-02 -1.028288592059381917e-01 4.555970311837100883e-01
-6.678921601517272266e-02 -1.206987756629374908e-01 5.174868161643455533e-01
-6.392082495876645620e-02 -8.723384173126610963e-02 4.455319456156427993e-01
-6.120064747458857368e-02 -1.078711037928587052e-01 4.651298929826643280e-01
-9.983666221996846668e-02 -1.229268477383826386e-01 4.758703590108610548e-01
-5.503157862705566894e-02 -1.184273664695669470e-01 4.900411130117019454e-01
-8.677591154485632396e-02 -1.212940370067300683e-01 5.089235581813983389e-01
-6.509678571712129713e-02 -9.656390700595171572e-02 4.518741706048310935e-01
-1.005160645420742210e-01 -1.142944067354122045e-01 5.097620917163002696e-01
-8.747260785576457809e-02 -1.228584105756775902e-01 5.005220355980104507e-01
-1.090465542755424122e-01 -1.203053313108549266e-01 4.734494428098151020e-01
-3.171167373979087711e-02 -1.172734655075783339e-01 5.455743836698078164e-01
-5.157154324028868919e-02 -8.754257138452552212e-02 4.482607201706234057e-01
-2.183386960009194022e-02 -1.254063913150466891e-01 5.237661543035536660e-01
-1.139781936533722090e-01 -1.216791508435429159e-01 4.824814378577895191e-01
-8.931822556286697634e-02 -9.137723173706399638e-02 4.461557479347172950e-01
-3.719455854052681337e-02 -1.218487802613641147e-01 5.049319912639087526e-01
-3.225231088940361257e-02 -1.224362202077140388e-01 5.327848106677958162e-01
-1.260665103784710042e-02 -1.274208912288855577e-01 5.229542507620051905e-01
-5.825822190079107954e-02 -1.216342410923439560e-01 5.107336000364715023e-01
-8.131226240303518482e-02 -1.196793997142747840e-01 4.828445797182376320e-01
-8.444345756101333256e-02 -1.229100813338216275e-01 5.008639029010935051e-01
-1.307065573848022015e-02 -1.129254832595723568e-01 5.606130908013363667e-01
-8.450575516378756868e-02 -1.180422330675365006e-01 4.690213928255359543e-01
-1.542018081949164156e-02 -1.242168274868218625e-01 5.376843451123427542e-01
-1.539531758645528922e-02 -1.110572536352737033e-01 4.686856019958659525e-01
-3.566270205057024689e-02 -8.129685561504762514e-02 4.468263992463010204e-01
-1.077610188506788746e-01 -1.224781623239002970e-01 4.801246036550200214e-01
-5.198400483780576259e-02 -1.187015868170033378e-01 4.916288709576953631e-01
-6.480076439576003267e-02 -1.036599096804217690e-01 4.587172004769499711e-01
-1.528109732982811143e-02 -1.260067104097723489e-01 5.302624476780167795e-01
-2.919661124117788401e-02 -1.164583726365415184e-01 4.845483610172833244e-01
-3.806358347787636848e-02 -1.092373286188881437e-01 5.423722887684629956e-01
-6.405708736072865395e-02 -1.182414387380025939e-01 4.859460583490652352e-01
-6.620769817500266052e-02 -1.216457427124392199e-01 5.010622004112214034e-01
-1.156646081201493509e-02 -1.268425527087256033e-01 5.269280962207658625e-01
-1.896881701946464757e-02 -1.222215802977195259e-01 4.927672773626668445e-01
-4.588559816523869739e-02 -1.162759352208750652e-01 4.843630419857377634e-01
-7.284672864626366706e-02 -1.138799461482498665e-01 5.257244391293627306e-01
-4.151823048309274955e-02 -1.173715267321162464e-01 5.375692535353534529e-01
-8.438770748448175263e-02 -7.304012823963791645e-02 4.390417296764204114e-01
-2.951925712167359495e-02 -1.238087778339412998e-01 5.189380874487532491e-01
-9.282272773701245872e-02 -1.233908400113800929e-01 4.946687455770925612e-01
-1.017107808806125974e-01 -9.062800663747548613e-02 4.495906064809402913e-01
-7.405670748281478755e-02 -8.264190002571523974e-02 4.411029806331736025e-01
-2.222589987008367907e-02 -1.253584921054387291e-01 5.213679532797678151e-01
-3.079614819812590693e-02 -1.105362076441987473e-01 4.731460461727702849e-01
-5.722545992342517596e-02 -1.180689465597155319e-01 4.881198978209890238e-01
-7.443828617804755521e-02 -1.208599512745427151e-01 4.894892622589898101e-01
-6.341649733975787684e-02 -1.217701595222022981e-01 5.113131085366043882e-01
-4.071052629936133815e-02 -8.929124107026369106e-02 4.514126201085787438e-01
-5.466221694651805796e-02 -1.131122401529103261e-01 4.764395539534597157e-01
-3.812305454245853292e-02 -1.214043538451023835e-01 5.327991085538763549e-01
-1.084715615569970260e-01 -1.089487378406347878e-01 4.592274440524601875e-01
-8.819983277347857864e-02 -8.926336060457658317e-02 4.451809826322211672e-01
-3.200431708602725217e-02 -1.033397307975271739e-01 4.640402654180228459e-01
-1.059845695140142624e-01 -1.233910988283925259e-01 4.924014831009442816e-01
-2.571765155255080655e-03 -1.290646225932297053e-01 5.137113163013860007e-01
-5.025434440681856435e-02 -1.034326238417838800e-01 4.621179032445536516e-01
-8.037447893457304315e-02 -7.665866712421705309e-02 4.386711013423867933e-01
-4.605760397280313223e-02 -1.027459764969413519e-01 4.622403964334519388e-01
-1.019136307603218938e-01 -1.146258462252354449e-01 4.625631784518559053e-01
-7.869283380523250937e-02 -1.185205286903234373e-01 5.186415872242869929e-01
-3.918553671620279844e-02 -1.190459679182493957e-01 5.375629884259428559e-01
-9.885615051262024167e-02 -1.171844372941807377e-01 4.626594554857625385e-01
-7.598948695584722968e-02 -1.195164381907349443e-01 5.180483415488937871e-01
-1.369232438492660325e-02 -1.166356711555506798e-01 4.769236899856884593e-01
-2.882225406594455738e-02 -8.802396352214808539e-02 4.502875546205464263e-01
-1.185344695141946347e-01 -1.144188242692214252e-01 4.742804242179726737e-01
-5.559942216643535412e-02 -1.166994243065966469e-01 5.305626456452444684e-01
-1.607129172022728203e-02 -1.213135663568278011e-01 4.883047811279361827e-01
-6.266336558411028657e-02 -1.205657625910638714e-01 5.192138027329532557e-01
-1.203050994982272082e-01 -1.116408657955206690e-01 4.741538446153947262e-01
-5.660796183124598702e-02 -1.170365501072141018e-01 4.849939824221105589e-01
-8.644636569065547449e-02 -1.226166920734251403e-01 5.037408096909623545e-01
-2.173959501098732955e-02 -1.156535509132277095e-01 4.788887487445273594e-01
-8.172316697425910381e-02 -1.141150908239556422e-01 5.213755803770682151e-01
-2.496621837853409132e-02 -1.098176478451686061e-01 4.714024236381895716e-01
-1.177233900452673149e-01 -1.022713051697186210e-01 4.675930710912442612e-01
-1.016270153686391065e-01 -1.237442421426924594e-01 4.859259695433908455e-01
-2.844469415953784081e-02 -1.236172698239927925e-01 5.293376925622208518e-01
-6.267131628642527708e-02 -8.974053791255377777e-02 4.472989627729525575e-01
-7.218597218537663174e-02 -1.105964403613774460e-01 4.656304475083521965e-01
-1.636563189890161141e-02 -1.029274680324500368e-01 5.651365885384876941e-01
-1.816562496995356712e-02 -1.221717465644463346e-01 4.919412653287713044e-01
-5.124225927559987459e-02 -7.464654686586674748e-02 4.428884174036563093e-01
-6.661504125784532826e-02 -1.215381939477935963e-01 4.989640109270308543e-01
-4.449246752184842640e-02 -1.206412979417373493e-01 5.319995261991383728e-01
-1.060173538705063145e-01 -1.229461116362466078e-01 4.807584495967849314e-01
-9.898923920981943236e-02 -1.237122062417981977e-01 4.901982707198065392e-01
-6.889017731684673670e-03 -1.286057675797684929e-01 5.201501135523038943e-01
-2.031031754446099846e-02 -1.231496891744575800e-01 5.412383328975634011e-01
-2.853261523946303349e-02 -9.900800277817124739e-02 4.590444419129950382e-01
-9.021628491043715004e-02 -1.230377942273410963e-01 4.904424566993298429e-01
-1.023534272799704881e-01 -8.793946952317449606e-02 4.516633867697797955e-01
-4.808813365782172583e-02 -6.149670854378942730e-02 4.393136512999267773e-01
-2.084378328100380470e-02 -1.238454697986762776e-01 5.375583611079860491e-01
-1.224876709333164865e-02 -1.203657330962860372e-01 5.500741535879259958e-01
-9.023507711497893991e-02 -1.212483024980438584e-01 4.794286978575864611e-01
-3.988654772145385635e-02 -1.223271377472795601e-01 5.212800321572482742e-01
-2.283201512178815659e-02 -1.176178059835314427e-01 5.522778370222646283e-01
-2.016109518616281820e-02 -1.086179113114382339e-01 4.670996826196665008e-01
-8.254432320446149218e-02 -1.094211966012408471e-01 4.596207943838725996e-01
-2.135010854417956211e-02 -1.056376768652910192e-01 5.624233348836134017e-01
-6.539287520989249536e-02 -1.202085004003266289e-01 4.924194491943959529e-01
-3.996255084871477847e-02 -9.010142493045998624e-02 4.520906411747303566e-01
-5.234981849847528124e-02 -1.193766442339177086e-01 5.270872074888477421e-01
-8.951849048026455646e-02 -1.213953253700980339e-01 4.771938778995760133e-01
-1.193357306171973775e-01 -1.179546193140413035e-01 4.861404421411064658e-01
-9.897368316314590631e-02 -1.149953730283266029e-01 4.610780248051382646e-01
-5.879626952796043748e-02 -9.888072606154733879e-02 4.550429997116291481e-01
-1.076613162684891128e-01 -1.138178582427077506e-01 5.035681827400354527e-01
-5.194187683426649410e-02 -1.217991972769270625e-01 5.128170924701641598e-01
-1.039478783385199973e-01 -1.024368680967646938e-01 4.531234366276314374e-01
-6.669511750852169518e-02 -1.218504559093018802e-01 5.029970644077440545e-01
-8.297807287541780763e-02 -1.172091526047788768e-01 4.690287675946495649e-01
-4.748369853441172794e-02 -1.207846517763076638e-01 5.258511710744845358e-01
-2.544733295428683664e-02 -1.187280193360639169e-01 4.876973406491627583e-01
-1.973454988811856967e-03 -1.290778545985439008e-01 5.150782850187841655e-01
-6.617180275855155669e-02 -1.216993845319692541e-01 5.120578448033504815e-01
-8.835086003370754004e-02 -9.492796718459743655e-02 4.479761100442182786e-01
-8.004037786891404771e-02 -1.139905840683709259e-01 5.233514113335655527e-01
-7.339106709304359100e-02 -1.130636885672899189e-01 5.260210762325014944e-01
-3.784646716143757333e-02 -1.192743111984035098e-01 4.926782610533809725e-01
-8.040637066300422575e-02 -7.539259270066264729e-02 4.382945125586478752e-01
-7.592168062541958251e-02 -1.001500332259541298e-01 4.531312449871187087e-01
-1.532369396002473266e-02 -1.176327956316952222e-01 4.795950244598789491e-01
-1.451802449159408058e-02 -1.171937170349302004e-01 4.784139593996648565e-01
