-8.437500683434723259e-02 -1.219419194158635616e-01 4.882306358803198409e-01
-4.980027251691216544e-02 -1.137888373820848120e-01 4.790005325815668291e-01
-1.119389229045119130e-02 -1.049410071176503645e-01 5.661217140925024482e-01
-1.044686494839093122e-01 -1.003011014696459924e-01 4.531790073035283917e-01
-3.641540421926301591e-02 -7.694752868255765044e-02 4.448341399630874049e-01
-8.110259655759567698e-02 -7.419804215447069196e-02 4.385561350385789314e-01
-9.794478906310970234e-02 -1.238110784948678461e-01 4.901509126892635848e-01
-4.432676956153138587e-02 -1.218212518901895663e-01 5.093902021850894579e-01
-3.213327576289308485e-02 -1.213371545167048066e-01 4.990185492848372428e-01
-7.458458709774684614e-02 -7.677860467303619652e-02 4.390712862485923185e-01
-3.375344409382379646e-02 -1.009884697012868038e-01 4.621872967958586265e-01
-1.191619744235998535e-01 -1.154228140918603651e-01 4.905991703064950249e-01
-8.564255595677254529e-02 -1.215765615063242738e-01 4.852652411194927629e-01
-4.284951650059416750e-02 -1.199821495837863627e-01 4.964408576637984738e-01
-9.574336283981817186e-02 -1.220795720858960653e-01 4.651920524630833165e-01
-1.145809284406203304e-01 -1.182190950881694125e-01 4.741218677754902577e-01
-1.783753930769671134e-02 -1.240401949956021765e-01 4.986410889612242769e-01
-7.125133510277875670e-02 -1.189506839503657321e-01 4.841709581627181569e-01
-1.079999894914625697e-01 -1.232354708719380493e-01 4.853991820270214252e-01
-2.146801971544320606e-02 -1.080501953470781734e-01 4.672418856527273401e-01
-1.085774984981453806e-01 -1.172422719312861544e-01 4.684599586319224129e-01
-3.793078244164152513e-02 -8.952218500072302299e-02 4.520780861116812099e-01
-1.027227400344399300e-01 -1.182160830406357860e-01 5.048649343460356320e-01
-7.180430559913382471e-02 -8.112621571514784524e-02 4.407888078634483175e-01
-3.822647527489048125e-02 -1.193141971747466445e-01 4.930843239911034126e-01
-1.474541866251237107e-02 -1.251908793967492217e-01 5.337157912376968572e-01
-4.907418451502838785e-02 -1.166620361551919949e-01 5.340242780266218903e-01
-4.943173655763328372e-02 -8.673622646194539820e-02 4.485244123849695397e-01
-8.875019586529517279e-02 -1.200979829463751369e-01 4.685887845637447535e-01
-7.419921008827591591e-02 -1.141864388258738428e-01 4.709152150330255249e-01
-1.020105185597081077e-01 -1.238941183900413995e-01 4.879174106024135038e-01
-2.805887448914506921e-02 -1.228534904783581821e-01 5.029487971629235110e-01
-3.193121292552485169e-02 -1.085426055664097111e-01 4.705875165109267844e-01
-9.690991525636895310e-02 -9.076581550389278830e-02 4.486034733917119155e-01
-8.217914415070175227e-02 -1.172393501505491348e-01 4.699902090370766117e-01
-1.115099511312900721e-01 -1.214831498311813029e-01 4.791153796326326209e-01
-2.301262453255849619e-02 -1.105840455446207155e-01 4.717300401448292213e-01
-4.231624964179554749e-02 -1.172821178201957776e-01 4.871669916972550252e-01
-9.463750660565492523e-02 -1.219974452190745046e-01 4.773505819137559558e-01
-3.623507384859337571e-02 -1.192568663166837101e-01 4.924286556577453511e-01
-1.000843386446798461e-01 -1.238183113704045268e-01 4.921576008813552394e-01
-1.427995746732982699e-02 -1.248368873437309956e-01 5.351740460603783278e-01
-2.004380225587922351e-02 -1.155473388849403565e-01 5.565316950492689152e-01
-6.019843320758114236e-02 -9.433087943366194605e-02 4.513243881897300303e-01
-2.107089906392776643e-02 -1.235934832097291824e-01 5.385646942186701480e-01
-6.625108771868003232e-02 -1.010285658056004204e-01 4.560831665506453469e-01
-6.726282807244519935e-02 -1.222797499849637703e-01 5.068335417959632938e-01
-6.741519818233764061e-02 -9.818708755871520533e-02 4.532616591089326796e-01
-1.546846570796231966e-02 -1.266189136026720230e-01 5.127508891202704477e-01
-5.950386315674564830e-02 -1.204369091388153845e-01 5.211741738312203331e-01
-1.207401843982351952e-01 -1.114364524262247691e-01 4.823159257148783019e-01
-7.946165842243826938e-02 -1.113724375373667391e-01 4.632381794722377211e-01
-8.122702942327494902e-02 -8.413675063949328792e-02 4.424516714886875257e-01
-1.093062707520762455e-01 -1.180899120647636302e-01 4.698090317790434289e-01
-9.868670718301351952e-02 -1.230342415165838199e-01 4.676872272886856696e-01
-5.137764677102741456e-02 -9.080729058575719159e-02 4.505426522758890218e-01
-7.052101125508862534e-02 -1.201493560644425196e-01 4.887107175643468082e-01
-1.022301539935668163e-01 -9.702212803779926287e-02 4.511113932217949429e-01
-4.140880310087906302e-02 -1.129612137923340642e-01 4.780932367081899836e-01
-1.971338876592490172e-02 -1.244883865068598522e-01 5.024484451139897834e-01
-8.902393148131131084e-02 -1.215133759937361557e-01 4.783406543070989336e-01
-7.136167468666859692e-02 -1.063481760929621545e-01 4.605099272093187701e-01
-8.427668245052899465e-02 -1.091924196879302394e-01 5.211465009093929623e-01
-2.010111667998138243e-02 -1.257792139057023195e-01 5.227714798609712776e-01
-6.998206397177023086e-02 -1.130098974149806590e-01 5.271267099231834452e-01
-1.470217290372577076e-02 -1.243051950246016196e-01 4.973268256922092623e-01
-2.275603371003499450e-02 -1.142944441149845586e-01 4.776093492466854107e-01
-3.572219831169821253e-02 -1.164016594045322595e-01 5.419283391794422755e-01
-1.924020488755808639e-02 -1.138520594206179487e-01 5.583256328336243524e-01
-7.023871949620183464e-02 -9.429361460728102884e-02 4.498706755370521782e-01
-7.636645506208196085e-03 -1.267294108792256790e-01 5.307777109987824593e-01
-6.520695139800809781e-02 -7.507101894239184836e-02 4.402007869211177482e-01
-2.958321068803257403e-02 -1.225952347652951996e-01 5.029412184133895680e-01
-4.889065688184980607e-02 -1.201275815616746206e-01 5.278215938381252137e-01
-5.704694036230912972e-03 -1.272018650032215870e-01 5.035650432115934549e-01
-5.478633275848387996e-02 -1.217163158092970238e-01 5.107163575670146116e-01
-4.862905347256567257e-02 -8.819021214135375208e-02 4.494745471535011583e-01
-1.954271456717151731e-02 -1.085788804039721639e-01 5.625265738784860359e-01
-4.099258619753654020e-02 -9.597408902438799017e-02 4.569225270054273480e-01
-4.681252085256630557e-02 -9.858915977295396038e-02 4.578940590011820189e-01
-2.879472268428810711e-02 -9.931037433665576564e-02 4.596304311750140092e-01
-7.651611124174939604e-02 -7.072444830803628624e-02 4.375957325984143331e-01
-1.077202282116092452e-01 -1.226258498554976956e-01 4.944321000389147458e-01
-8.865979172916939322e-02 -1.212291906256921653e-01 4.797367341847634248e-01
-4.775232014395416891e-02 -1.098506497771841867e-01 4.723556558144159645e-01
-9.948081195977256930e-02 -1.147859927323338219e-01 5.106808540028745513e-01
-4.030955967328607448e-02 -8.467891929598776735e-02 4.487475556504019192e-01
-1.325717244478776154e-02 -1.269584537302922422e-01 5.096828150422874071e-01
-6.261861270286568637e-02 -1.218924477456579530e-01 5.109937060093644456e-01
-2.708839023532670295e-02 -1.193671159904137746e-01 5.462447078560394020e-01
-1.029088191929649482e-01 -1.233249545824165738e-01 4.805037858179499466e-01
-3.453977993269445601e-02 -9.193013264108869376e-02 4.543521232256277353e-01
-6.870364961010887173e-02 -8.442055429307658565e-02 4.434393989667750335e-01
-3.248944438759651665e-02 -8.980589595139269743e-02 4.525311485716007609e-01
-8.044908354166603603e-02 -1.198359452114784729e-01 4.834779839696179415e-01
-7.882673804992361422e-02 -1.158580076388683044e-01 4.711184332445482181e-01
-3.432235062598400221e-02 -1.026443930697364393e-01 4.637410997157007664e-01
-2.945487316601082955e-02 -8.971693639733989423e-02 4.519450790051846578e-01
-2.917973910027179402e-02 -1.220447859939042673e-01 5.374844644455739617e-01
-5.893739617190042052e-02 -1.206165264179213104e-01 5.206483511234277772e-01
-3.056439127778892012e-02 -1.219125681953077828e-01 5.003580754399795660e-01
-8.993924850890626377e-02 -9.349267879963531203e-02 4.477205442528404133e-01
-6.904771078517658867e-02 -9.964759321415424254e-02 4.542999176527101612e-01
-3.507963990299315521e-02 -9.743624349234332460e-02 4.589226575232346894e-01
-5.016567163125405793e-02 -1.176638197025335897e-01 4.877176144800976498e-01
-1.140986797193369734e-02 -1.172476339840936160e-01 4.778529971271426868e-01
-6.415509556509629840e-02 -1.098842605735533551e-01 4.678300323181511233e-01
-1.165641183916584500e-01 -1.023248244218214476e-01 4.658265437674017906e-01
-1.039857194744348290e-01 -8.936888365149464608e-02 4.536875091588271625e-01
-1.022402135224267233e-01 -1.102042832923397359e-01 4.592459779795162733e-01
-2.252645799761234663e-02 -1.222832866072612878e-01 4.960650965073635787e-01
-1.586858806209507505e-02 -1.200606064875231888e-01 4.851815392497491608e-01
-1.834332141177777431e-02 -1.261956011941805234e-01 5.202328352093933406e-01
-9.923559744532463658e-03 -1.107697954454610473e-01 5.626816009826279830e-01
-1.182498857489314992e-01 -1.074487184324341565e-01 4.676987453994844723e-01
-4.333840794228259463e-02 -9.034767242852800861e-02 4.520656979010895804e-01
-1.093473901199080653e-02 -1.267361458740394742e-01 5.048151709557132660e-01
-1.035503635294744845e-01 -1.148245654369541568e-01 5.066347952165036750e-01
-7.920836450646340232e-02 -1.227294680456216813e-01 5.046266488298840613e-01
-2.938348580969011442e-02 -1.204209624510805127e-01 5.422061313036926622e-01
-5.546383948825102383e-02 -6.066258622954731616e-02 4.387720769077225746e-01
-6.105443639984180909e-02 -1.201791669166932391e-01 5.218336846707484211e-01
-3.458481236961387373e-02 -1.167603859918776438e-01 4.857886677819590604e-01
-1.914337288131922124e-02 -1.174363673436528838e-01 4.806220156831033097e-01
-7.335712517649310704e-02 -8.253771338015582215e-02 4.414426516847761994e-01
-6.626824981088148825e-02 -8.354193072330562408e-02 4.432906312946354732e-01
-5.048284753189342944e-02 -1.170537035539556819e-01 5.327771245723933458e-01
-1.818998323490613953e-02 -1.142070093810413495e-01 4.748249755185999788e-01
-6.229374994015389466e-02 -1.189661275296163001e-01 4.895780922015895431e-01
-4.917865618205152778e-02 -9.459438493641678103e-02 4.539150992815332852e-01
-8.609426181423616986e-02 -1.209022052805662634e-01 4.821797658010705812e-01
-9.577030244571750617e-02 -8.368511711417377097e-02 4.473832352657096112e-01
-1.200722722647089152e-01 -1.143485335624379595e-01 4.844672774217226863e-01
-8.561975391697026691e-03 -1.141703548385052808e-01 5.594243000762928464e-01
-3.913877992799918992e-02 -1.091711644717845708e-01 4.717008704784787509e-01
-1.057954249606513353e-01 -1.154047793810078770e-01 5.041538517419136278e-01
-7.838907231354678984e-02 -1.218150108965916495e-01 4.917409243627769433e-01
-1.067149804037573341e-01 -1.192532882897112401e-01 4.704111107206398468e-01
-1.171435721434722355e-01 -1.186602206462178538e-01 4.911289961615559196e-01
-6.347975087117925519e-02 -7.354871867127961427e-02 4.402166516406443297e-01
-9.701410345944724845e-02 -1.238645652242117701e-01 4.871932592636744053e-01
-8.820850889404915907e-02 -7.359118857469749975e-02 4.434759421640550592e-01
-3.793349318517439533e-02 -1.168723789388536327e-01 4.861312126310413650e-01
-3.396746162124267276e-02 -1.178201890051670531e-01 4.879889978193101552e-01
-6.067538609813834249e-02 -1.214750636123987232e-01 5.025629505896177518e-01
-4.651388930723607956e-02 -1.190275949075847578e-01 4.927872898350930120e-01
-1.520462116441067928e-02 -1.265454098711938924e-01 5.271756212692754184e-01
-8.892530810130376551e-02 -7.878358032065577166e-02 4.432441774734638962e-01
-9.481167172715168623e-02 -1.237902708106517341e-01 4.884091092067099904e-01
-6.737123017201653019e-02 -1.170415504501329390e-01 5.246813240834645731e-01
-3.201768018929113113e-02 -1.204659742830712921e-01 4.953116855554894893e-01
-6.866636547895089981e-02 -7.261623577221235082e-02 4.387624611337799241e-01
-5.337457816229095042e-02 -1.113781398833897512e-01 5.351597220426144164e-01
-8.442563235507327679e-02 -6.716851459972694727e-02 4.401289583930590998e-01
-8.406075565423450080e-02 -1.131254206317003352e-01 4.625902476217029768e-01
-6.444690525313745422e-02 -7.030394857513916351e-02 4.390255924420358724e-01
-1.168187378501234358e-01 -1.213676806237367900e-01 4.879967154945467067e-01
-6.223090349671633881e-02 -1.208523112341045869e-01 4.980352774253092307e-01
-9.680418872228818694e-02 -1.231525834130249020e-01 4.973571254381781714e-01
-5.324490320679810956e-02 -1.201566049807622910e-01 4.975571841817227337e-01
-6.789296703353842055e-02 -1.174468237713022084e-01 5.240245028548405903e-01
-2.086152344343275913e-02 -1.153480099448696283e-01 4.781289887033852160e-01
-6.272768177816730184e-02 -1.086169145300803357e-01 4.661296764943048121e-01
-8.551528070055258723e-02 -8.528904595609125561e-02 4.435889743011388053e-01
-6.817379315852716004e-02 -5.199393602474506465e-02 4.396585080823444680e-01
-9.899779247295396878e-02 -1.230490747446070648e-01 4.782343265215794892e-01
-9.909223837748626362e-02 -1.035197862572287963e-01 4.537911242522017496e-01
-9.182814205409475100e-03 -1.273519933735124121e-01 5.267826593830012838e-01
-6.157314903440826159e-02 -1.171555623203096863e-01 5.271382610576428318e-01
-5.764045715923518665e-02 -1.137568889422062579e-01 4.771372481260771070e-01
-8.625887486796450510e-02 -8.602550395289017271e-02 4.441034701649520522e-01
-1.963794626707093469e-02 -1.093469372303833148e-01 5.621762496735044357e-01
-3.876130691726918653e-02 -1.208097944988196504e-01 5.345886197278494345e-01
-4.073900701615546655e-02 -1.222118447332716656e-01 5.124619805500374436e-01
-8.383308331876036801e-02 -1.216648685075935876e-01 5.111697711211045103e-01
-4.683265017461811508e-02 -1.215410335545730469e-01 5.071075121396511065e-01
-4.847806704782685328e-02 -1.053788749083822002e-01 4.653962005028525195e-01
-5.957718964374021653e-02 -1.204221965547426360e-01 4.971949653555106097e-01
-1.197683457273886753e-01 -1.127889620405871374e-01 4.819024314792151875e-01
-6.006693078253055179e-02 -1.181327929963670031e-01 5.265586868265483833e-01
-6.331519209356967215e-02 -1.216551118443393170e-01 5.026623260577764984e-01
-6.374562324597420060e-02 -1.211377655565737399e-01 4.987372539007304262e-01
-3.059268510219242954e-02 -1.231125312241236891e-01 5.296092209016760588e-01
-8.501553622403025534e-02 -1.012855194781381030e-01 4.528456585107054622e-01
-5.703778434314815682e-02 -1.108717214775762211e-01 5.330969721166185504e-01
-4.063861436914775749e-02 -1.205204709588534040e-01 4.984575624673919791e-01
-2.783316252873013763e-02 -1.083172803060050704e-01 5.535512107719160468e-01
-7.048600871006596713e-02 -7.552596220367513435e-02 4.391769682932735730e-01
-4.280226649170503633e-02 -7.779056116272156651e-02 4.453526015260902970e-01
-5.694017815408785460e-02 -9.026214171769673944e-02 4.491622040927998327e-01
-9.130396296142839763e-02 -1.169034418526857244e-01 4.605306560151095074e-01
-1.347440448828612393e-02 -1.145277497782231230e-01 5.590532132398557952e-01
-7.621857056407739528e-02 -9.246598922331177028e-02 4.478477000453911505e-01
-5.276847087122718549e-02 -1.069291300612266599e-01 5.369257934283400147e-01
-3.203737297336096967e-02 -1.223689255669895420e-01 5.040385702441021465e-01
-9.147123678949271863e-03 -1.271593679284212242e-01 5.277570832716420579e-01
-1.187809994049217888e-01 -1.122817785314513123e-01 4.727570841722428807e-01
-1.105693047417466990e-01 -1.191028196446803494e-01 4.723117374005435520e-01
-2.459479127408755600e-02 -1.047671176751069216e-01 5.579308888724046067e-01
-7.003907134440530945e-03 -1.271925435879703581e-01 5.045026381081367806e-01
-2.531417901545248220e-02 -1.179787816126305344e-01 4.861504284556508182e-01
-8.489216287088437174e-02 -1.207496166457662501e-01 4.751484946432432133e-01
-5.092174276062647054e-02 -9.506967105851818478e-02 4.538446468585976556e-01
-5.162105792484837641e-02 -9.618158835572830634e-02 4.546163542954037018e-01
-9.789723869870967099e-02 -1.178731495555233044e-01 4.633409304657538086e-01
-6.443443753074890035e-02 -1.192807628408592141e-01 4.892882967369362457e-01
-1.033391319347415072e-01 -1.201849561083955936e-01 5.025086074620255250e-01
-2.459415749633189763e-02 -1.148449343660531141e-01 5.544743499915325557e-01
-6.759604306040840893e-02 -5.582092400656341047e-02 4.380886459945178557e-01
-8.402405280200626880e-02 -1.204769061445693790e-01 4.802130748694132811e-01
-4.343383747135777517e-02 -7.007709464048460235e-02 4.423207108848494218e-01
-6.178635838605327224e-02 -1.165637902411513632e-01 5.276688075714223158e-01
-3.001071151908284163e-02 -1.115009750046390274e-01 5.493058425857147986e-01
-8.919013981515487577e-02 -1.109270591387934990e-01 4.591639109750627612e-01
-1.052422104836653466e-01 -1.200922245927131121e-01 4.712779764833139318e-01
-7.316622833864851183e-02 -7.638912081281759581e-02 4.390653113142402031e-01
-2.868673599911805011e-02 -1.021274726059146210e-01 4.623102825367785829e-01
-7.543766558002788780e-02 -1.049531662037215679e-01 4.581221180264848369e-01
-9.540878789127750503e-02 -1.218977069790503215e-01 5.056853824867166836e-01
-7.976141050279905720e-02 -1.209405583255035860e-01 4.879213052715453136e-01
-2.996653540470111537e-02 -1.228999172648315152e-01 5.053095785044782184e-01
-2.171391287892459124e-02 -1.015173191834275873e-01 4.591697078234640572e-01
-4.068922228702041843e-02 -8.040440575753679542e-02 4.464802389106166114e-01
-4.696081799719224736e-02 -1.207720437499131133e-01 5.267830707675726920e-01
-3.497949161959990061e-02 -1.101274393015300862e-01 5.444607501060113597e-01
-2.919693818869695603e-02 -1.012327729131594495e-01 4.614645174199407673e-01
-6.465397763022669164e-02 -1.203895797749522795e-01 4.937962471646410445e-01
-6.931301905137392250e-02 -7.339347983882155146e-02 4.388381951286718374e-01
-6.863022728230054603e-02 -9.126700853884470166e-02 4.477679255014782034e-01
-6.449325264879166887e-03 -1.286744963567164890e-01 5.173498732541397249e-01
-3.509814246274255145e-02 -1.227711599584927205e-01 5.140909983408668005e-01
-2.508466726830895638e-02 -1.228670984384504505e-01 5.002470961523504123e-01
-6.596358042555781898e-02 -6.381439513214665071e-02 4.373699710937031249e-01
-1.216839187988603965e-02 -1.212284220673746776e-01 5.487495151167799401e-01
-9.529422313544327894e-02 -1.010513850962014015e-01 4.519030389486382582e-01
-1.142363555172410672e-01 -9.960330877141591877e-02 4.616276546118806001e-01
-3.714117915954173732e-02 -1.112084542972726492e-01 4.749449467695022742e-01
-9.032509051171969117e-02 -1.232571471669003105e-01 4.921616640216205374e-01
-2.238895921718430521e-02 -1.252429084970945461e-01 5.195864654438379082e-01
-4.804502813371194087e-02 -7.370626844756608675e-02 4.432802374003383949e-01
-1.491512797709882918e-02 -9.710454959992290136e-02 5.672754229281304905e-01
-5.504247247417343170e-02 -1.122012083745691641e-01 4.747056351077680869e-01
-5.113143091703291343e-02 -5.984898543385801239e-02 4.391316100945849010e-01
-1.651208518675476022e-02 -1.167545103632793846e-01 4.784450714926049564e-01
-4.863756166550785298e-02 -1.209286298041848534e-01 5.031428793591421478e-01
-8.985992079240866237e-02 -1.218759430834184671e-01 4.760962098125777753e-01
-8.113507255761950865e-02 -1.185742766266276449e-01 4.738293387586013927e-01
-1.273405239697756632e-02 -9.887240130456775855e-02 5.678435220591834254e-01
-1.348060958961442603e-02 -1.272761878744922692e-01 5.187665562484991000e-01
-9.233319205018672426e-02 -1.169627238293036303e-01 5.133660365547080273e-01
-5.859261056278922825e-02 -6.194070215494241333e-02 4.386089753949968806e-01
-7.285213195556630716e-02 -1.086355892735792056e-01 4.628213202980383523e-01
-4.512524033812474744e-02 -1.218609015073959939e-01 5.116614611780518906e-01
-7.807420855442595564e-02 -1.163332946028585585e-01 4.725875915496827173e-01
-3.117906706722328378e-02 -1.108535878796080010e-01 5.480629215681515065e-01
-8.298272187357386143e-02 -9.644154000240683089e-02 4.498007388202665546e-01
-1.044993149966423479e-01 -1.200174679880351425e-01 4.699361218404545237e-01
-9.385129637206103548e-02 -1.222524110541932385e-01 4.802631428087460463e-01
-5.567462578768420101e-02 -1.210560488426824510e-01 5.028253364880235221e-01
-1.167249285293811278e-01 -1.091879631961225061e-01 4.670941834894694611e-01
-3.780738188434335650e-02 -1.080340626183021041e-01 4.700316805516046026e-01
-8.829239764306447136e-02 -1.119852787959796786e-01 4.603404115740468705e-01
-1.141586483543858832e-01 -1.219225758848580671e-01 4.853001833846998792e-01
-4.943783862821854100e-03 -1.257683005198717008e-01 4.979530790547914698e-01
-1.101315962852331271e-01 -1.192692349208426400e-01 4.723799211609908122e-01
-1.158240463852310692e-01 -1.153461730233082821e-01 4.712201093743346170e-01
-3.342095518448442992e-02 -1.223578584222572985e-01 5.317357320265065912e-01
-7.274765087222433146e-02 -6.659814009210589247e-02 4.364457965966622721e-01
-7.748522874364847934e-02 -7.128509429555930643e-02 4.377316813674357876e-01
-1.119800183672456789e-01 -1.154602667661836085e-01 4.679951375570975403e-01
-1.052613448912474159e-01 -1.180997606637741587e-01 4.679978876018360268e-01
-9.117384058821818849e-02 -1.224072163382082523e-01 4.744352076489037895e-01
-4.003905922662244488e-02 -7.474690825471008715e-02 4.439761316275146474e-01
-5.941407139204534643e-02 -1.200730967036772595e-01 4.955752112456612846e-01
-1.661198422106026015e-02 -1.246233149715864769e-01 5.000575755543440470e-01
-2.619993068548420040e-02 -1.098653035518250692e-01 4.721782004312218839e-01
-3.485735401999431882e-02 -1.073526011296224297e-01 4.691241469104265316e-01
-9.324894597667794660e-02 -9.908167446529958511e-02 4.505067544757515030e-01
-4.629502422832098424e-02 -9.595408121002460544e-02 4.557455589388703654e-01
-6.229215349876565666e-02 -1.147844566926816828e-01 5.292077443539544568e-01
-2.117470713823772777e-02 -1.127708813628933993e-01 5.581724410078715559e-01
-6.325570328487147009e-02 -6.245810227141125603e-02 4.378237644077045410e-01
-6.972750075892153454e-02 -8.294583787969589395e-02 4.423381600312537021e-01
-5.685757032335746891e-02 -9.375660895357279534e-02 4.514894996890227996e-01
-9.021053944917660494e-02 -1.230625333532544413e-01 4.999667115910504389e-01
-5.465299280034068702e-02 -9.283466024435345354e-02 4.511858599022700589e-01
-2.636442314434054440e-02 -1.240878821928418085e-01 5.114371369078790641e-01
-4.479884820334559779e-03 -1.286859345794555409e-01 5.123902306895914416e-01
-7.467425950270774326e-02 -1.213435676576384292e-01 4.916714066605183953e-01
-3.355334800188152639e-02 -1.042702003962615726e-01 4.653672137318036750e-01
-9.239215484286010527e-02 -8.891213898505345714e-02 4.457033087504701507e-01
-4.417320455044911748e-02 -1.194496418037649249e-01 4.942503692662552073e-01
-2.078764136743270832e-02 -1.234033473788582747e-01 5.396618978284959400e-01
-7.498890521034197454e-02 -1.129221713157116530e-01 4.684027073538807318e-01
-8.924539964744683529e-02 -7.923468750353815371e-02 4.435258941039441072e-01
-4.581199553563318483e-02 -7.258392811769462383e-02 4.430888592490931921e-01
-1.011938621357849795e-02 -1.279649765546066464e-01 5.179933797080037428e-01
-6.253870263582886335e-02 -1.162537418465663247e-01 4.814327384107781049e-01
-1.075769507177160161e-01 -9.481772756809524194e-02 4.552402117017585459e-01
-6.136913336643937816e-02 -7.353402938435561753e-02 4.407623684630957994e-01
-1.135391649034692418e-01 -1.203539726886790617e-01 4.765392991066074169e-01
-9.703389630273792643e-02 -1.175411997859374530e-01 5.108513101751098739e-01
-5.879934266685970384e-02 -6.082719456953268600e-02 4.383953954267520436e-01
-5.091967883518628418e-02 -1.104138876379026774e-01 4.726245516248186451e-01
-1.255157704805289626e-02 -1.273485422017270330e-01 5.142101814170496610e-01
-8.672678186627348629e-02 -1.160454897052465434e-01 4.624921075281643867e-01
-1.117548691820162143e-01 -1.210895526156648000e-01 4.773760680118203092e-01
-5.105066181488896945e-03 -1.206575291647579290e-01 5.440261421149605869e-01
-4.800333273986386040e-02 -8.623258099537858823e-02 4.485033926060883469e-01
-1.148572311408452840e-01 -1.217962915343856201e-01 4.869507274136292696e-01
-1.044594874851995925e-01 -1.232700984023988172e-01 4.947338581481116049e-01
-3.018516491180251934e-02 -1.152958644360416174e-01 4.825442809650763443e-01
-7.634884141338452168e-02 -1.006329328093736458e-01 4.538455276679124184e-01
-5.892914759135711722e-02 -9.165407195714449229e-02 4.496210247354694434e-01
-4.718709029427028967e-02 -1.200936186678004391e-01 4.979159315423346555e-01
-6.925540059339602150e-02 -1.131838884861621763e-01 4.716727922401277584e-01
-5.800237531524252144e-02 -1.141250139503852679e-01 5.313377771420091378e-01
-9.302909247967827699e-02 -1.164081826922811896e-01 5.134078611873046372e-01
-5.279732726665256615e-02 -1.214605101567937800e-01 5.073798304879785226e-01
-6.007284793625854158e-02 -1.119862367473145881e-01 4.725586778449087366e-01
-7.360507697809247352e-02 -1.151945846609393059e-01 5.252173837051019589e-01
-6.856235244087952041e-02 -5.471532185333333881e-02 4.386310090512626769e-01
-7.016867008296064079e-02 -8.261799331732977425e-02 4.420511036952027850e-01
-1.162229210403857016e-01 -1.188201337386417256e-01 4.776462622796052160e-01
-2.769031050829145330e-02 -1.240937435934710842e-01 5.224107013896452933e-01
-4.344882088737357650e-02 -1.218871263367583557e-01 5.236762623485547996e-01
-7.418241230694555544e-02 -7.516414446760587287e-02 4.386391616803648197e-01
-3.008956227648084888e-02 -9.175491216898648550e-02 4.536521251752554940e-01
-9.229284807950226266e-02 -1.219074571464487666e-01 4.664607502557405749e-01
-1.139710801604400386e-01 -1.219584137922336692e-01 4.876189589733100904e-01
-6.962094319768875883e-02 -1.219689164261710257e-01 5.104572252090017193e-01
-2.502241169822175260e-02 -1.240920709182598142e-01 5.081157040164744343e-01
-7.076252472600927379e-02 -5.361255823406404358e-02 4.393093724286550872e-01
-7.451651088220551111e-02 -1.191129841780793203e-01 4.817091143087799954e-01
-9.878707785315674061e-02 -1.003176941285177648e-01 4.518319114983965767e-01
-8.125013963151604679e-02 -9.983537058473514192e-02 4.523911409752237600e-01
-5.817701743946389337e-02 -1.216796045486771977e-01 5.094916820939582314e-01
-9.158070519557695577e-02 -1.158114166692103125e-01 4.601226907227938256e-01
-2.803613162328899219e-02 -1.031546877593759043e-01 4.632688949873254858e-01
-1.111839157588361410e-01 -1.225336098126593998e-01 4.877019141464890017e-01
-1.032438913093300381e-01 -9.740117649205869144e-02 4.516017063849874225e-01
-5.690762954011070046e-02 -1.075391839906380403e-01 4.661165412562836563e-01
-1.067609830359486367e-01 -1.228070107700099528e-01 4.944156040089893178e-01
-7.740930561728666393e-02 -9.344530310814624929e-02 4.483881329462798271e-01
-5.459231431281174468e-02 -1.216889195171971527e-01 5.137505731702295408e-01
-2.498929910356809114e-02 -1.154128888539125708e-01 4.807983554498351797e-01
-4.400656589568912452e-02 -1.218904672309955861e-01 5.213786996635413340e-01
-7.008164315380810416e-02 -1.197834561575354256e-01 5.185725568758858817e-01
-5.580827731026261063e-02 -1.200291891194125021e-01 4.964979885804812199e-01
-2.519341066364821219e-02 -1.201581451179504212e-01 5.457482359835299501e-01
-1.674134615749352240e-02 -1.163813505531030856e-01 5.566643604270210544e-01
-2.146152591286682593e-02 -1.248125027892780514e-01 5.059166286597227558e-01
-9.300094197710981336e-03 -1.266934238679219837e-01 5.298612393621953132e-01
-9.214754716299319859e-02 -1.234819065438890473e-01 4.950570267205112729e-01
-4.920721257717657060e-02 -1.027833832035071476e-01 4.617484711289970289e-01
-1.143593482315449772e-01 -1.082416207373577827e-01 4.630288704669842104e-01
-6.037145457690600708e-02 -1.129067391118289548e-01 4.745080345012205880e-01
-8.471330029308403453e-02 -1.208297954934251239e-01 4.836565276011682291e-01
-1.739543852072354679e-02 -1.264082592348755030e-01 5.236581426484683277e-01
-9.053202266943276288e-03 -1.249249461229668540e-01 4.963691369352244975e-01
-6.008838328934865136e-02 -1.069821667373409974e-01 5.328549806120607135e-01
-2.201108840798735380e-02 -9.815808062143589752e-02 4.563589808138838744e-01
-1.180883565234639443e-01 -1.156580789388998165e-01 4.763386184254160827e-01
-2.884158402314063868e-02 -1.222633296327676339e-01 5.368369051876417108e-01
-6.010220858183659698e-02 -1.188333191026633012e-01 4.901880609169473879e-01
-6.906767681608377840e-02 -1.216864051405284475e-01 5.128666348842745304e-01
-1.120616894293715790e-02 -1.009012162140803942e-01 5.677862684129034720e-01
-1.249024819951955259e-02 -1.257240876819033515e-01 5.322542538172156945e-01
-6.473146125683411356e-02 -1.110064448928440306e-01 4.695338347936967582e-01
-1.148413844531015054e-01 -1.180544658658296137e-01 4.957242711755089903e-01
-1.084951425383077761e-01 -1.031101532169336615e-01 4.553603528034402825e-01
-1.930232681629058880e-02 -1.161397496553424891e-01 5.562466730345986266e-01
-6.111910544373178045e-02 -1.211492001174644811e-01 5.001002101461350380e-01
-5.855540793072883110e-02 -9.776803678916846929e-02 4.543984826385712994e-01
-2.773802856109941484e-02 -1.038442060234973374e-01 5.525121366625013186e-01
-1.146247644211458167e-01 -1.212711288049919262e-01 4.815442265267202981e-01
-5.588734647254493121e-02 -1.097608350992134441e-01 5.342376407396804971e-01
-1.191552748520333938e-01 -1.170686114016807888e-01 4.891459658043408876e-01
-7.120191764725333772e-02 -1.155853458920875487e-01 5.252758951652659603e-01
-9.311327755681952922e-02 -1.042064479737233873e-01 4.541015483874912273e-01
-1.024233944951154357e-01 -1.223428732036532934e-01 4.752415726428549925e-01
-1.651382931094939888e-02 -1.264915853667513690e-01 5.147336776114570522e-01
-5.041339369066567128e-02 -1.154863998655533547e-01 4.822922867923593038e-01
-3.398475448311495672e-02 -1.227055507233040244e-01 5.099659582184553619e-01
-4.049382279590221789e-02 -1.059910333860674125e-01 4.671205971821251746e-01
-7.951243791878867540e-02 -1.013401296941006807e-01 4.538289104052886103e-01
-3.625054149448025953e-02 -1.212314943898890746e-01 5.347465941705965564e-01
-9.622489547017622213e-02 -1.224821391847426971e-01 4.755445648600842290e-01
-3.770366704903908156e-02 -1.114881297095399459e-01 4.754576796638911862e-01
-8.209638715269222675e-02 -1.202814949817537921e-01 4.849223785743854709e-01
-9.087930027803105271e-02 -9.351526035238670598e-02 4.477891316114405162e-01
-1.183322022703568038e-01 -1.103558453563085046e-01 4.697102157562968450e-01
-8.092524592977889952e-02 -1.062155469997265594e-01 4.576122380531617573e-01
-6.876510170274682809e-02 -7.062547580999750663e-02 4.381775987303186404e-01
-6.563711916225088705e-02 -1.198631722540779015e-01 5.206752760255070056e-01
-5.377379306768544087e-02 -1.194379488363414982e-01 4.944273630045126766e-01
-4.594899494740247586e-02 -1.217218781090187024e-01 5.199271822464410775e-01
-9.928085902149499931e-02 -1.225769382877241187e-01 4.677945563076416624e-01
-7.952044286865804501e-02 -8.329347296550407287e-02 4.419875993014976134e-01
-7.080352168446994721e-02 -9.036833655784023978e-02 4.469145244862209876e-01
-1.023964543473093319e-01 -1.237307951170490278e-01 4.838604282106664933e-01
-2.931469437378061635e-02 -1.237917001107071424e-01 5.185947612813227581e-01
-9.458544488938268324e-02 -1.223760031644907931e-01 4.758224654022371047e-01
-5.050436984006232560e-02 -7.320509284015479234e-02 4.428440603375815021e-01
-4.765676157795071394e-02 -1.119715975402306579e-01 5.373481885959018323e-01
-9.947819004357436046e-02 -8.699695982487060109e-02 4.498357998857076545e-01
-8.118714731387029204e-02 -1.049374233973527498e-01 4.563679213340844920e-01
-1.025385440293045264e-02 -1.159198250821395632e-01 5.574812900778847169e-01
-6.436402912240331287e-02 -8.694398093351718426e-02 4.456437025922380113e-01
-3.318623072273670094e-02 -1.097394094482356947e-01 5.459899035431047265e-01
-7.592273051436190801e-02 -6.875186529248522582e-02 4.368834210376705274e-01
-4.872182673972821898e-02 -8.053470423149002022e-02 4.457540949130163743e-01
-8.890577422813229769e-02 -1.230757830117091278e-01 4.998842571120689082e-01
-3.087789373049848810e-02 -1.202429838116324673e-01 4.940667802773686668e-01
-6.859520454153857083e-02 -1.052679575860138300e-01 4.599679549214585328e-01
-2.092998354973799047e-02 -1.250064788093861179e-01 5.063606052314925110e-01
-3.345861075944376456e-02 -1.182647416085539499e-01 4.890972574497444714e-01
-8.201512451132166037e-02 -1.199278603927108888e-01 4.756907108510574078e-01
-7.734325280142927139e-02 -1.036369925952927984e-01 4.562649772368614909e-01
-2.628091096335039706e-02 -9.798279903206376373e-02 4.576176343464810059e-01
-7.049276109886565278e-02 -1.223449551366460469e-01 5.027699911185190551e-01
-1.901386851499291264e-02 -1.221592378322022415e-01 4.928902907898506380e-01
-7.637588420101176778e-02 -8.323919947063222746e-02 4.416859901372597319e-01
-9.137077955041654487e-02 -9.449978112348318693e-02 4.483560748306369415e-01
-7.652160397668499037e-02 -1.219926946529951706e-01 5.115048495387518601e-01
-6.100042376925281229e-02 -1.215401176522585835e-01 5.031684151980694297e-01
-8.065569793146608324e-02 -1.221824787899686293e-01 4.922067893240142933e-01
-7.653305346501292072e-02 -1.222630490400135883e-01 5.090748031711561650e-01
-6.786760693049090354e-02 -1.084948506214301889e-01 4.642308581715253735e-01
-5.564306329725524428e-03 -1.268410244239055462e-01 5.311412924444094408e-01
-1.195669655485987193e-01 -1.167199300169434878e-01 4.853500282725477510e-01
-4.528121359234799082e-02 -7.652954208578051365e-02 4.445850711308433900e-01
-7.724543527366364848e-02 -9.679319836351624184e-02 4.508555727646745837e-01
-1.010108970500648573e-01 -1.213136761095500588e-01 5.022495417263156403e-01
-1.221439949647326953e-02 -1.077709866328742383e-01 5.644092182200295404e-01
-3.349528194815113574e-02 -1.228641478732392378e-01 5.108920284479310236e-01
-4.017017664190289383e-02 -1.197224928417501832e-01 4.946196216587849803e-01
-7.271349942211886852e-02 -8.954477424821588594e-02 4.462070746598550408e-01
-4.046738609570399436e-02 -1.183216044185166210e-01 4.901583738586399730e-01
-4.414487572175938151e-02 -1.168963992749687264e-01 4.861557722764258682e-01
-9.605515405547296326e-02 -1.144946795980957693e-01 4.601078130084576556e-01
-6.069317713296034505e-03 -1.245694372296670543e-01 4.942768461908128574e-01
-2.714126854513489173e-02 -1.104131348668772467e-01 4.730056829983119160e-01
-9.894265229908910664e-02 -1.231860180372819358e-01 4.795395672555122224e-01
-1.474812523862705296e-02 -1.269940041586146984e-01 5.189201356269759202e-01
-7.584491156951245205e-02 -1.116489422353091482e-01 4.657804163191326396e-01
-6.812389507850925841e-02 -7.229629688324432091e-02 4.387914231564641887e-01
-2.534408167624354821e-02 -1.178218920492786620e-01 4.858439043128883750e-01
-5.473475906823922071e-02 -1.159990495910367542e-01 5.317072594738300184e-01
-1.139414486434165569e-01 -1.161372562122310464e-01 4.702880413705303742e-01
-3.860963120569553542e-02 -9.862573610956901216e-02 4.595250949204516266e-01
-8.957336295083910549e-02 -7.491349343306857866e-02 4.445902334540006162e-01
-1.410408193053817177e-02 -1.150708794993848538e-01 4.743985328696752046e-01
-4.671058077190098912e-02 -1.218860809972898557e-01 5.157293399513253052e-01
-5.176338045259910869e-02 -7.825212174724544001e-02 4.443825520974035714e-01
-5.352684748681764415e-02 -1.214782083634963622e-01 5.179009501862258391e-01
-4.789585011698264255e-02 -6.039809429661712609e-02 4.394112117996907263e-01
-2.324352793726914418e-02 -1.035422280332220779e-01 5.601326702103792687e-01
-7.469780342727148914e-02 -6.027949015791679577e-02 4.370438775971221546e-01
-4.163093920881260485e-02 -1.134055965932557891e-01 5.398946502391092084e-01
-6.023250454279706345e-02 -7.140031374434566147e-02 4.405403057242617271e-01
-6.056188596486652975e-02 -6.556664197496220314e-02 4.387705403406587101e-01
-3.023333840117141402e-02 -1.235774665760973612e-01 5.247980931044693431e-01
-2.357380545053092483e-02 -1.196416371670105810e-01 5.479459945202274085e-01
-1.130063450063006555e-02 -1.265923513079319218e-01 5.293518861902943851e-01
-1.245702333967270078e-03 -1.290318759364347534e-01 5.236742231109742240e-01
-9.526146917186878449e-02 -1.228233012933576396e-01 4.657301773417023560e-01
-6.868415705032358820e-02 -7.016118985341610048e-02 4.380624508150002816e-01
-2.609377923606558125e-02 -1.034358432574736947e-01 5.549136214361057862e-01
-7.732998962629691886e-02 -1.197504348391860568e-01 4.831424370078458153e-01
-7.309355956937525767e-03 -1.187788568561112951e-01 5.524324928405344171e-01
-1.119907892293425383e-01 -1.009403071625705334e-01 4.577913467259043245e-01
-4.457787213288613715e-02 -1.217348897468937263e-01 5.078060270311428592e-01
-1.731397004523417549e-02 -1.231079292974958383e-01 5.430843447045677896e-01
-6.000231258904421827e-02 -7.814371801664146688e-02 4.425559540648974499e-01
-3.160352258759953348e-02 -1.213115919627622552e-01 5.374782746269257672e-01
-8.069832613984326275e-02 -8.285381908809080764e-02 4.418089502228996213e-01
-5.590053699261315900e-02 -8.918567330824600514e-02 4.486824521933396315e-01
-3.798953184052254739e-02 -9.535251668852715023e-02 4.568058205280542405e-01
-4.933873196024953639e-02 -1.079384374105004790e-01 4.686886841453510311e-01
-1.025468058601834986e-01 -1.235628325387472665e-01 4.943426152237737070e-01
-6.917819260248177227e-02 -1.086451969189024258e-01 4.640247017197616786e-01
-6.905760129961006910e-02 -1.200690300696333201e-01 5.180773142949897103e-01
-7.817741793761333324e-02 -1.225103909167677974e-01 4.965590141626989862e-01
-2.398205216773393808e-02 -1.063773745452601394e-01 5.582930580938039178e-01
-6.552951632390224823e-02 -1.210915318762633697e-01 4.971643600058588963e-01
-6.185314761161701813e-02 -1.220289893159818978e-01 5.091307406487106668e-01
-7.879416306711931051e-02 -1.183683844747717012e-01 5.191295022849369278e-01
-8.173796317880807627e-02 -9.091254297702450193e-02 4.464565775208642062e-01
-2.457361039488696261e-02 -1.071482795475928868e-01 4.674671011743989912e-01
-4.029064941125940630e-02 -1.223148543061131355e-01 5.142851926618672298e-01
-3.209539721072811325e-02 -1.200836103431115742e-01 5.410282090461437932e-01
-7.533421974891032699e-03 -1.267611002540225407e-01 5.023638126118079583e-01
-6.550216928591749699e-02 -1.215813200976232494e-01 5.143547466177929017e-01
-4.092490531052960651e-02 -1.045245686196931006e-01 4.654372894748222689e-01
-1.186536949316894657e-01 -1.039927474565321835e-01 4.703952445027489437e-01
-2.886431654911035538e-02 -1.238387171071316933e-01 5.245316335732109758e-01
-5.747271630223827615e-02 -1.098148606997314536e-01 5.332388932296174833e-01
-9.417539737510062514e-03 -1.275579412016529801e-01 5.083533427693252005e-01
-6.012639627138825771e-02 -1.052733183724947202e-01 4.619425507596068292e-01
