-9.445112895478935400e-02 -8.728980610096824522e-02 4.469114013361790150e-01
-5.216129867020668359e-02 -1.004708640544617337e-01 4.585649245954548370e-01
-3.689100504884143539e-02 -9.667954583068699703e-02 4.584984536811827494e-01
-1.535596693657983840e-02 -1.257648154709117005e-01 5.051169662414410899e-01
-1.959407266773346631e-02 -1.109166370153695791e-01 5.608299606929429970e-01
-2.575738469029296984e-02 -1.243334249542291242e-01 5.164067596268034910e-01
-2.080328008319219310e-02 -1.250583642054329536e-01 5.085805804637211214e-01
-4.112901217806113480e-02 -1.126407519183727363e-01 5.407482044728846304e-01
-2.955957142202316965e-02 -1.088272359674371109e-01 4.712269478028097702e-01
-1.027190671164518315e-01 -1.054500823130694875e-01 4.565782635003294843e-01
-4.423133038152925883e-02 -1.115739781148925303e-01 4.764349096294187014e-01
-4.007715613848727293e-02 -1.189950530108184051e-01 4.930439142961738352e-01
-4.307187856102852319e-02 -1.209109316050012428e-01 5.025704411601529253e-01
-3.500835229704836460e-02 -1.216495036790533196e-01 5.029735321581537688e-01
-7.482116380117576071e-02 -1.137417428744280784e-01 4.710628853698536345e-01
-7.919338628847230610e-02 -1.205542753965309632e-01 5.154353259761141892e-01
-1.055001734533644875e-01 -1.231399721813977305e-01 4.854118708596023013e-01
-8.435478302514699822e-02 -1.219243278914108330e-01 5.088022799789190254e-01
-5.183945697161861099e-02 -5.797180490563720590e-02 4.390545848874964907e-01
-7.881606533535324977e-02 -1.219148115161114987e-01 5.097242576377029044e-01
-7.453899754332880823e-02 -8.612495626262527126e-02 4.445135992628173049e-01
-8.985866872865677646e-02 -1.197377488820919461e-01 5.121009315239410942e-01
-6.206699502630531190e-02 -1.155772154709008570e-01 4.810725997750267546e-01
-3.343366202437540735e-02 -1.191865332833111635e-01 4.923534577631889508e-01
-7.548470923503765306e-02 -8.149741528828909065e-02 4.413248994762724031e-01
-4.530593659926237388e-02 -8.374348449046174758e-02 4.480151789442465837e-01
-1.797875401128662398e-02 -1.144657562318672078e-01 4.754157193403298343e-01
-2.873589335480118342e-02 -1.117929086449512416e-01 4.761101835126299586e-01
-7.491655455708690070e-02 -6.401973425731898037e-02 4.366746798430216625e-01
-7.492184838136145553e-02 -5.913190933114724490e-02 4.378654589441077771e-01
-1.431779890927464827e-02 -1.236428701588746654e-01 5.406460203276121090e-01
-4.475888770402745853e-02 -1.051999689298560442e-01 4.665445780284128707e-01
-9.807064592744701992e-02 -1.217823312696149352e-01 5.033394513684484872e-01
-6.014080596786344768e-02 -1.146047229551214186e-01 4.794364790162373158e-01
-1.087796808482209554e-01 -9.395177133374256473e-02 4.567144283702954666e-01
-9.640397353741232689e-02 -1.221701386973367831e-01 5.012163259141736438e-01
-6.900892673079360440e-02 -1.217270350666782297e-01 5.009391486448361297e-01
-7.730423308615033684e-02 -1.135239970731530129e-01 5.254234780981241748e-01
-1.301852031091808512e-02 -1.267526553498135866e-01 5.076961329523492772e-01
-8.515962228727459726e-02 -9.260398523756789568e-02 4.480828089129342828e-01
-1.620083522137112653e-02 -1.197302963039369728e-01 5.508261964760853280e-01
-8.385217848366716131e-02 -1.222035365904868554e-01 4.931279485573318855e-01
-7.343391742566508784e-02 -1.182174664686536369e-01 4.816493437209848349e-01
-5.124191739372045695e-02 -1.213895835808447982e-01 5.095768064614203396e-01
-7.889773798363464152e-02 -7.078260077160765384e-02 4.381867666646115378e-01
-1.967849792950301241e-02 -1.201860851081103243e-01 5.488633541776833935e-01
-3.351936122048217170e-02 -8.018927460510981431e-02 4.463967580069674868e-01
-1.113080020046398472e-01 -1.217105170116834501e-01 4.839357053283164234e-01
-1.108898361433396235e-01 -1.216998263435270511e-01 4.834538550319377737e-01
-8.519087788370541259e-02 -7.858221139390787757e-02 4.416766947592054016e-01
-8.835314336163323234e-02 -1.218711285336241124e-01 4.871800710758297237e-01
-1.145520559421680379e-01 -1.157560004852918600e-01 4.978866038636240998e-01
-2.831536231505436818e-02 -1.050977447533692072e-01 5.521888621180079948e-01
-6.883215248546989407e-02 -5.684017872926369619e-02 4.381496908265726242e-01
-1.013747963024077062e-02 -1.203845028719412735e-01 4.847916307210697884e-01
-1.459752522677975478e-02 -1.240811797112732762e-01 5.383468100816756197e-01
-4.615896387909633469e-02 -1.199716286563544815e-01 5.316273681796782613e-01
-4.601148228831217907e-02 -7.314377574571052920e-02 4.436143601213322629e-01
-1.103340906674488697e-01 -1.185562072134188905e-01 4.730439379989583304e-01
-6.286417700555843591e-02 -1.118024017140263893e-01 4.724791730747248120e-01
-6.640582206794327924e-02 -6.168855781824729434e-02 4.375080929970265320e-01
-1.328412545443510492e-02 -1.249110531890256365e-01 5.347506156432974000e-01
-3.627800742948232571e-02 -1.216149009600197006e-01 5.331947530927738654e-01
-9.774874331736485567e-02 -1.220906182799104123e-01 4.767629450784599543e-01
-6.930987661618821793e-02 -1.136079668687610261e-01 5.273374421613717944e-01
-2.102033067067574784e-02 -1.249123235225953893e-01 5.069847479374103294e-01
-4.285594707092313382e-02 -7.276572978208137310e-02 4.435320005195299009e-01
-2.083380505890439216e-02 -1.133901162579012828e-01 4.753378398659380277e-01
-7.115452201582540825e-02 -1.187661368624801927e-01 4.852639687934198198e-01
-4.878948893331077480e-02 -1.133012600253208990e-01 4.789434455199370055e-01
-7.008409591511984005e-02 -8.925496520318787486e-02 4.468458836383359944e-01
-4.405685408566720196e-02 -1.160688063201249787e-01 5.372184919136167025e-01
-3.274686538529414381e-02 -1.164429655643464540e-01 5.449514624703142296e-01
-1.134730719794340287e-01 -1.207368553105608727e-01 4.812554417203890322e-01
-1.480725884887532963e-02 -9.908867242140899367e-02 5.664225790229834301e-01
-1.848683593296013977e-02 -1.068135452242703620e-01 5.636853873646060498e-01
-9.575076998583445173e-03 -1.256513427501021185e-01 5.334337245331778332e-01
-8.889788854273127094e-02 -1.210350520573331007e-01 4.821479737358250750e-01
-5.553639803276138459e-02 -9.709809698738423867e-02 4.550594816932211351e-01
-6.939064786769083559e-02 -1.102929255809109027e-01 5.286372303400690420e-01
-7.823316369083196942e-02 -1.202840480702710851e-01 4.871988578055580499e-01
-6.570944511986437364e-02 -1.162893711850546130e-01 4.813314989180769721e-01
-5.804055552466335505e-02 -1.200164212441985900e-01 4.973754613110055733e-01
-5.248252985803562864e-02 -1.198366999224033946e-01 4.975778137524080047e-01
-3.862487112014842405e-02 -1.071655263680409975e-01 4.692649781912103801e-01
-8.482055462080834163e-02 -1.154685612148947660e-01 5.187991668250681032e-01
-3.601118665466552377e-02 -8.098939207196137469e-02 4.471835509363671912e-01
-5.806870172324322954e-02 -8.128883171659981310e-02 4.447352251363818620e-01
-9.096823505403580507e-03 -1.280492271088272682e-01 5.158158810647633929e-01
-5.955419325466500963e-02 -1.213892213199083969e-01 5.072069478428976597e-01
-3.003638100742697659e-02 -8.750469635345563268e-02 4.506488355183317362e-01
-7.143717926681326935e-02 -1.205929913623194905e-01 5.166489808287682006e-01
-6.953844524783045489e-02 -1.202394642120302726e-01 4.911790165842731537e-01
-9.367437056774634285e-02 -8.925591228288577705e-02 4.468099905090866519e-01
-9.850097862194183429e-02 -1.159771702409944510e-01 4.635133567518550657e-01
-1.107544874752326575e-01 -1.174009723207978528e-01 4.712829688694380459e-01
-7.373063022776785158e-02 -1.173592572095854547e-01 5.225586354430267200e-01
-2.459110106989306765e-02 -1.216836429136601561e-01 5.428577280376521985e-01
-5.214440655742430542e-02 -1.172519431192403372e-01 4.874198192469108570e-01
-1.020361905085560433e-01 -1.222368214396536701e-01 4.771794062798136449e-01
-4.014346705504350660e-02 -1.111974772431096742e-01 5.419280229706540108e-01
-1.850765166500362505e-02 -1.038380126300907647e-01 5.643693264046839575e-01
-6.172627201114053164e-02 -7.224036711410075640e-02 4.408279971635358785e-01
-9.262067746061372620e-02 -1.065357965817051722e-01 4.563963903410429568e-01
-6.938390913696479423e-02 -1.217367791872370208e-01 5.004780103410279013e-01
-4.894571850292882276e-02 -1.213870143350508773e-01 5.200048901819934732e-01
-9.093542250538018401e-02 -1.223546849219650373e-01 5.026490018649676372e-01
-9.820818226726422961e-02 -1.221652661086944786e-01 4.759039306226572341e-01
-8.033359804959423756e-02 -1.219073943447340769e-01 4.933694088129165212e-01
-7.447459525963548432e-02 -9.070768193482264818e-02 4.475442934740319623e-01
-9.340184342102725301e-02 -8.473029703413646752e-02 4.460137102878373727e-01
-4.661274387027347643e-02 -1.213510000197823430e-01 5.072253357907008375e-01
-3.970081244396804487e-02 -1.222492343382887703e-01 5.157151627080552858e-01
-5.781963470292174334e-02 -1.206668859948760719e-01 5.013975426171201066e-01
-2.465277906108829381e-02 -1.046452155982317417e-01 4.641704177154400424e-01
-5.184867962726991131e-02 -1.077949308158719366e-01 5.374623870646036972e-01
-4.841918995027156419e-02 -9.005339698787924452e-02 4.512489786451698293e-01
-6.675089638395180491e-02 -6.897361516425135064e-02 4.386534065385355174e-01
-3.952478202939540414e-02 -1.219620594682935821e-01 5.267129332438388323e-01
-3.761307005179726631e-02 -1.193884807287417943e-01 4.939143504927429595e-01
-4.698839663615123757e-02 -6.429769513549674076e-02 4.407589142094683332e-01
-6.749215317103880729e-02 -5.462757804821149338e-02 4.388547665970945477e-01
-1.034366445138879681e-01 -1.213361919311108511e-01 4.997471019997475339e-01
-1.136430679580005959e-01 -1.077870195438960371e-01 4.629859702806373156e-01
-2.178557065033277784e-02 -1.145627903862589253e-01 5.564181321919023926e-01
-9.341722401325382175e-02 -1.181594207870523966e-01 4.626399882598335456e-01
-8.723782745038026476e-02 -1.227502478337509223e-01 4.997427764438721054e-01
-2.957700925039272351e-03 -1.206961303493506027e-01 5.401773012827637555e-01
-7.975976988929561751e-02 -1.225832832007944795e-01 5.030333585133744956e-01
-7.289377957192846869e-02 -6.826738266257199872e-02 4.373147421359281917e-01
-1.153059559739214590e-01 -1.120800896933030616e-01 4.682217296205055113e-01
-1.099648870338754830e-02 -1.270416937347417785e-01 5.072975502278174176e-01
-1.153068988272011319e-01 -1.143086763386808036e-01 4.707451007016674738e-01
-8.551371068924530638e-02 -1.184619135759635011e-01 4.703356390399170417e-01
-1.990933439854289388e-02 -1.237013051625241861e-01 5.385986388520342949e-01
-6.964008347345522487e-02 -1.163525699228628446e-01 5.247797019832444176e-01
-3.403683141980357041e-02 -1.202723400227272560e-01 4.960637839854110109e-01
-3.643764764400914818e-02 -1.125731454294951472e-01 4.778232688535031247e-01
-2.129996043496439756e-02 -1.190069574303091876e-01 4.857924555905910324e-01
-7.596231847718145844e-03 -1.195412196279902889e-01 5.504946800932903894e-01
-7.344814632526906750e-02 -1.175849203218842232e-01 4.798339505287910756e-01
-5.458346097515955064e-02 -1.082036557451564462e-01 4.685418459161247995e-01
-1.678938822422357258e-02 -1.262381926087753625e-01 5.130063582281257917e-01
-9.824106217178954492e-02 -1.233126922687299287e-01 4.868587033008094922e-01
-9.034425395227112243e-02 -1.217327813743136061e-01 4.730374180480610979e-01
-7.128901622141355088e-02 -8.973853431003972481e-02 4.471054746063823360e-01
-2.853293855017967687e-02 -1.043361784684119775e-01 4.650554942948570969e-01
-1.078841735157891335e-01 -1.036478810825968155e-01 4.564901310837351511e-01
-6.715591675413087880e-02 -6.583349853578854272e-02 4.378355820162772583e-01
-6.024805919421966083e-02 -1.187600297532419719e-01 4.912908823775223310e-01
-6.944195803409980439e-02 -1.191766911173162830e-01 5.197455390949241583e-01
-6.751710666908095071e-02 -1.196066898705417103e-01 4.900653163376202381e-01
-5.994057844083895692e-02 -1.001690614409369157e-01 4.570164745209169821e-01
-3.915367494409083271e-02 -1.137607813276229202e-01 4.802219921000842606e-01
-4.961288600166342821e-02 -1.048248886163451604e-01 4.650504665340689514e-01
-1.179427459263459876e-01 -1.150936447233868037e-01 4.777312462430933215e-01
-6.504964023496236092e-02 -5.836234876180956127e-02 4.374057325582174638e-01
-6.821390383323369666e-02 -1.110061058744093165e-01 5.285725435318350263e-01
-3.394797637804061047e-02 -9.214981181377512875e-02 4.547978139389085572e-01
-1.020110282717287126e-01 -1.231587628312483113e-01 4.841423317093857537e-01
-2.422732503965541184e-02 -1.038487480314749106e-01 5.584388190819555842e-01
-3.094691767679086034e-02 -1.185908968734582930e-01 4.900170221649744473e-01
-1.876069583828174347e-02 -1.236188672194076521e-01 4.982224158860269481e-01
-4.604108946872152025e-02 -1.175136405301066694e-01 4.888259870026988585e-01
-2.248125813081005772e-02 -1.036733890885821741e-01 4.621937189693676173e-01
-8.270326776447478601e-02 -9.679594294803797738e-02 4.509170589442882959e-01
-9.899850731545337124e-02 -1.166252153645797179e-01 5.105689436262026426e-01
-7.665839158744115756e-02 -1.210353788137647491e-01 5.140736672413702690e-01
-1.204818095282551710e-01 -1.111976059145944884e-01 4.853852567080064184e-01
-3.135872306488689948e-02 -9.227518892940755890e-02 4.545179282008378618e-01
-4.377560650291691807e-02 -1.203727666208091046e-01 5.337388647043492806e-01
-1.471976542121633189e-02 -1.256080326023857330e-01 5.318629768206003527e-01
-6.390437207286532584e-02 -1.177147393515495105e-01 5.252171139349470774e-01
-8.380194654105185825e-02 -1.099640775303105250e-01 5.215058968625418956e-01
-6.603394338372720052e-02 -9.918407027121976804e-02 4.551490833529888147e-01
-6.314161470653448065e-03 -1.284698446769418079e-01 5.144041405913715170e-01
-1.042606989598953982e-01 -8.923974170976234355e-02 4.545661756350777294e-01
-5.653955574188399003e-02 -1.088181745487435542e-01 5.343717593301897661e-01
-8.291008548024553226e-02 -1.223306890581480622e-01 5.052630810753641066e-01
-1.014981560419203344e-01 -1.182635817365892406e-01 4.682025524586340137e-01
-8.533243140514115699e-02 -7.506139564392191876e-02 4.410748894595659109e-01
-1.190442691971329431e-02 -1.236667594345908505e-01 5.401413703463672222e-01
-7.186217545131051709e-02 -1.046236432646873993e-01 4.595148765515186251e-01
-9.728645627861186307e-02 -1.195287416758167715e-01 5.096153040053652550e-01
-5.660531455813753304e-02 -1.077039371804619367e-01 5.347580276945209654e-01
-6.157317097396089456e-02 -8.319847650263148542e-02 4.447914929466793010e-01
-1.119663960713283002e-01 -9.805041981650895744e-02 4.585209187341294235e-01
-4.501294521893046269e-02 -1.054865091793899118e-01 4.668930149890262449e-01
-5.436324492666332053e-02 -1.215755556356707817e-01 5.126041868766243459e-01
-1.119807512614683642e-01 -1.043092039708017615e-01 4.595410523418749227e-01
-4.500511691458188024e-02 -1.061494036240786115e-01 4.678131579736436452e-01
-6.168997430565181100e-02 -1.128539364571353731e-01 5.305621184557723913e-01
-4.739963976299246817e-02 -1.166536527392667000e-01 4.860160884300889217e-01
-7.524692951746621283e-02 -8.363007408945251353e-02 4.427297564359356508e-01
-3.845131379644047692e-02 -1.197908068093135187e-01 5.375896391881928027e-01
-8.245029680272585038e-02 -1.197859445059810540e-01 4.764109586325115941e-01
-1.132710246067607923e-01 -1.208117951682250724e-01 4.814225637792080015e-01
-3.906409540303364125e-02 -7.559695435898035332e-02 4.446170485156595298e-01
-5.727998000225601599e-02 -1.140932876883256897e-01 5.318605305011950835e-01
-9.053695664021878253e-02 -1.220139157050034728e-01 5.059140099025657422e-01
-3.619101746017661797e-02 -1.226035015049085769e-01 5.205785968526015495e-01
-4.911926061408203315e-02 -1.040940902265155149e-01 4.641639227512813215e-01
-9.608625089719519119e-02 -8.933398783333906801e-02 4.485070030081816372e-01
-3.454884724364612469e-02 -1.215275326749845342e-01 5.345970369172378112e-01
-7.075130340340428370e-02 -7.921316335921262108e-02 4.408162203865774731e-01
-4.511050243810248161e-02 -1.204442704259302277e-01 5.312962999842443246e-01
-3.013167890451730335e-02 -1.235289135212289807e-01 5.216213351475862403e-01
-3.194708892133680395e-02 -8.059199818273574123e-02 4.463905403305352126e-01
-3.194751844283597042e-02 -1.202373910061355217e-01 4.951800108973600234e-01
-9.820383213173861092e-02 -8.359315437559616813e-02 4.503647745566272120e-01
-2.575593781058174714e-02 -1.224626037951798141e-01 5.384078799190270548e-01
-1.945852252325749876e-02 -1.183713506406521981e-01 5.524490653062334999e-01
-2.161266766087286545e-02 -9.698423692861150858e-02 5.616154842518951140e-01
-9.392857204796947745e-02 -8.314419218754748320e-02 4.466846755552797421e-01
-3.628798956071470350e-02 -7.454353546852425516e-02 4.441007197802118722e-01
-3.740237468578612445e-02 -1.224957229547926907e-01 5.192058063514914945e-01
-5.080659352037133342e-02 -5.846737488093892154e-02 4.392014085212118113e-01
-6.633738635467831268e-02 -1.077352312372591020e-01 4.644810196037097438e-01
-5.364728778565069911e-02 -1.114073806610719336e-01 4.744427017590189255e-01
-4.790665971665710593e-02 -1.196977693428026290e-01 5.306270658630937165e-01
-9.345638474242341787e-02 -1.231223422568431675e-01 4.933136901464690305e-01
-2.028045453236305626e-02 -1.103248820229942445e-01 5.610384290221583914e-01
-1.098983001732699166e-01 -9.973198969381673329e-02 4.562734369263273249e-01
-8.625091073011112441e-02 -1.203412989144025391e-01 5.114953699360037520e-01
-2.545548243035940239e-02 -1.243398786963146457e-01 5.145073515088254279e-01
-5.476142411041916291e-02 -6.802886405388372526e-02 4.410391387789616147e-01
-7.774598031070921456e-02 -1.225460379103942843e-01 5.021060991659382911e-01
-1.030860687648957053e-01 -1.213724289428572134e-01 4.998444518165173212e-01
-6.545570009920573251e-02 -1.194820085314163005e-01 4.909808189204904472e-01
-1.171633347557641397e-01 -1.174335130096028357e-01 4.797133734302312935e-01
-1.036180690993326742e-01 -1.219989564721321029e-01 4.982331910375273898e-01
-4.323238525588733727e-02 -1.031386264420928317e-01 4.641822761853387491e-01
-5.658149769003084639e-02 -1.146158264751762634e-01 5.318749071651179827e-01
-2.531112589216471739e-02 -1.116244497610970471e-01 4.748714220918524020e-01
-1.004221231422611910e-01 -1.171004612210067714e-01 4.658672819250931352e-01
-3.588555930836048735e-02 -1.167362344773193450e-01 4.863871791950339363e-01
-5.831693649825302195e-02 -1.208936566872658436e-01 5.187664468481762992e-01
-5.710865484519202923e-02 -1.182318357473372827e-01 4.902196542428694515e-01
-3.489983053720769474e-02 -1.178573832921831904e-01 4.888168540977041454e-01
-7.616992237158315415e-02 -1.066484023682271048e-01 4.604940131165455308e-01
-7.827273710615074986e-02 -1.216959724785760533e-01 4.935611479014396230e-01
-7.938323363926114151e-02 -1.109580117043692249e-01 4.638914268605381919e-01
-4.082087148421953415e-02 -9.569800226800807830e-02 4.571586938393145672e-01
-9.722831722161173751e-02 -1.227959795237980600e-01 4.970930875290974771e-01
-7.270802932606613977e-02 -1.196750120919284899e-01 4.867477175994439631e-01
-7.484875116142095108e-02 -1.205069522717587549e-01 4.896057059394132716e-01
-1.123512309178849831e-02 -1.264708636684393761e-01 5.299495627091040939e-01
-3.816357200978094666e-02 -1.176705605262602927e-01 4.888619370673490949e-01
-1.196074866605483095e-01 -1.153420405413763672e-01 4.887541819777020957e-01
-8.347138342708097791e-02 -7.795558858522025347e-02 4.407085543767394475e-01
-3.681433214351779309e-02 -1.223863017708176487e-01 5.120636338723968395e-01
-8.499877081264101131e-02 -9.039056857976156267e-02 4.468616630043527049e-01
-1.872491291690520782e-02 -1.260220444293629616e-01 5.223031357902244709e-01
-1.143541753503299757e-01 -1.204145109414543890e-01 4.806493657376524342e-01
-4.832720142984065631e-02 -8.149561815831077305e-02 4.466115418843865648e-01
-3.655843726280966904e-02 -1.152622465118451900e-01 5.423760116819485999e-01
-9.665038473054628210e-02 -1.229649688023367465e-01 4.682350459938358633e-01
-5.144208402305168286e-03 -1.275263069941492133e-01 5.054448961705975130e-01
-1.734218774428660653e-02 -1.098015437057928839e-01 5.627328965957557605e-01
-6.844603447917702033e-02 -1.111196504131189422e-01 4.694288986709103662e-01
-1.019080495772743261e-01 -1.123534515556161989e-01 4.620585454560103278e-01
-4.068228699531407228e-02 -1.219272307474215944e-01 5.255532342595717887e-01
-8.258535239192377198e-02 -1.107293256271035808e-01 5.221096009498541468e-01
-6.973235137363391345e-02 -1.218533593049242747e-01 5.093075547915878465e-01
-6.714455300290826656e-02 -1.159156099371529275e-01 4.796004542081703792e-01
-5.631778600923525308e-02 -7.147857049463947343e-02 4.418397719551729885e-01
-4.667405791683815197e-02 -1.117410663601505899e-01 4.763884715369444134e-01
-7.408892384774905249e-02 -8.066957192579554681e-02 4.408374369505021484e-01
-7.085362590696234197e-02 -1.176152977324704113e-01 4.820672677922261395e-01
-1.198620638217424636e-02 -1.216672085844021506e-01 5.478498746011510878e-01
-1.055067924830604270e-01 -1.231578482326208396e-01 4.879774935517154910e-01
-2.562561068498279276e-02 -1.209858638220411842e-01 5.436838986429894938e-01
-1.122714175240952655e-01 -1.069773039247870761e-01 4.608223968268622128e-01
-6.829124500620105398e-02 -1.117974179507884441e-01 4.706111989658913752e-01
-5.419865375586584155e-02 -1.213223252864124996e-01 5.168333680141189435e-01
-7.925634027005665216e-02 -1.008508732614318698e-01 4.543727402213343924e-01
-5.060864979020388704e-02 -1.114641320054446244e-01 4.753172057449424059e-01
-1.564467595663198221e-02 -1.075475924657985638e-01 5.640700765607726819e-01
-3.341552780207820983e-02 -1.149144453849946373e-01 5.451055360744179179e-01
-5.895550654673623742e-02 -1.091157921374141943e-01 4.689375753977641503e-01
-8.999779061730474317e-02 -7.740150068117557236e-02 4.450443137520740389e-01
-9.782941282899722257e-02 -1.099992091610976497e-01 4.588835378108500063e-01
-2.358361527691513887e-02 -9.957026950205694060e-02 5.580940464239118048e-01
-5.052440064971765177e-02 -1.005383643474070526e-01 4.590915586931849091e-01
-1.195730141157309023e-01 -1.122704825063613049e-01 4.829411426499439774e-01
-2.622707413103249341e-02 -1.036250584202866726e-01 4.635229282705415343e-01
-1.139652945291271952e-01 -1.106247865793119761e-01 4.653553412379505816e-01
-1.855567932238484305e-02 -1.253579381927033831e-01 5.315267671853897147e-01
-7.041905431942574456e-02 -9.643760916596171018e-02 4.522288133114410469e-01
-7.749554943946715402e-02 -8.469758752083977882e-02 4.433247701193229195e-01
-7.388485106845876782e-02 -6.216953298057104754e-02 4.369440465513537708e-01
-2.803619722838298148e-02 -1.215798937443411526e-01 5.400472341581701308e-01
-1.031701560371702658e-01 -1.198144639270050243e-01 5.031481062334802745e-01
-8.341328192217231652e-02 -9.872702726835429210e-02 4.521537532208139143e-01
-5.616313450269309199e-02 -1.070546961975482325e-01 5.352274373808824093e-01
-8.626035277974945792e-02 -8.401409620429955982e-02 4.439032497136517486e-01
-9.133078241770313521e-02 -8.381718293110534956e-02 4.450478619366887711e-01
-6.560910716265909437e-02 -8.370833246523542992e-02 4.440969008471509216e-01
-4.857654348861754900e-02 -1.182627860720336238e-01 4.909705498038148819e-01
-1.027185232409474347e-01 -1.230899800256667065e-01 4.832183219656944195e-01
-8.289310641121647172e-02 -1.198226019547745935e-01 4.834952876890921125e-01
-4.815289458385357824e-02 -1.032392131027822790e-01 4.631773890131399840e-01
-6.313024202039528316e-04 -1.290171464367188270e-01 5.164108159734028813e-01
-9.035911870338350638e-02 -1.221315981970982900e-01 5.046417728406537018e-01
-1.179088972663079604e-01 -1.045957596784625743e-01 4.687033249065393758e-01
-6.694663616912040205e-02 -1.099428590324717236e-01 4.680527957377816350e-01
-4.462860713957629566e-02 -1.190405144310559549e-01 4.936288910906241334e-01
-9.159520003539040056e-02 -9.072746522225591526e-02 4.471682570430247083e-01
-5.217258587997798680e-02 -1.213589510908609920e-01 5.092274595504179269e-01
-1.116495710166828942e-01 -1.098742474603149472e-01 4.632608493985201359e-01
-1.189495257178286025e-01 -1.170018902871403782e-01 4.843131945013973705e-01
-6.709691865056002791e-02 -1.184762331995622697e-01 4.867200693986610816e-01
-7.851327766815846543e-02 -1.214019000607220317e-01 4.920109549491603618e-01
-4.338248809775319126e-02 -1.204268297186051329e-01 4.997908584159759249e-01
-1.893971686987717257e-02 -1.172269254902597868e-01 4.804905246858376389e-01
-6.374995969251778805e-02 -8.305217080252831618e-02 4.441803262735773972e-01
-9.096914009281083235e-02 -1.223842813686245173e-01 4.871746091163242087e-01
-8.115309295038297677e-02 -1.157162850515307956e-01 5.211470080782716341e-01
-6.074430757732812020e-02 -1.203558819726782692e-01 4.980246752908837893e-01
-4.906334718682522217e-02 -1.170540759823393284e-01 4.867572014404651370e-01
-1.241587904393296610e-02 -1.117984684461317546e-01 5.617329236550554494e-01
-1.181433212180539455e-01 -1.022163480803912616e-01 4.710172942814133124e-01
-4.361042113532744707e-02 -1.069625683682779160e-01 4.688715497673702770e-01
-8.868872121357615490e-02 -1.210259224037253944e-01 4.780894039134478968e-01
-2.133895148211317414e-02 -1.089498410994629574e-01 5.611813359950701408e-01
-5.712998346951722595e-02 -6.990458806139143721e-02 4.412307176884162629e-01
-8.259384784154569226e-02 -8.643424503365876310e-02 4.444771391004203043e-01
-8.698189372508824402e-02 -1.142811887196970300e-01 4.625374483687978433e-01
-7.626288127229494465e-03 -1.192392617206212008e-01 5.514098228241861577e-01
-1.502994892006491966e-02 -1.227522014717981058e-01 5.444524406320871979e-01
-5.880095109066913600e-02 -1.077694646115093385e-01 4.667770021861614715e-01
-5.566079415310091344e-02 -9.519444651594459461e-02 4.534530634821956063e-01
-1.690095477786499739e-02 -1.186704065276869835e-01 5.526172483884346232e-01
-5.118971189619885009e-02 -1.215713635702944384e-01 5.119200061633989440e-01
-4.151571095579913856e-02 -1.017526229645557695e-01 4.627530805353342602e-01
-8.758875674524607691e-02 -1.206484999501768740e-01 4.806112287399318395e-01
-4.338796403007091212e-02 -1.185847637136660249e-01 4.919476760832549034e-01
-1.104639856275487116e-02 -1.105624261600529623e-01 5.628096026446774980e-01
-4.104792991383376249e-02 -1.220966949397419427e-01 5.196001695781781171e-01
-5.046444078461354704e-02 -9.729348700822906815e-02 4.563759004935497021e-01
-8.345444231252870104e-02 -7.056740152247369113e-02 4.395577105673518781e-01
-1.146407517386542896e-01 -9.959967180297193967e-02 4.632387051323632043e-01
-1.364879826690540941e-02 -1.192609120653424504e-01 4.832190965887984135e-01
-5.619020720018733095e-02 -7.010509758602659347e-02 4.414512184872212419e-01
-6.993285306119478850e-02 -1.212258192332415080e-01 5.149783910845273649e-01
-1.910559094339850036e-02 -1.253212402261290048e-01 5.067142171300863529e-01
-4.719703064074481230e-02 -1.083599446322768695e-01 4.707719844410191423e-01
-4.154610490099519549e-02 -1.219117846542672329e-01 5.108438003482328460e-01
-1.820247295405411428e-02 -1.139465237043074813e-01 4.747244865164577110e-01
-2.041812883355604777e-02 -1.088869991776603707e-01 4.681119487671153157e-01
-8.679688259094264779e-02 -1.167424535222717913e-01 4.644965332226811960e-01
-2.895268215362685471e-02 -1.200632617917320316e-01 4.930927460060832712e-01
-8.342230859321822511e-02 -1.061329583030396345e-01 4.578397212952884376e-01
-6.400060146667616023e-02 -1.206166072886403762e-01 5.186585575798988712e-01
-7.410260936330644033e-02 -1.171003602961373236e-01 4.783880426229411564e-01
-5.110256400911458025e-02 -9.303259280024654687e-02 4.526670786553776415e-01
-5.960425531098698798e-02 -1.155121996446819149e-01 4.817164677175283516e-01
-1.125477819087007114e-01 -1.207196669956336205e-01 4.956361272355410130e-01
-1.052337487675453348e-01 -1.227103524032975429e-01 4.828912446621987375e-01
-7.793535504867291075e-02 -1.187292251752503497e-01 4.792470789508009865e-01
-9.958111723732047948e-02 -1.090843956549971544e-01 4.588677139783000070e-01
-4.390308327718003140e-02 -9.516905599599068122e-02 4.561836589521664487e-01
-2.165693870283767405e-02 -1.233649015548388544e-01 5.387888612879792039e-01
-7.605984002527735321e-02 -1.213303302326775301e-01 4.930286838555946183e-01
-1.013082842185117627e-01 -8.434197175973016936e-02 4.547203999510049388e-01
-1.687479572499135314e-02 -1.141810600553969934e-01 5.591502269174555284e-01
-1.309917747256003281e-02 -1.256582189103464808e-01 5.019289478398885063e-01
-2.395975547697591287e-02 -1.168665351264799868e-01 5.525792667812045034e-01
-1.112880742179919724e-01 -1.189547066414596010e-01 4.743762987301728962e-01
-3.719637891059601742e-02 -1.175737994452151491e-01 4.883606036120701765e-01
-1.539630787923804839e-02 -1.214870352369351730e-01 5.476004189996670490e-01
-1.574699241782512305e-02 -1.265983503231342400e-01 5.157743185596601609e-01
-7.858560869568879947e-02 -6.984252157999142063e-02 4.378364492479042691e-01
-1.110719320006081229e-01 -1.143611283001056828e-01 4.677682233720272253e-01
-3.866699546647390379e-02 -1.223424322315193741e-01 5.201664341527074686e-01
-6.952956579261383718e-02 -1.161529023608319777e-01 4.789923367422831424e-01
-6.237824245892718833e-02 -1.177421496616686408e-01 4.866168319462972347e-01
-6.302446762263069768e-02 -8.767472032150551431e-02 4.469182614799240283e-01
-2.068463501906215446e-02 -1.255447356249465296e-01 5.224937139398407870e-01
-2.024524951893657068e-02 -1.187478116770065012e-01 4.845201403911765792e-01
-3.849755946963060588e-02 -1.215014392129581261e-01 5.312201334156271271e-01
-9.118804835561208216e-03 -1.280874731946534673e-01 5.176003040086959439e-01
-9.401136730759202323e-03 -1.280136109935954836e-01 5.204401401571531194e-01
-2.081692726891248499e-02 -1.253019769959785035e-01 5.286581312705158631e-01
-5.173366611288226363e-02 -1.160975847067351602e-01 4.843950821816971342e-01
-2.509543151130761915e-02 -1.238585509180543526e-01 5.068594800985906090e-01
-1.060984521249132700e-01 -1.131841868818794089e-01 4.642190405452799040e-01
-4.524338245032215322e-02 -1.127876111141240534e-01 5.381565115131633492e-01
-9.561553147426606059e-02 -8.636689030195926486e-02 4.475326743874326607e-01
-2.238721079810598522e-02 -1.055310024232186533e-01 5.609341910069139958e-01
-8.195216560283098695e-02 -1.196697647697131800e-01 4.822782117391234413e-01
-1.417124478751677005e-02 -1.258799582148721896e-01 5.044840193093664826e-01
-9.792043343290449120e-02 -1.190793379373986799e-01 4.654470679128888677e-01
-5.781798952394082147e-02 -1.108187417497033395e-01 5.328365569246209521e-01
-1.823974974279839005e-03 -1.290092782959739171e-01 5.201467391104548366e-01
-7.453570477800257332e-02 -1.169628948740155938e-01 4.778215518870287948e-01
-3.825711768664755152e-02 -1.216266369128669034e-01 5.304212940038711688e-01
-3.469583057018189171e-02 -1.228313533234790672e-01 5.173744403281240745e-01
-6.715890698665355485e-02 -1.066782003727036882e-01 4.628599214495943692e-01
-1.145457411048787962e-02 -1.181691838853371063e-01 4.802621649541863880e-01
-1.063624384767282265e-02 -1.190367029528260207e-01 4.819319567293063322e-01
-3.650026723056271766e-02 -1.049926053539168153e-01 4.666978304228961427e-01
-1.976648401235264405e-02 -1.230311043320712894e-01 4.969616933481686427e-01
-8.897474856510698138e-02 -8.237677607321283735e-02 4.439902374004157659e-01
-1.025208020254582270e-01 -1.233941932493995142e-01 4.904625213568246100e-01
-8.632873051262657249e-02 -1.201399937327293221e-01 5.119174131429874430e-01
-9.997616966745963285e-02 -8.327257894923115189e-02 4.538006310995436055e-01
-7.185562414399319919e-02 -6.177493552054940523e-02 4.370413510748842878e-01
-1.651720104984075871e-02 -1.254077856962675652e-01 5.045069430655857445e-01
-6.000195804105358521e-02 -8.770469397804132872e-02 4.475415125822849727e-01
-8.825283501705898093e-02 -1.055631134763437007e-01 4.563882626966101475e-01
-2.577137636264150572e-02 -1.186405692169970189e-01 4.885231586736092924e-01
-1.011085914531920787e-01 -1.064306755209336042e-01 4.570416078941637594e-01
-3.469503377778983093e-03 -1.284595706576766860e-01 5.271801587106609288e-01
-7.409874870929776536e-02 -6.523157409679045116e-02 4.366486610911065602e-01
-3.977569306725040749e-02 -9.201561812011369024e-02 4.543020737193234626e-01
-2.876380640183541157e-02 -1.078006501329076550e-01 4.697357369867827259e-01
-4.434635793139691390e-02 -1.089656617569145225e-01 4.719934912877337685e-01
-7.760629950944557265e-02 -7.433934420406516919e-02 4.388742228597653505e-01
-8.571420471367778571e-02 -1.205184612800875854e-01 4.776882821547656643e-01
-1.935992370327909926e-02 -1.254535473239952181e-01 5.093986441694828837e-01
-7.197781191493884956e-02 -9.605568713393763947e-02 4.517562531711892260e-01
-5.160207399062841788e-02 -1.106779503957371763e-01 4.737029158267985207e-01
-4.111582632853200830e-02 -1.107653788720278920e-01 4.750252249014482175e-01
-8.659001850910158504e-02 -1.148904382305795252e-01 5.180038557594237592e-01
-8.297871033947465391e-02 -7.509195159405981923e-02 4.395073273113310752e-01
-1.583967730772535901e-02 -1.186635077451327069e-01 4.825111222101076680e-01
-2.561885732016238801e-02 -1.150782722881687065e-01 4.808174638507003995e-01
-2.701585853718308297e-02 -1.174157184746839749e-01 4.865847487514318725e-01
-7.150672744590449992e-02 -1.195151467737588097e-01 4.873575574306028835e-01
-5.713956784501471320e-02 -1.200943172113809049e-01 4.980908265497975829e-01
-2.826462801532547697e-02 -1.038608719941910424e-01 4.644172232838675862e-01
-2.228106327014146848e-02 -1.176610403387142317e-01 5.524285704802572861e-01
-3.259378344522372711e-02 -9.188045572837381936e-02 4.543686329237534016e-01
-6.448087476276841146e-02 -6.386984077875257348e-02 4.381068107676788226e-01
-2.254770566283086780e-02 -1.153808541848036218e-01 4.796220328026640223e-01
-7.923264177161300215e-02 -1.024413525514669687e-01 4.555844116452151815e-01
-8.740170408975690697e-02 -1.050147975922786636e-01 4.560995827997039176e-01
-8.796077535316183110e-03 -1.185800595086540371e-01 5.530318005824259586e-01
-2.577815850707858292e-02 -1.153839226987276312e-01 4.814744712520678815e-01
-7.891460624824049586e-03 -1.280132263808364812e-01 5.247170639403482273e-01
-8.900946471984512443e-02 -1.046544657205667472e-01 4.555876967163766667e-01
-4.618394421960179269e-02 -1.215628373288739905e-01 5.111221009560218409e-01
-5.761964948269235332e-02 -1.149491133595371556e-01 5.312729638108295571e-01
-8.195127860815716592e-02 -1.035243764517659315e-01 4.559253814432981389e-01
-5.984241069876652247e-02 -1.176256632499010496e-01 4.871610756635182948e-01
-7.170721692562923022e-02 -1.122507985989046886e-01 4.698884912869988328e-01
-4.303451626103069194e-02 -1.215212233144373349e-01 5.271735083280653100e-01
-6.282549416466466641e-02 -1.094538298604401938e-01 4.684593163314245134e-01
-4.150736308291928106e-02 -7.354837446076303853e-02 4.437955033700149987e-01
-1.148636290567095763e-01 -1.028571090559231016e-01 4.628919468563789663e-01
-8.074928508366474578e-02 -1.225962875715437272e-01 5.001199584076029270e-01
-1.034160421365933336e-01 -8.662035426813013972e-02 4.556779306257562889e-01
-6.800255911921054830e-02 -1.166424545123302264e-01 4.811324368431921794e-01
-1.114939545302325204e-02 -1.260017447476731445e-01 5.013510391782650677e-01
-3.635073934994076383e-02 -8.987250432398111166e-02 4.529062491663479739e-01
-1.499812351010074499e-02 -1.202709788521159340e-01 4.857896272458326337e-01
-5.967097061339723257e-02 -8.686145695164430858e-02 4.471167014307959597e-01
-2.940141518678573637e-02 -1.201835880908099785e-01 4.937239804491388995e-01
-7.529098990670647640e-02 -1.189626040697220333e-01 4.821857238893830777e-01
-3.105161454271590515e-02 -1.101211364995323683e-01 4.732049282907912491e-01
-5.165981615747805566e-02 -1.033012812390706747e-01 4.624320698431526044e-01
-6.806719176019511430e-02 -1.125324265200991214e-01 5.281086281929404658e-01
-6.748018818569949395e-02 -7.795694027955295258e-02 4.411029665506293052e-01
-7.550737777614474622e-02 -6.358483032923965828e-02 4.366764411966219117e-01
-8.011487444438980532e-02 -1.136388792435445300e-01 5.240247495301011416e-01
-8.300460253116703768e-03 -1.157851485822837256e-01 5.575896892097145230e-01
-2.364256046682204626e-02 -1.128782925005928223e-01 4.761199765121842953e-01
-4.056706380456563676e-02 -1.094520321266049812e-01 5.419193941687810989e-01
-1.777976294019779219e-02 -1.041721606755805080e-01 5.648416284002738541e-01
-3.971894320210479778e-02 -7.891339438955576047e-02 4.461046208298983795e-01
-3.487630883322254127e-02 -1.205588102012379453e-01 5.374329515669870050e-01
-1.169473038025994754e-01 -1.205095379540301465e-01 4.864726713772506983e-01
-4.143076260048791232e-02 -1.041901138189180315e-01 4.655385394041998692e-01
-6.679962304674443019e-02 -1.017297659885259137e-01 4.574300182840479456e-01
-1.045262430988370614e-02 -1.272343258444687542e-01 5.257780727983698554e-01
-9.989680404162418204e-02 -1.054862294153661867e-01 4.562653902983280219e-01
-9.603387418368013184e-02 -1.036537141863672629e-01 4.546354427769409012e-01
-2.801517355683242130e-02 -1.233717517790746537e-01 5.079282334830214074e-01
-3.482272774348288413e-03 -1.254202505816512658e-01 4.966650409432514790e-01
-7.590824070711446603e-02 -1.148070410368616512e-01 4.723996495146380870e-01
-6.378125152910452123e-02 -1.060872348021798528e-01 4.628690922455033219e-01
-3.720527429028459843e-02 -1.101863960139045084e-01 5.429291894384825623e-01
-2.164832215222756151e-02 -1.083026185363980681e-01 5.609518960148462963e-01
-3.615105749613308633e-02 -1.212860457792455521e-01 5.015754819478400739e-01
-5.858119729441762374e-02 -1.208458940412845406e-01 5.191570674623887660e-01
-1.017577137151288863e-01 -1.192452897213212154e-01 5.051671496252229110e-01
-8.039886006258155360e-02 -1.131631068849665300e-01 5.242759464973040240e-01
-9.739938043055042238e-02 -9.359291660775762023e-02 4.497142644753334140e-01
-5.067037124199041259e-02 -1.204275777154713012e-01 5.010458086435422009e-01
-4.202644031277951581e-02 -8.131577178441887210e-02 4.472706970227917633e-01
-8.355368362058222809e-02 -1.131349599292582192e-01 5.207800873656741603e-01
-2.588204599260779740e-02 -9.352138581087506009e-02 4.542926676543190823e-01
-9.500178190616219431e-02 -1.038522937634501764e-01 4.547771005516509368e-01
-5.984404758524095036e-02 -1.165500256206866425e-01 5.290634861910840092e-01
-9.916209030406563166e-03 -1.203269088354215477e-01 4.846070634858458126e-01
-4.365818035591016721e-02 -8.465486862145987779e-02 4.487827412553971884e-01
-8.535508301684255339e-02 -7.280342380534587932e-02 4.407007052902867650e-01
-4.593419113424651590e-02 -1.192514739283517256e-01 4.949376722216488611e-01
-5.549220092431254164e-02 -1.203879953124486757e-01 5.005937863287333034e-01
