-4.866472518470114222e-02 -1.132969364112321325e-01 5.367448490137027850e-01
-6.356417535523484208e-02 -1.200982713534835683e-01 5.191249010290411858e-01
-7.811605543226050885e-02 -9.998513223349916879e-02 4.556684202600781441e-01
-7.547201974585769635e-02 -7.846482825362750824e-02 4.412009866406877423e-01
-1.198390930895240625e-01 -1.114700911872593680e-01 4.862008229852710639e-01
-3.650719831959050449e-02 -1.075572690810511906e-01 5.440324697175507040e-01
-5.764201954898554026e-02 -1.165013913944605572e-01 5.302908596127197116e-01
-3.382009551764199318e-02 -1.190968101098677373e-01 4.934675444331724781e-01
-9.004114032440779791e-02 -8.935586126306320487e-02 4.479579679234809153e-01
-9.458162104375170132e-02 -1.216623629917693294e-01 4.991181159262734202e-01
-8.284735744350461839e-02 -1.077260377078650966e-01 4.615991740384116082e-01
-3.349745483968710053e-02 -1.151065861400538820e-01 4.840293817122705011e-01
-6.477593876158571629e-02 -1.120910618784033003e-01 5.300209263687075678e-01
-1.193798621272098986e-01 -1.087985821115745183e-01 4.740063526668055194e-01
-1.504487955769901082e-02 -1.179959143819904605e-01 4.815493098973093744e-01
-9.983360706759952796e-02 -1.040265027426392208e-01 4.573333949555254407e-01
-5.633475658008157277e-02 -1.167517575837471316e-01 4.881525172579632699e-01
-8.498131062527153334e-02 -8.112322057169853162e-02 4.437012848345606164e-01
-1.469646889209563767e-02 -1.202062595559245523e-01 5.502892590574948173e-01
-5.255417765083723186e-02 -1.012645285255145827e-01 4.608885372875374808e-01
-1.071688629112312469e-01 -1.212130451882516419e-01 4.855677239844737869e-01
-5.575290904324935182e-02 -1.019556643055160722e-01 4.610917856957432726e-01
-1.139687729521096926e-01 -1.073003926627527638e-01 4.650589971627444030e-01
-1.057619210893846473e-01 -1.170861805575479087e-01 4.714408169144178595e-01
-6.024706877090217627e-02 -1.142363840601866160e-01 5.309581574236998947e-01
-1.011214206884092359e-01 -8.596338165497069417e-02 4.534159680168552420e-01
-6.094702835046124367e-02 -1.165114617714649442e-01 4.865609434011222700e-01
-9.624236700968519242e-02 -1.217728309130804848e-01 4.978802835260197068e-01
-5.315395486103971501e-02 -9.699560195219388004e-02 4.567547636270187783e-01
-6.834992991871220724e-02 -1.103851319094559247e-01 4.706433660063618629e-01
-1.111442056593082289e-01 -9.736793234749870074e-02 4.580677248442781013e-01
-2.191840472402834319e-02 -1.247206508665469893e-01 5.107915687468529420e-01
-3.047211240959173811e-02 -1.224857570190036743e-01 5.326064664867261600e-01
-1.092361100171609645e-01 -1.200023946067205610e-01 4.977050610139106546e-01
-8.131848391157051048e-02 -1.110308103825375370e-01 4.657816752412905492e-01
-9.219782863999372025e-02 -1.192328836491568234e-01 4.672542856106839948e-01
-5.858626794641740715e-02 -1.192707884482040320e-01 4.974923846007524020e-01
-4.361549683873879035e-02 -1.172473107108903401e-01 4.898561553563177684e-01
-1.097343751992155003e-01 -1.153082353717104491e-01 5.026173915878225928e-01
-5.712359521164567244e-02 -6.487914488405369107e-02 4.404486496272280727e-01
-7.849171780525338038e-02 -1.119183759134283890e-01 5.264488812720329314e-01
-2.928955445109845956e-02 -1.229930491603858783e-01 5.094818641085273603e-01
-7.751518165545921712e-02 -1.208217345841942486e-01 4.950616638427375316e-01
-8.614023830609364440e-02 -1.203031815017311934e-01 4.872066903443972863e-01
-6.614521227672068293e-02 -1.123628527174018732e-01 4.752360337501299048e-01
-6.886165121908843778e-02 -1.114104229439505656e-01 5.288253437743748453e-01
-1.005014416195432192e-01 -1.042755977809270568e-01 4.575749368708410536e-01
-3.271946853926607779e-02 -9.132469004733460849e-02 4.545908334674472195e-01
-1.205358006800714109e-02 -9.640302866986745489e-02 5.693209768955194150e-01
-5.108352948730353338e-02 -9.940681959291035319e-02 4.592323900141166981e-01
-1.567497329650719903e-02 -1.132353342667222207e-01 4.728617123325945526e-01
-8.714483739422011765e-02 -7.860799197026650809e-02 4.439290561416213143e-01
-2.852375761736481927e-02 -1.079304403408774121e-01 4.707809950890738393e-01
-3.100685227339681355e-02 -1.223304729234539340e-01 5.061328735693587655e-01
-3.318818005098510965e-02 -1.111327634656793656e-01 5.462213396139959931e-01
-6.551481066278323773e-02 -6.136040970695171015e-02 4.384521082404143622e-01
-4.148943836299720522e-02 -1.001529762213183572e-01 4.619753954757002679e-01
-7.066298429741096898e-02 -1.065581496841767895e-01 4.639252493021657764e-01
-4.532103009342765970e-02 -9.642931205087264257e-02 4.579954579566734574e-01
-1.000146327468764418e-01 -1.176014789873170707e-01 4.680579937965307913e-01
-6.917808251904745964e-02 -1.108053006656447154e-01 4.709955849914140291e-01
-4.544297182671533375e-02 -1.176167318552837626e-01 4.911548822836055983e-01
-1.062591173045235038e-01 -1.104134183852868434e-01 4.641713887370569891e-01
-3.369431402614700422e-02 -1.080027008817046608e-01 4.713702429553745521e-01
-8.340601484831217105e-02 -8.655670501774404002e-02 4.460271343110578934e-01
-3.902446286346514942e-02 -1.212235123096892381e-01 5.304994305666038690e-01
-1.142464596965900997e-01 -9.737783718807363487e-02 4.639097384752004505e-01
-9.955484414622797762e-02 -1.180235203959327239e-01 5.082615906123185701e-01
-9.228768530899869593e-02 -1.143037037081691409e-01 4.624952909807487633e-01
-5.363110361785902724e-02 -1.205952789945426012e-01 5.067426333210599543e-01
-5.211070768032188827e-02 -6.405739390750249396e-02 4.409042231275354662e-01
-1.094996137296101180e-01 -1.196894183343269469e-01 4.983786939435941310e-01
-3.994091749325510282e-02 -9.559574997478736957e-02 4.580852013019734437e-01
-4.252869123581559663e-02 -9.657298741687439514e-02 4.586581867362862219e-01
-1.053439942302261262e-01 -9.586362940699812152e-02 4.546240546909004476e-01
-1.167557946902754960e-02 -1.240951036242658179e-01 5.377298513659384271e-01
-2.978627322261730159e-02 -9.508163234194612345e-02 4.571217853811053722e-01
-1.526749241429009064e-02 -1.184946585640429539e-01 5.533435982004438758e-01
-6.916486244128892957e-02 -9.747050745154936524e-02 4.547073230641807684e-01
-6.371935746533158307e-02 -7.920535333366947317e-02 4.435280869126708714e-01
-7.770971367872321622e-02 -1.103577926631312822e-01 4.667084577723610295e-01
-4.154059847122015120e-02 -1.206502633995215762e-01 5.032823188627383315e-01
-1.912660984519209961e-02 -1.217794227133100760e-01 5.457328383452692000e-01
-6.452755360105402738e-02 -9.468469605926954635e-02 4.529070725762873173e-01
-8.284369407107530781e-02 -1.207020098624540932e-01 4.921778416202882145e-01
-4.733084291143463407e-02 -1.083974233733873277e-01 4.722294398321004172e-01
-3.942976862663923054e-02 -1.205004394672142543e-01 5.012224156811745379e-01
-5.545635280722555766e-02 -7.755405354245194227e-02 4.447723735588996474e-01
-4.753732842677328013e-02 -9.913732782323043946e-02 4.598992730788357131e-01
-1.130231080509772473e-01 -1.123545327095590574e-01 5.013922529742688150e-01
-6.229296478007634308e-02 -6.567083656435981909e-02 4.397445010089667816e-01
-1.204566902309706505e-01 -1.088257657572810344e-01 4.768520241627613454e-01
-7.828058817490962662e-02 -8.535546026536933173e-02 4.451571913421935034e-01
-6.362090774836082208e-02 -1.101740764182072979e-01 4.715430481740189306e-01
-6.850181148515716023e-02 -8.814646455472295583e-02 4.475962409452196589e-01
-8.495614338875084881e-02 -1.192731628821994128e-01 5.140784917030274404e-01
-2.809692622070558699e-02 -1.096826412938972095e-01 4.732621799329418399e-01
-3.002395600462079428e-02 -9.044270769801852905e-02 4.534824801667386995e-01
-8.908473464195244829e-03 -1.269995581060442136e-01 5.282192967492302937e-01
-6.003971987930183107e-02 -1.152456570495918181e-01 5.304743417526224247e-01
-1.789367500480072357e-02 -1.259523044789729040e-01 5.169194439837407895e-01
-4.778713764608234077e-02 -1.209398005372793183e-01 5.103435265251095032e-01
-9.351454856238580748e-02 -1.210732533445739029e-01 5.036355999087396285e-01
-1.306738465284320791e-02 -1.132551458437218023e-01 5.605606881767062344e-01
-4.405540893755910403e-02 -1.169663855563376209e-01 4.890859229231457883e-01
-5.910074043233388974e-02 -9.930220297298314458e-02 4.577687416630804029e-01
-2.410974692180849893e-02 -1.111853647057891858e-01 4.742409895183309909e-01
-8.855574631794958795e-02 -1.200196695762240223e-01 4.774818082676159370e-01
-7.753531190573551002e-02 -1.215671083553255261e-01 5.057425617580590949e-01
-4.572284015398815626e-02 -1.088981875984241510e-01 5.401939037818106470e-01
-1.013206218471528752e-01 -8.736556244730458998e-02 4.524992961017638149e-01
-8.740956495144967808e-02 -1.035266795699666259e-01 4.569738277346915289e-01
-1.010051608211206264e-01 -1.055742339920354572e-01 4.585758002600150429e-01
-6.209539397821210727e-02 -1.195361406514332259e-01 5.220492822368311137e-01
-2.849634935631652904e-02 -1.034244784700891762e-01 4.646547916212553919e-01
-8.297449653305150052e-02 -1.156640641630855004e-01 5.202368319611102576e-01
-8.513337283153307733e-02 -1.145326667137414600e-01 5.195659357756325925e-01
-3.928245761548391363e-02 -1.135600367786213372e-01 4.811585587485417426e-01
-4.873471356574341634e-02 -1.192783833060181015e-01 4.984550740555326875e-01
-1.072464829007088172e-01 -1.107037315105423442e-01 4.647775100384722857e-01
-6.478063354510105176e-02 -9.200360374445028244e-02 4.508836790297452990e-01
-9.892610224214706816e-02 -9.461076184065728145e-02 4.517311083491862278e-01
-5.973605666311262302e-02 -1.205189317527197851e-01 5.161410483401314142e-01
-1.021490201751625720e-01 -1.139857118305833972e-01 4.665223393741151914e-01
-4.742262209517417171e-02 -1.209949813052297873e-01 5.215384940905769540e-01
-5.542954016557975067e-02 -1.184801841440001335e-01 5.274040695448694027e-01
-9.346991125567276348e-02 -1.209271507639262527e-01 4.690609774172945223e-01
-3.569741053473982767e-02 -1.133522453742079883e-01 5.440266356511125334e-01
-1.040943408274367342e-02 -1.237238648108587441e-01 5.390852290908304534e-01
-6.465348248399604980e-02 -8.721918537108094838e-02 4.475775925396943689e-01
-1.155219414065401379e-01 -1.062838801918156856e-01 4.666581422314484140e-01
-5.547966540550026276e-02 -8.090221028272155668e-02 4.460468453322754545e-01
-3.815810083508719419e-02 -1.045901427380720727e-01 4.671571564886188854e-01
-2.608040861766536961e-02 -1.220895082820147581e-01 4.995034906231133331e-01
-8.268705407843318644e-02 -9.097363946267551793e-02 4.487143144128779015e-01
-8.988441001675688893e-03 -1.237569399383906948e-01 4.936989739230235874e-01
-9.728591364900306127e-02 -1.224275983127715989e-01 4.713074026216397261e-01
-1.174943123231480535e-01 -1.081795390115801170e-01 4.708818230686960260e-01
-3.042249784051513986e-02 -1.232347151876348745e-01 5.209433475214250153e-01
-5.502227741021348262e-02 -1.033612249405398559e-01 4.631802374165916447e-01
-3.394338925968685278e-02 -1.223615720675804153e-01 5.116831126941228103e-01
-4.399378467651742647e-02 -8.635666012392365087e-02 4.505622255102534890e-01
-2.267337946006212773e-02 -1.201110762413238886e-01 4.906898104915804470e-01
-8.604851768784467503e-02 -1.175065219590654270e-01 4.716077277685422620e-01
-1.141706717223982537e-01 -9.723352503479536224e-02 4.637979187637997769e-01
-1.629028224929488650e-02 -1.135427087862270062e-01 4.736485073691075742e-01
-6.599420896968319350e-02 -9.119279206769959067e-02 4.501098171626810029e-01
-9.487538447471761949e-02 -9.376121342140208981e-02 4.507171875511467030e-01
-4.798015196280350225e-02 -6.775583874228181813e-02 4.422959782983004184e-01
-2.290780049871577601e-02 -1.215203341775366180e-01 4.954408782412785817e-01
-4.227093504823759007e-02 -1.208731796557237503e-01 5.054136559155764097e-01
-5.400160498428327460e-02 -6.321329302173608888e-02 4.404107746698106562e-01
-7.246081405997900626e-02 -7.881840112379794039e-02 4.415619124858914946e-01
-1.103155300967447877e-01 -1.186823456516675063e-01 4.775008941140197471e-01
-9.655927227579974570e-02 -1.218503188917316876e-01 4.967539769067581545e-01
-9.190124762061520347e-02 -1.111136223292646524e-01 4.614894988647815222e-01
-4.377595187634731461e-02 -1.082303337581661945e-01 4.722106200406067100e-01
-7.347355717000002284e-02 -8.350802623332261032e-02 4.441225290155799144e-01
-5.803668848073606501e-02 -8.397859413215869040e-02 4.468550425657534242e-01
-1.830640644521182997e-02 -1.241786473994525852e-01 5.369194303188155049e-01
-1.140761917385624616e-02 -1.273889335127137701e-01 5.150222518582207032e-01
-2.116025447263627027e-02 -1.144353456884218967e-01 4.777347650816964886e-01
-9.308136962085711286e-02 -9.584624183896520155e-02 4.515024512441564997e-01
-9.554823653802059502e-02 -1.206641717775040618e-01 4.808351547644301172e-01
-5.234440718185152247e-02 -8.781797559370169148e-02 4.500941981030322503e-01
-1.404050976121069480e-02 -1.231746214334936418e-01 4.940606569191615671e-01
-1.120453420506019870e-01 -1.049611452197398431e-01 4.614691202813156479e-01
-1.463550060113039467e-02 -1.252935718557309508e-01 5.326905130316619275e-01
-6.478289915475832217e-02 -1.203056506308880225e-01 5.178678003339111102e-01
-5.537370504010763472e-02 -9.563217178817108588e-02 4.551563604116384276e-01
-3.691254144549110244e-02 -1.112229011070047097e-01 5.433352016131349771e-01
-1.103117742269155988e-01 -1.148382113816209110e-01 5.026037933566115390e-01
-6.700302237456666477e-02 -1.060929081671789093e-01 4.640913345889728370e-01
-6.513592662964268198e-02 -8.224591209743183085e-02 4.446048381957939943e-01
-6.356065396297483350e-02 -1.070055982464922506e-01 4.662076900445453198e-01
-6.468182676430760114e-02 -7.947653282476936643e-02 4.433905917369794780e-01
-7.407113009420393523e-02 -1.183798834119313276e-01 5.204187800899305882e-01
-5.559682671528219655e-02 -1.205525831716045826e-01 5.065241388409663648e-01
-1.063290545698807460e-01 -1.184887135367831135e-01 5.026135829627632612e-01
-7.878071511880872790e-02 -1.080779089500684825e-01 4.635361481467158984e-01
-5.340429534338420742e-02 -1.014688121057845671e-01 4.609552319897940453e-01
-1.195306888199632184e-01 -1.109986768379440797e-01 4.830174678553931233e-01
-8.577799276590252972e-03 -1.275213488137506290e-01 5.260571246025461667e-01
-9.389122844134198398e-02 -1.160412286926198466e-01 4.637421319571580214e-01
-6.523560875346215426e-02 -1.175035127435773985e-01 5.247822477855933476e-01
-9.840418748224240286e-02 -8.632084348789438588e-02 4.507234638844991315e-01
-2.390286525408108834e-02 -1.239522830267864723e-01 5.067602995375244390e-01
-3.858162502901181512e-02 -8.656620657389413331e-02 4.510612858438822759e-01
-8.022780656959570267e-02 -9.321424968486963225e-02 4.503233029305045432e-01
-6.683500685099941219e-02 -9.830360870812984708e-02 4.557833423960415686e-01
-4.184344051736266223e-02 -1.209085886757269163e-01 5.054493369390743451e-01
-1.258308703377596788e-02 -1.270358075805040621e-01 5.128864138223759861e-01
-9.017129174211083176e-02 -1.131281064281460247e-01 4.628218270342997487e-01
-6.220747399901284391e-02 -9.179037116114133199e-02 4.510798353978014985e-01
-8.441508885187277988e-02 -1.192489961671045068e-01 4.797547853322403077e-01
-4.125933851258369034e-02 -9.690192276568634910e-02 4.590690868447449557e-01
-5.075786850623619645e-02 -9.386068158352757484e-02 4.546264712126084628e-01
-3.427393104485369768e-02 -1.218564176271903082e-01 5.318943482250664267e-01
-7.541088784514077270e-02 -5.929379558773827108e-02 4.384423528313012297e-01
-3.169966993433812052e-02 -1.171725390665721983e-01 5.456986823384318841e-01
-1.887952216977328151e-02 -1.138992613820130756e-01 5.585712263599688088e-01
-3.244895127485122877e-02 -1.218234545273120528e-01 5.043382240514902026e-01
-7.435057085095696239e-02 -1.154447154610796222e-01 4.777695757736435955e-01
-7.211838929868277792e-02 -1.209375347316730687e-01 4.981479617279432892e-01
-1.023906342827527877e-01 -1.096004047529884062e-01 4.622728464633799605e-01
-7.074547979233351824e-02 -1.037988840333850110e-01 4.607115412996313220e-01
-7.546732539701432596e-02 -7.784774456109956609e-02 4.410071195398851951e-01
-4.861033033238019996e-02 -9.797223262581751524e-02 4.586346373013153732e-01
-2.779753350413394566e-02 -1.196275534304448995e-01 4.923415280465888721e-01
-5.222995102997699673e-02 -1.198440742784559337e-01 5.241620619793966318e-01
-4.926479391692636239e-02 -1.194581185166931209e-01 4.991598706509798311e-01
-5.317225202266198658e-02 -6.242183074340142829e-02 4.403490624796094766e-01
-1.124812345682681541e-01 -1.189524061958096984e-01 4.797130036703399769e-01
-8.619223870313096059e-02 -1.196063522099322096e-01 4.793009697664024626e-01
-5.806635507292641496e-02 -1.166294815695644582e-01 4.873413696785999782e-01
-4.436708109781337117e-02 -7.160790923781931716e-02 4.437689223601250510e-01
-7.794198369951090000e-02 -1.212958239856259529e-01 4.984970497069070583e-01
-3.536075594583387716e-02 -1.223679248923546653e-01 5.251483819670812458e-01
-5.429172696986037799e-02 -1.120549606460517905e-01 4.774810287396916153e-01
-3.244011641559891440e-02 -1.144474399618447130e-01 4.825647129834621518e-01
-9.227518361503363187e-02 -8.816072665910673622e-02 4.476164480936902224e-01
-7.040089427445606063e-02 -1.178212083242429348e-01 5.218977179419256318e-01
-3.010813166302146737e-02 -1.088507048493216889e-01 5.497576458725403903e-01
-1.004937411675856096e-01 -1.062693637027438825e-01 4.590437685934363188e-01
-6.094344666823469508e-02 -8.851362936458814779e-02 4.490183069759618451e-01
-8.285293081309547114e-02 -1.180162662564009923e-01 4.759536917492165897e-01
-7.748627069032285042e-02 -1.182861515817426601e-01 4.829793066795025624e-01
-8.418725380483821352e-02 -8.440141571126208442e-02 4.447923638922209322e-01
-3.148910181529015334e-03 -1.288732772316367736e-01 5.206687722136849050e-01
-8.549210822562698653e-02 -8.731229846280563756e-02 4.465154824990227311e-01
-1.027846250441389886e-01 -9.619797537777548257e-02 4.534902304225073011e-01
-8.781338115501638453e-02 -1.203581907965757397e-01 4.863540534238798285e-01
-2.125175605049988911e-02 -9.831056258619007282e-02 5.627010936588887624e-01
-3.028925263044652746e-02 -1.210117795313945532e-01 5.391570862279978504e-01
-9.398218456389866721e-03 -1.193699371688505539e-01 5.517344179556605832e-01
-4.380802523751406441e-02 -1.015210595825429274e-01 4.633711472764195372e-01
-2.476332411680114837e-02 -1.045715026071745157e-01 4.647103052056958394e-01
-3.406384249646772500e-02 -1.224612261058049822e-01 5.145100928443674393e-01
-7.214974461756547275e-02 -1.183744510240208742e-01 4.869062880053630082e-01
-3.498007408785393929e-02 -1.188015832019264639e-01 5.407600959300707943e-01
-1.000580543070660466e-01 -1.171865472757571830e-01 5.093078590767041725e-01
-6.522916667662445600e-02 -6.071148570349271800e-02 4.384412702200317646e-01
-2.532418611876420186e-02 -1.242157046820278610e-01 5.181966634651616888e-01
-1.042355073798934550e-01 -1.192084890794555124e-01 4.749559142095328701e-01
-2.174652639361704040e-02 -1.127312684798158771e-01 4.753612882195504263e-01
-3.296008454836142632e-02 -1.192348523102833430e-01 4.934555671724366599e-01
-4.137644731824986766e-02 -8.972613098303017232e-02 4.531941583757496117e-01
-5.219689926339518560e-02 -1.192208295501106796e-01 4.979843791712909584e-01
-6.814349039314543388e-02 -1.087963439901333540e-01 4.680196596770415107e-01
-4.220381973920615121e-02 -1.215176553624631034e-01 5.243716200474585198e-01
-9.416492038729491754e-02 -1.205897694283393634e-01 4.794254693182858906e-01
-1.011896719288213342e-01 -1.212913668737105599e-01 4.793480169579453221e-01
-1.834968717363310783e-02 -1.253646178633879560e-01 5.073759139905322790e-01
-1.067864279342423638e-02 -1.276197754174741295e-01 5.172856658765837556e-01
-2.794481741824544896e-02 -1.013347764440626075e-01 4.620698610809078621e-01
-2.797460557924958194e-02 -1.141000962405221975e-01 4.807304129911217916e-01
-5.318816086622229350e-02 -1.190094442547051101e-01 4.970465465362463031e-01
-8.096298623869495337e-02 -8.961283835969061085e-02 4.479266173900103842e-01
-4.240417851248511755e-02 -1.100971642247993709e-01 4.752370133667588870e-01
-7.290914944631216033e-02 -1.115210002045733811e-01 5.280576471697406848e-01
-2.899791618106226099e-02 -1.213348537794946141e-01 4.986484015213905607e-01
-3.302383065356107039e-02 -1.125676397623311259e-01 4.788452926907148521e-01
-3.983141856644268480e-02 -1.124416787832496767e-01 4.790236291339496910e-01
-9.760331924264677161e-02 -1.077543621906345839e-01 4.596025038124240680e-01
-1.572059988731020624e-02 -1.259160654145628222e-01 5.301272143924418145e-01
-3.222143276677931489e-02 -1.226144821172860111e-01 5.110536155336744546e-01
-6.498917435692722067e-02 -1.157387556937318485e-01 4.830666497454570996e-01
-9.444930910131746349e-02 -8.533957009742286492e-02 4.476869171310484119e-01
-5.480981016436842906e-02 -1.207193158592642229e-01 5.182596242843212631e-01
-5.612680888195007572e-02 -6.535722647083931636e-02 4.407510629796743684e-01
-3.313124219273727578e-02 -1.227395445314602984e-01 5.236842049866922144e-01
-9.121232434725701568e-03 -1.212153357530625086e-01 5.466555367246380692e-01
-1.033936582552295314e-01 -1.010949186092317265e-01 4.557525766561470459e-01
-3.883876849347144000e-02 -1.022337630103652001e-01 4.644333048667213526e-01
-5.516488356281890743e-02 -1.201124249607569833e-01 5.030137761353585812e-01
-4.991707804530927384e-02 -1.212329166806758729e-01 5.146228364565990088e-01
-7.831753252905887530e-02 -7.335493133119029563e-02 4.397094109697915476e-01
-3.584244121025762647e-02 -1.223263995954049915e-01 5.172940693193367467e-01
-7.958257699683327080e-02 -1.012616121076051895e-01 4.564514622100724894e-01
-6.188309509374991663e-02 -6.729163379424717151e-02 4.403911908994138646e-01
-2.838633403389280441e-02 -1.080243285705193707e-01 5.524803988471840288e-01
-7.165322833430962102e-02 -1.182268630997669739e-01 4.868636325523151842e-01
-6.931500130001627680e-02 -9.145493706367635589e-02 4.499369288727601002e-01
-1.337175297107624089e-02 -1.233373140555953373e-01 4.942332349453582019e-01
-7.288136017233443065e-02 -1.015030609600792999e-01 4.579614057108061242e-01
-5.764648904690104075e-02 -1.192401084336142669e-01 4.975098184874350848e-01
-9.725694104752026503e-03 -1.278501582521553437e-01 5.192380291715804619e-01
-3.972277461008175137e-02 -1.153271234950364738e-01 4.848506767032916276e-01
-4.375322521192014785e-02 -8.299594602330230553e-02 4.486529166506362798e-01
-6.371006714151489225e-02 -7.312322821039655973e-02 4.415218951009539650e-01
-6.499015241083209993e-02 -1.068111943945095760e-01 4.655156265491806056e-01
-7.435649054769273569e-02 -1.211301143417171100e-01 4.984921985494092933e-01
-3.185026560317162636e-02 -1.055079390732688999e-01 4.678305775126503918e-01
-5.989557358028137907e-02 -9.547490969576011288e-02 4.542127663465984067e-01
-5.491524570115693255e-02 -1.020083194848187963e-01 4.613203653823856332e-01
-8.231239855884429912e-02 -7.610789993179487012e-02 4.408348456994217179e-01
-1.042234740703547047e-01 -9.852772717718115414e-02 4.550105409000239076e-01
-1.036566558225145290e-01 -1.142648320040806631e-01 5.070007842149546473e-01
-6.347913009762065628e-02 -1.087747949353857491e-01 4.692457415380839603e-01
-1.073533487844355316e-01 -1.146631211514451409e-01 4.692550702917130390e-01
-1.062990547412723391e-01 -1.205085537161473125e-01 4.807017524337545145e-01
-1.038650193531169275e-01 -9.162862528622209290e-02 4.536098087483098062e-01
-7.076435680906628667e-02 -1.156758216698504649e-01 5.253458184491933691e-01
-8.624519434136872220e-02 -1.142859280967173374e-01 5.189765629647423717e-01
-1.040586600729525024e-01 -1.109010425546274603e-01 4.638878005508310642e-01
-7.003513907714242759e-02 -1.030240442458410649e-01 4.600218124265827990e-01
-5.487931912915342686e-02 -1.125971131976158113e-01 4.784109560948677231e-01
-6.045284171955523506e-02 -6.706058049515273289e-02 4.406009991988536489e-01
-7.034569436131821174e-02 -1.211657932765400764e-01 5.099473368205440504e-01
-1.265375841657743160e-02 -1.211704145185813764e-01 4.878879022300863788e-01
-1.036049363695903530e-01 -8.881663399027554806e-02 4.541981563570214875e-01
-9.517258305894493731e-02 -1.221498628077679338e-01 4.905296087021618345e-01
-1.163472377470560620e-01 -1.176232972567571033e-01 4.825126363593547629e-01
-5.065847822955028834e-02 -8.074896734101393025e-02 4.468253923282915485e-01
-8.894273475214875546e-02 -1.188006173601126592e-01 4.712632687953087207e-01
-8.755809028665496874e-02 -1.211222982881077215e-01 5.072115641808495612e-01
-5.337979024298947044e-03 -1.235096535377111920e-01 5.374197144500465484e-01
-1.024701013593276727e-01 -8.776132067958168637e-02 4.536178562038971629e-01
-3.976155673802833634e-02 -1.164808720892493710e-01 5.397105937873069026e-01
-4.626201722168222369e-02 -1.172666355248943165e-01 4.901669817522306127e-01
-5.188475196331831379e-02 -1.170832761615684392e-01 4.892947060946203353e-01
-4.280057432481754187e-02 -1.043636109346249563e-01 4.667598729156426374e-01
-7.316167939668877240e-02 -1.214142311790482459e-01 5.033736021417339890e-01
-7.916771018446257246e-02 -1.105066934946196816e-01 4.661736147745250136e-01
-1.151007019250742947e-01 -9.999961632519487054e-02 4.646577907947211927e-01
-1.915813078364905428e-02 -9.829247841654936702e-02 5.645245284605614478e-01
-7.963744862779607858e-02 -8.087591230117621710e-02 4.426590952049046512e-01
-4.958816585888039391e-02 -1.204040579681229378e-01 5.051729235201124490e-01
-6.076201482836156992e-02 -1.203524225603346265e-01 5.021458385028281235e-01
-1.082325091866240541e-01 -1.212602738071347358e-01 4.870518109305120857e-01
-2.639988722563615248e-02 -1.023522470096001752e-01 4.626754356710406912e-01
-9.811176039643426661e-02 -1.137686371433883070e-01 5.130297816206849104e-01
-3.841702062477898860e-02 -1.202776314823115061e-01 5.357791751830035532e-01
-9.011620157732103120e-02 -1.217873020336279477e-01 4.960275975250612035e-01
-1.025078744990288449e-01 -9.858341256601012292e-02 4.544510523048931327e-01
-9.454901994946252053e-02 -8.318909146181471814e-02 4.478044685807713310e-01
-8.158331717498801261e-02 -1.127669078921981621e-01 4.685826331171557557e-01
-7.451165149424800183e-02 -1.150497596054790017e-01 5.256922100731146186e-01
-7.278564159257941424e-02 -1.101651715458513286e-01 4.685479567714151972e-01
-1.075898688125788288e-01 -1.213595697232464493e-01 4.902606958753454314e-01
-6.125219660479801903e-02 -6.019105052767669689e-02 4.390318955782575028e-01
-8.902211612741500052e-03 -1.267224769679121676e-01 5.295627682134499414e-01
-3.684374425415683219e-02 -1.098271230618248218e-01 5.435855403071591097e-01
-4.319926117761478668e-02 -1.167783267195245944e-01 4.884335987062320417e-01
-5.997384490419983838e-02 -1.192642513058046888e-01 4.969935915322145625e-01
-9.939107956481502137e-02 -8.714174021190608521e-02 4.516218928111309650e-01
-4.439257694477877908e-02 -1.209686840358018406e-01 5.074102393943025202e-01
-6.674001413835571606e-02 -1.138482423497951534e-01 5.284746434249054658e-01
-7.269100552767072954e-02 -9.016868676699499319e-02 4.487533908439976238e-01
-2.068379803430197769e-02 -1.110903640012303462e-01 5.601163632640082657e-01
-4.774451981149415054e-04 -1.288199209488188890e-01 5.152425868359720162e-01
-9.492473700058873254e-02 -1.194401526167323813e-01 4.660782944754823798e-01
-1.148932052140793914e-01 -1.188065876515707192e-01 4.931798829999676226e-01
-7.447447674489646174e-02 -9.239867318474680180e-02 4.502189468644374193e-01
-8.336362754429094135e-02 -8.897609649670647214e-02 4.475530378096273521e-01
-2.950620475039020599e-02 -9.409693392083691432e-02 4.562832028714439714e-01
-8.866974174073968817e-02 -9.957349276568362717e-02 4.539259756618820307e-01
-1.128712065799530040e-01 -1.020037341430945210e-01 4.614382318052686061e-01
-2.339555583150106782e-02 -1.021907160716835489e-01 5.598245391890386280e-01
-1.141293025667923650e-01 -9.761622241955023038e-02 4.634993126851738587e-01
-8.085098340223259572e-02 -1.213687393022512967e-01 5.075049016224481013e-01
-1.057535439039707786e-01 -1.123572790417219358e-01 5.068259799003987931e-01
-1.241444152175117353e-02 -1.263553903616863594e-01 5.289814150515584901e-01
-1.137243949772322460e-01 -1.194361916789870581e-01 4.940026659661527209e-01
-5.473446204826449418e-02 -1.082393212547685390e-01 4.703406703749811735e-01
-1.055358081781136159e-01 -1.037485178025475130e-01 4.580856722809575898e-01
-7.525061698585258640e-02 -1.167906793855043451e-01 5.228595351744340647e-01
-7.089671210946393853e-02 -1.193567181704841551e-01 5.187538912965360405e-01
-5.953693832352408705e-02 -7.128330605600033398e-02 4.420336386490938407e-01
-1.185941489335294446e-01 -1.122782699570208237e-01 4.778239581892084198e-01
-7.130980675525862289e-02 -1.115982691548307176e-01 4.715038120255074516e-01
-1.169211662214752062e-01 -1.152490828665149042e-01 4.785768168981174853e-01
-5.377409511273045090e-02 -1.183482360221385643e-01 5.282496936608784832e-01
-9.764939211554361786e-02 -1.215788633950802278e-01 4.754567792708023211e-01
-6.324910833900430907e-02 -1.190534160965419919e-01 5.229034574031524718e-01
-1.032603553101288721e-02 -1.274827504313825188e-01 5.122548112691035493e-01
-4.500109375996179384e-02 -8.362044720371057671e-02 4.488422733750937477e-01
-1.196537784626841572e-01 -1.105739055396729037e-01 4.847835314389504768e-01
-8.521561378689747335e-02 -9.719635567382749197e-02 4.526259353078738168e-01
-8.958726459825036570e-02 -1.142853591852925621e-01 5.170230052096389528e-01
-1.164783242624470305e-01 -1.014261727033573812e-01 4.673064196935384773e-01
-4.057853227730321560e-02 -1.209294768335227449e-01 5.047553204593029363e-01
-7.308410802375012172e-02 -1.029256757453643617e-01 4.594104005234079247e-01
-1.067607684236304699e-01 -9.407224307581216194e-02 4.566543591029225135e-01
-1.949081536216031030e-02 -1.052466857593597899e-01 5.637196005568624324e-01
-4.700317045188596304e-02 -1.102031083092105818e-01 4.752623800870221515e-01
-8.877043452630063725e-02 -1.213863261575128250e-01 4.912639593620029554e-01
-5.955128154831109549e-02 -1.001895242527593294e-01 4.585636033929822442e-01
-9.864894510078538181e-02 -1.208978870394478017e-01 5.028626222061529649e-01
-6.373262811794772054e-02 -8.585149469879720108e-02 4.469114628514446741e-01
-6.585629404482994109e-02 -7.868487025033775450e-02 4.428361046036457527e-01
-8.513997609441027736e-02 -1.090921670475876459e-01 4.624060962585079260e-01
-4.581795349855171534e-02 -1.175862860562640749e-01 5.355560743659124601e-01
-5.962784343628236422e-02 -6.330791637280372419e-02 4.398145616132262403e-01
-3.864207424583642608e-02 -1.219666231783496646e-01 5.222548547930895291e-01
-8.936362215970429512e-02 -1.217234955417785675e-01 4.967825756730162023e-01
-1.153137952938545069e-01 -1.133005793278474560e-01 4.983484175224187074e-01
-1.027706738965452199e-01 -8.424517096193792631e-02 4.570354080722036638e-01
-9.319480049699858937e-02 -1.194948655320266090e-01 5.106014906733544745e-01
-1.054274444873033456e-01 -1.119957897559483162e-01 4.654573835784184821e-01
-7.208699010779530403e-02 -1.012620627701695392e-01 4.578366541346311491e-01
-9.248085650366810739e-02 -1.213453285460792952e-01 4.875228457953317274e-01
-1.179067492185777444e-01 -1.138307289615715784e-01 4.805772284389315807e-01
-6.774028459987581352e-02 -1.149706753792531649e-01 4.800421491410463704e-01
-1.055964387734446841e-01 -1.174438454881842064e-01 4.717970754948845880e-01
-8.456963730844331562e-02 -1.101357322704996783e-01 4.635097555410240266e-01
-4.712438125074359940e-02 -9.389696315713502717e-02 4.554630094749029245e-01
-6.304874082863315410e-02 -6.623113235665814558e-02 4.397859945745430377e-01
-1.125199031491098262e-01 -1.028569862058149736e-01 4.612964032658504188e-01
-4.415229536822357775e-02 -8.419373574017276207e-02 4.492876994380309852e-01
-7.173778936144821483e-02 -1.183321296493541619e-01 5.207391209687306510e-01
-1.005874387102771716e-01 -1.216582322055802939e-01 4.822686005221890615e-01
-2.051563777630772273e-02 -1.087763050914260649e-01 5.623185097706041580e-01
-2.558091601301058435e-02 -1.116924722093349392e-01 5.555125319769277370e-01
-2.323675790001935443e-02 -1.190106093051934849e-01 4.879717178677288603e-01
-7.462389330009334965e-02 -6.242461348257375559e-02 4.376475246897074123e-01
-4.251660715327416906e-02 -1.207729897795536411e-01 5.047829951643628688e-01
-7.163723506013142117e-02 -1.056815731393966340e-01 4.625425187456265186e-01
-6.895395235149329172e-02 -1.134291065606982674e-01 4.764256580136563279e-01
-3.688753999112386744e-02 -1.220158078351006037e-01 5.118680296701360044e-01
-8.147147162343065796e-02 -1.071460041999785506e-01 4.615398290366471978e-01
-1.094394571964767832e-01 -1.180847793089844638e-01 4.758077915621618525e-01
-1.534924412719335801e-02 -1.233995285697578187e-01 5.413473111022417683e-01
-5.989572883522942259e-02 -1.199596913908486662e-01 5.005305224040227374e-01
-2.742311878515191897e-02 -1.051841387258368871e-01 5.537260042968336071e-01
-1.045294107661279420e-01 -1.192918653274636781e-01 5.022498688375220954e-01
-6.872866596748189449e-02 -1.104661012556586441e-01 5.292185243361862135e-01
-1.068185691832678058e-01 -1.204489803501417738e-01 4.978372317524918378e-01
-1.115022943355894192e-01 -1.111716003598940961e-01 4.673875800736084218e-01
-6.578382892804547633e-02 -1.009832804201770406e-01 4.584951723466137441e-01
-1.720626461276769312e-02 -1.218468208818660192e-01 4.918576919104870049e-01
-9.510435020799484773e-02 -9.774818396492550299e-02 4.525879134875616661e-01
-7.772279079460528428e-02 -1.129428363800476787e-01 4.710962341325872771e-01
-1.004131335016726079e-01 -1.214346425792730277e-01 4.797211322150014556e-01
-8.780859167197024862e-02 -1.216535656186428366e-01 4.972332220078597431e-01
-8.019333662439735722e-02 -1.187908657528891215e-01 4.860788510992756217e-01
-8.544296474837773103e-02 -1.216761228802871880e-01 4.989999073368521221e-01
-7.369397009452852143e-02 -1.202817788185390480e-01 5.156344006947013447e-01
-4.300972393409095013e-02 -1.062030479986466602e-01 4.689943481548390358e-01
-3.239840559307340107e-02 -1.145491688382599682e-01 4.827663127554437383e-01
-1.027376033961612534e-01 -1.110896199968850750e-01 4.636217694360033059e-01
-3.894775849458384509e-02 -1.176942092241357457e-01 4.907221990994667382e-01
-7.132281260599243611e-02 -1.140973856594322960e-01 4.765312230940487170e-01
-4.340457800674270977e-02 -1.154041968450789796e-01 4.850866001665831706e-01
-2.296482675202823898e-02 -1.232345546662494962e-01 5.373628402516296143e-01
-1.045907669612559654e-01 -1.110592995481673867e-01 5.084160602409530938e-01
-9.364443343876845127e-02 -1.043759960506633194e-01 4.570359130736232900e-01
-3.042692284129838026e-02 -1.062282063897675155e-01 4.684879069071340441e-01
-7.539635400039725044e-02 -9.853268472860064742e-02 4.548573188147416735e-01
-8.280637363506845872e-02 -1.007773379938526198e-01 4.554994983584193524e-01
-2.779083099356932651e-02 -1.201760179185491217e-01 4.940643768943141501e-01
-7.728339856660637608e-02 -1.212947691094566627e-01 5.085609200640016647e-01
-6.020313914404126776e-02 -1.180455792966795397e-01 4.919170587983582865e-01
-4.736258395817805750e-02 -1.210489986085307168e-01 5.204548639437005519e-01
-3.780600983845065766e-02 -8.819440961772725962e-02 4.522129970775105035e-01
-1.492967408812914676e-02 -1.170098314865593847e-01 5.560308697412502665e-01
-2.694582880853930995e-02 -1.183446318625949456e-01 5.483001351081582264e-01
-6.941461214730720863e-02 -1.193878432607596712e-01 4.919555391878916439e-01
-2.276606392112777086e-02 -1.035632070472419924e-01 4.626880277624766391e-01
-9.787084110968977124e-02 -1.092446139628604346e-01 4.604412393951347049e-01
-2.929025986171986118e-02 -1.177074622969908613e-01 4.888276765981210970e-01
-1.216289195639953108e-01 -1.079381696182491468e-01 4.782821514311189071e-01
-8.163273999196329900e-02 -1.020677923256390063e-01 4.567006039045365950e-01
-2.583879397280036683e-02 -1.180062579323599842e-01 5.495450958552006160e-01
-4.738730993362224447e-02 -1.046065695067701501e-01 4.665936814716001302e-01
-4.875791799768291329e-02 -9.144270310625535192e-02 4.531531898055330410e-01
-5.984877527273490400e-02 -1.167632130864554307e-01 4.873348040988826901e-01
-1.181232843799199655e-01 -1.048413202256935073e-01 4.693503109209142821e-01
-9.873403213128097156e-02 -1.114917032711822270e-01 4.621319150195454251e-01
-6.293040360332800842e-02 -7.553383891121288884e-02 4.424479927132933810e-01
-5.084153164740418812e-02 -1.194665254236916968e-01 4.990881428263089226e-01
-2.849373156054930620e-02 -9.912187179672581061e-02 4.601905639550569194e-01
-2.735491547413986327e-02 -1.223715218596425486e-01 5.022854758285851817e-01
-8.601961146848571826e-02 -1.150690724996894787e-01 4.664278230218087962e-01
-1.649720411146856844e-02 -1.256421640081787638e-01 5.311028022376583779e-01
-4.002149467429735874e-02 -1.210365940706206039e-01 5.312372892844554606e-01
-4.787985310173960285e-02 -9.071903050553106751e-02 4.527997396151065002e-01
-8.885967418157067477e-02 -8.937327244987371133e-02 4.479095201849304098e-01
-5.974660797664042844e-02 -1.005641999109777168e-01 4.589101170462192569e-01
-8.078694318866144752e-02 -1.129402517955856999e-01 5.235986022411733831e-01
-2.901378018885757571e-03 -1.274072454517923003e-01 5.302581591534306638e-01
-7.701435765800365707e-02 -1.200857085077086661e-01 4.917426030448651675e-01
-8.218821333980785848e-02 -1.080238034740373942e-01 5.247174552823240523e-01
-5.997044819404102889e-02 -1.152407417559210001e-01 4.834235921169254269e-01
-2.189548462243243523e-02 -1.053152885203929301e-01 4.644578187616604237e-01
-6.361502922273812310e-02 -1.060784955178755568e-01 4.648224814248630987e-01
-2.423535217720006532e-02 -1.018061123647698851e-01 5.576416036751032923e-01
-2.521281643855737345e-02 -1.242275840305468310e-01 5.232671908057934251e-01
-8.114831473899310199e-02 -1.212177146334349892e-01 4.962612519213849271e-01
-3.900250186805887670e-02 -1.179892567952394028e-01 5.389273157634034694e-01
-9.078962325530733068e-02 -8.821760728113799133e-02 4.475713173539416778e-01
-6.555947723031213537e-02 -1.144915618503586224e-01 4.798149195838467551e-01
-7.364794484384927509e-02 -6.328846929173326252e-02 4.376707071214255285e-01
-8.585534935290486946e-02 -1.085309130040355147e-01 4.617267587818731367e-01
-2.238725689519644249e-02 -1.193508816527521638e-01 4.883489017232800489e-01
-9.351299385255545937e-02 -1.213095252631024579e-01 4.863543089803221697e-01
-3.628108161151399631e-03 -1.265073587621660112e-01 5.323116887403328557e-01
-1.172067796118423932e-01 -1.171196846642711259e-01 4.923983872461925593e-01
-4.939462200467992226e-02 -1.137154140741217512e-01 4.814022661069010667e-01
-8.645913989096988550e-02 -1.082867194736084476e-01 4.613697902680849450e-01
