-4.580553501576740266e-02 -1.199005016696240988e-01 5.305347893053106167e-01
-7.107075724727889704e-03 -1.186506854677382150e-01 5.520927783833976532e-01
-6.382283724910220446e-02 -1.121765201353685515e-01 4.768899687533679210e-01
-3.984714983327924259e-02 -1.214234656186956307e-01 5.263161292192209961e-01
-3.054139815687054518e-02 -1.197151378253474702e-01 5.424898541458377244e-01
-1.169156431646126149e-01 -1.119445546029158717e-01 4.746313211960226930e-01
-1.036343500824716962e-01 -1.178397752106881136e-01 4.725979446081691737e-01
-2.576924543331502240e-02 -1.239107825856747558e-01 5.142890136872348972e-01
-5.363720472703525227e-02 -9.007407653504589939e-02 4.515964980031593190e-01
-6.860514442822476799e-02 -7.699936206327603894e-02 4.418634454702052849e-01
-2.219519425883114544e-02 -9.692503561598575512e-02 5.606968675469409247e-01
-1.080502679088381490e-01 -1.159041657728139968e-01 4.725557886910431438e-01
-6.358601820658550674e-02 -1.000353316987078744e-01 4.584930173947354692e-01
-4.296210392586665566e-02 -7.694112855381561589e-02 4.460966014252464862e-01
-7.570414048784748773e-02 -1.198251531749947862e-01 5.146834544778211562e-01
-7.655966481297758752e-02 -1.195166504956418213e-01 4.928537370081222391e-01
-2.953544781931709273e-02 -1.164957031796143294e-01 4.868355179009190015e-01
-1.043237668108741995e-01 -1.195025142902710336e-01 4.790249127368214621e-01
-9.637893315017781459e-02 -1.210341008345508645e-01 4.876964784248615237e-01
-4.398907234837397262e-02 -1.035678508185630259e-01 4.662764150892440562e-01
-1.052135111852225552e-01 -1.050179672846352774e-01 4.599682915721453602e-01
-6.988821084191698674e-02 -1.205439340513130009e-01 5.102754503759948657e-01
-4.733175298871585696e-02 -8.041198042836741888e-02 4.472385596759390625e-01
-7.567941498271725520e-02 -5.923010584213902335e-02 4.382822267418175488e-01
-4.962006924626175680e-02 -1.047593013415133029e-01 4.670672652831245331e-01
-7.403201754592785011e-02 -8.986944600394704274e-02 4.489694510891211188e-01
-1.099211179954714124e-01 -1.123835385711124679e-01 5.039416295302624471e-01
-5.832015459224318410e-02 -9.549964997758059182e-02 4.549849282374895942e-01
-5.107391994336269586e-02 -1.075674136689803023e-01 4.709357189086023077e-01
-3.911752725428514071e-02 -1.161555801295193618e-01 4.873536998975298573e-01
-3.288758620865925991e-02 -1.226117972940924256e-01 5.228920547013800046e-01
-1.393911585417143342e-02 -1.268186437208039807e-01 5.234575665933608457e-01
-2.432127824480100065e-02 -1.119440057401902555e-01 4.757476266877305182e-01
-3.560012879073373021e-02 -1.183010744546578730e-01 4.924921227366320098e-01
-6.123157256020735073e-02 -1.197901482711593718e-01 5.187568355267371256e-01
-2.978205093875443618e-02 -1.205614934295217294e-01 5.409431709958086865e-01
-9.763086018017781698e-02 -1.207694589723143086e-01 4.982024121594706423e-01
-6.088833953247759639e-02 -1.180605015397977464e-01 5.254473181981120788e-01
-1.034790060750174490e-01 -9.206169052994830904e-02 4.527742381939463545e-01
-9.840174753335713398e-02 -1.008693240545860542e-01 4.556549470070080377e-01
-1.130944681632621435e-01 -1.138799420567889881e-01 4.727149165718678714e-01
-2.553994850173649592e-02 -1.061184175191945966e-01 4.675098194796590834e-01
-8.699077645078921728e-02 -1.208983291872479798e-01 4.985460970178712814e-01
-5.271239702084594414e-02 -1.085486676987080928e-01 4.722530206187880442e-01
-1.043568725244236467e-01 -1.119979471165179208e-01 5.075368921848668613e-01
-4.393392980041904011e-02 -1.184144675336189778e-01 4.947252294492174851e-01
-5.610152371338845978e-02 -1.110264558203537533e-01 5.342408771833083714e-01
-6.610806926494014642e-03 -1.246278967752859346e-01 4.960266459792327387e-01
-4.643811055817862604e-02 -9.521489086202571117e-02 4.570899891382380620e-01
-1.972830009315626465e-02 -1.126242668081348930e-01 4.740917659868592593e-01
-8.633264285074107591e-02 -1.204580043912303333e-01 5.072950213301545830e-01
-4.194240628734820231e-02 -1.192738318819976662e-01 4.980273308562327972e-01
-4.077389592193993856e-02 -1.196156144871216437e-01 4.991560872007116401e-01
-5.660917293396180300e-02 -7.902357915566653179e-02 4.452993202840813125e-01
-2.985725905335400929e-02 -1.147651654433246016e-01 4.831004799896541080e-01
-2.626356986184460313e-02 -1.104665259327793636e-01 5.553465993339357087e-01
-7.282844964343203331e-02 -9.085665176789892161e-02 4.497643704030210854e-01
-8.389828192478908028e-03 -1.277437533008584924e-01 5.251017563733372251e-01
-4.724188658866461388e-02 -1.069150284291436326e-01 4.706459937598716503e-01
-8.241272444875982761e-02 -1.127521559671016554e-01 5.221365551912083847e-01
-5.581126071998848692e-02 -6.645707198778343094e-02 4.412572973117764308e-01
-4.981058911224452157e-02 -5.712495696170263176e-02 4.395500963873867351e-01
-6.369348969350214183e-03 -1.283940574593656625e-01 5.231843557378216270e-01
-8.877520650645727429e-02 -1.145086057492604031e-01 5.169817287825577701e-01
-6.534883214381619065e-02 -1.175005182531467657e-01 4.897101158731243520e-01
-8.427724289007981762e-02 -9.621777013090791753e-02 4.526942919173820301e-01
-4.573177689409454322e-02 -1.208008962923114438e-01 5.235994867947134646e-01
-5.480893241443488689e-02 -1.175875605373083027e-01 4.929794116129944115e-01
-5.418080576755447686e-03 -1.280486010530312024e-01 5.269838153475160381e-01
-3.829851722521977753e-02 -1.032169652339072485e-01 4.659644299126031175e-01
-6.954241814472192362e-02 -1.152633102459408587e-01 4.816318718259892662e-01
-3.400721006417550818e-02 -1.066608924852032458e-01 4.698680476892767022e-01
-5.795463377620634071e-02 -7.277394714738162629e-02 4.429912622153589496e-01
-7.528087290884979965e-02 -1.119039801187142746e-01 4.718772049181199080e-01
-5.257729462039029134e-02 -1.195974509821852855e-01 5.024355000692751760e-01
-4.216065853193919077e-02 -1.196881034892113005e-01 5.355545357152795560e-01
-4.503415920653795756e-02 -1.138531838798072654e-01 4.826124452353394712e-01
-8.734745638714938587e-02 -7.316953707018303277e-02 4.432087541959028321e-01
-1.181297081434211499e-01 -1.103466546364742784e-01 4.751464730664530789e-01
-5.584277552558381333e-03 -1.242278895380794362e-01 4.944693866568246610e-01
-2.706117342637182760e-02 -1.226349976546426274e-01 5.353272567028377615e-01
-5.422507897484039191e-02 -6.604784557406938317e-02 4.413473034130073192e-01
-5.163246588667950998e-02 -7.368416313188685951e-02 4.441553985648802882e-01
-3.546217772235015636e-02 -1.057371300693200067e-01 4.687485233213785629e-01
-1.832110885683006091e-02 -1.173889842966419905e-01 4.816227327235537148e-01
-4.083399441781265099e-02 -7.340655559992666224e-02 4.444045888632199848e-01
-8.376941612483333743e-02 -6.763335858777388965e-02 4.407539846519528126e-01
-8.143508245741441776e-02 -1.019774502260190341e-01 4.574562349882998480e-01
-7.580050455173327484e-02 -1.184205106269594909e-01 5.190136194357196642e-01
-7.264833291892047740e-02 -9.803042912807909126e-02 4.554908008544600317e-01
-5.933568112496893227e-02 -1.168339460944151781e-01 4.895740129592441314e-01
-9.944125815208505748e-02 -1.211751546808744057e-01 4.902241639243481997e-01
-4.837912339511880183e-02 -9.214514600173683012e-02 4.541255063804226499e-01
-9.083515716701425977e-03 -1.272220924096825745e-01 5.268703372540821661e-01
-7.343895163748032084e-03 -1.272941454212082046e-01 5.284805909720625694e-01
-8.703950275423588678e-02 -8.156524301209579220e-02 4.446535186943663676e-01
-1.524230966827557279e-02 -1.215478686116176349e-01 4.900368671634679485e-01
-5.924821171081327831e-02 -1.136119242003444385e-01 5.316021081900955680e-01
-9.888999467527859188e-02 -9.840117892474768702e-02 4.541412861924983835e-01
-7.557771714693417575e-02 -5.914609101003048819e-02 4.382900760410338159e-01
-1.039477961380400189e-01 -1.063571872680537517e-01 4.607909693896097836e-01
-9.797431227587707903e-02 -1.130153467516591820e-01 5.133060044908082098e-01
-5.396623996532367434e-02 -9.782111820789157752e-02 4.577282245485902457e-01
-8.541697214092435625e-03 -1.240112490367261261e-01 5.369113331948345280e-01
-6.455772928371814046e-02 -1.142614393803432354e-01 4.811068402136375877e-01
-8.805160303402782829e-02 -1.068517264789104471e-01 4.605468192951788775e-01
-3.348562427122277196e-02 -1.065880526997679961e-01 5.465687646342120010e-01
-6.759219813127362309e-02 -9.214155006544290372e-02 4.511313212921683746e-01
-9.678500444812634940e-02 -1.204679957272579288e-01 5.005162461663669182e-01
-1.964747840457889069e-02 -1.255394588326690097e-01 5.235609136376526695e-01
-1.146727780532424100e-02 -1.217403915906156153e-01 4.890828258427591946e-01
-2.718429974396069371e-02 -9.562812513436827477e-02 4.568390893802360408e-01
-2.937781910814045785e-02 -1.201199729837982844e-01 4.953555087633339515e-01
-3.295251450807235721e-02 -1.226433400275677710e-01 5.202754501098921791e-01
-5.796633994356015229e-02 -1.201658669496933757e-01 5.167451926967949749e-01
-5.177223752717585725e-02 -1.112721874529596366e-01 4.773672739356052408e-01
-4.940365319975505154e-02 -1.053499522303784630e-01 4.679165514567213968e-01
-2.137993937811511619e-02 -1.202854165084150384e-01 4.906012839961502170e-01
-4.171718774446700473e-02 -9.420250111744783716e-02 4.570723016794902560e-01
-4.010569658880751287e-02 -1.215480429221825892e-01 5.152949560102800808e-01
-1.009526965301747597e-01 -1.096133717967535115e-01 4.622753558056382217e-01
-3.140054696864214012e-02 -9.135699643397178493e-02 4.545522669490377199e-01
-3.846417081515497022e-02 -1.207605524255925405e-01 5.334540149273931942e-01
-9.815670773356790363e-03 -1.242257718504254926e-01 5.368249179178927744e-01
-2.365138268207710864e-02 -9.932705303087228932e-02 4.587288536185739618e-01
-9.092420039838147727e-02 -8.395739483525579971e-02 4.464408178629631907e-01
-7.691508050503630123e-02 -7.048787964694457064e-02 4.391421597010070066e-01
-9.560545662028610558e-02 -1.200194794677334753e-01 4.776517023444816212e-01
-3.610371746951421962e-02 -1.121665445734396499e-01 4.788269709629855431e-01
-2.686412734769767774e-02 -9.127992016426976496e-02 4.533290879772908788e-01
-7.406474348370857552e-02 -7.186955692659399708e-02 4.394271885841521952e-01
-2.454961807010872660e-02 -1.243135555794935010e-01 5.223753638960307866e-01
-8.945081989499913122e-02 -1.017447488471883710e-01 4.561308357769310318e-01
-2.301787807294662300e-02 -1.133685748732958659e-01 5.568592742790767769e-01
-8.929078204274307207e-02 -1.082486076445870887e-01 4.612457621558780918e-01
-7.900509745248948668e-02 -1.019456263046217281e-01 4.579397286680095269e-01
-4.304786839488867339e-02 -8.667077996265835915e-02 4.510882005816395646e-01
-2.680975040533182391e-02 -1.237392585480279195e-01 5.256729530256265548e-01
-4.529458144824282870e-03 -1.284914898083072965e-01 5.129876004305284898e-01
-4.362835500044102977e-02 -1.032196052196416719e-01 4.658603785502755668e-01
-3.979633441543858202e-02 -9.360739225285989729e-02 4.567702808656507463e-01
-1.780615304562423173e-02 -1.146950620064365878e-01 4.763064407511417575e-01
-8.689877278384104675e-02 -9.881106636199966931e-02 4.542738733600554246e-01
-5.026886749701871271e-02 -8.105902225604677547e-02 4.471805338056061285e-01
-8.378403701557254890e-02 -1.062663836145126550e-01 4.609124451876377981e-01
-7.530591344182240021e-02 -9.319513599979746543e-02 4.513417207950626842e-01
-5.616546345889682212e-02 -1.202240711875849632e-01 5.082183995708094981e-01
-4.037613112162950074e-02 -7.965420433049884286e-02 4.471981927890479325e-01
-1.177928746300209578e-01 -1.160910603559255905e-01 4.855023888626422424e-01
-3.339310327183950960e-02 -1.082250832481472247e-01 5.465110093495809673e-01
-1.051788010465940643e-02 -1.263731578765415198e-01 5.294689416334258381e-01
-8.477526851449818102e-02 -7.817822510544092385e-02 4.426083864949523772e-01
-1.142629260420179177e-01 -1.012510360484732835e-01 4.631530461504803631e-01
-8.438064629669057848e-02 -1.183024741907709315e-01 4.776200480149578875e-01
-3.139872776650025343e-02 -1.070711514726842423e-01 5.488400414710237207e-01
-1.705609253136528697e-02 -1.261726267678690838e-01 5.203007308486317095e-01
-2.673961430154784755e-02 -1.217107562513084495e-01 4.990280827462022506e-01
-1.156889917672660889e-01 -1.177000515167613282e-01 4.832304394043949736e-01
-6.795411704411556675e-02 -1.088994462768929361e-01 5.298362857682737959e-01
-1.748570086864964165e-02 -1.175339884977758265e-01 5.543701703365390143e-01
-4.802854723978162987e-02 -1.173819372248363219e-01 4.915956808830209690e-01
-2.274285408336389550e-02 -1.220968081028817181e-01 4.975272600501662867e-01
-6.291587683599311753e-02 -1.191487336950881049e-01 4.980999500029508198e-01
-1.330933233791007156e-02 -1.263857439013177375e-01 5.074686217936525967e-01
-6.549948384042193761e-02 -7.678067007103606123e-02 4.424813911167095881e-01
-4.972941177869630996e-02 -1.188691577896118790e-01 5.298669200956377390e-01
-8.028205985853789639e-02 -9.378884923285292496e-02 4.513359985866509105e-01
-1.009379846509492334e-01 -1.208418813609448972e-01 4.969978893892515459e-01
-1.057758682244156895e-01 -1.208298465477189165e-01 4.871531041529227335e-01
-5.655324631619464137e-02 -1.152786489533753206e-01 4.852835774218073328e-01
-6.956080120342217343e-02 -5.637961668800487575e-02 4.387116771802959114e-01
-9.692873016523095853e-02 -1.069039478978361102e-01 4.594869741098373539e-01
-8.144804940902597434e-02 -1.140938046088606911e-01 4.718861282174339755e-01
-6.612954467096647526e-02 -9.590717476572202527e-02 4.542395612195621601e-01
-4.701663019734309695e-02 -8.543330277726760014e-02 4.498266202092439103e-01
-2.966585698617447975e-02 -1.213353330565673793e-01 5.000997184141078300e-01
-1.176044626438441931e-01 -1.156327292639951765e-01 4.838979435070570601e-01
-4.527438218139581000e-02 -1.157182526852563592e-01 4.866861905734324867e-01
-7.249080788648533391e-02 -5.521466099184019205e-02 4.394829911045086135e-01
-4.698984623589900350e-02 -6.611161436506764189e-02 4.419378196984157792e-01
-7.477424204383395501e-02 -1.128801877433082274e-01 4.737889860258229224e-01
-7.799404935428405627e-02 -1.201737426411620402e-01 5.128992369848328625e-01
-7.726028374392561460e-02 -1.015078926107626511e-01 4.579432436913767890e-01
-7.136465312103240644e-03 -1.197900470492301028e-01 5.487005757285273733e-01
-8.645998545120461842e-02 -9.169786723299551412e-02 4.496264111563826882e-01
-4.038512165345869986e-02 -1.098633365184088218e-01 4.752234504336138587e-01
-4.806981126764059420e-02 -8.878579385096593835e-02 4.517543468383868333e-01
-1.002618098616652187e-01 -8.486571629635832059e-02 4.520910313246516710e-01
-1.988234556602531955e-02 -1.190903883309268191e-01 4.862502693936384679e-01
-7.383269915008333455e-03 -9.650869998267341821e-02 5.701792418125120054e-01
-6.543127119629006672e-02 -1.206088344241247473e-01 5.107159290628943138e-01
-1.078380789872487727e-01 -1.168376645411271925e-01 4.747848516439059918e-01
-9.190362400727740411e-02 -1.210274160791077330e-01 4.942516090635282189e-01
-3.942936551693603658e-02 -1.092475369410083191e-01 5.427539449320466503e-01
-2.406467087704015906e-02 -1.131392903814655571e-01 4.774612314135952551e-01
-3.971189452149277016e-02 -1.213355221294043773e-01 5.096675748652185201e-01
-1.201674593702051486e-01 -1.095260029356894815e-01 4.863072696794237815e-01
-1.049499761561604738e-01 -9.963940930457249046e-02 4.561011462111707049e-01
-4.008830881714155886e-02 -1.211327030489123685e-01 5.285987901111762755e-01
-1.001506133377674107e-01 -1.206900054235932052e-01 4.827489783619355879e-01
-7.918457272137248426e-02 -1.205056129066272436e-01 4.974148982236237804e-01
-7.421659235126933096e-02 -1.205375439899515622e-01 5.102889291502099578e-01
-2.347396901755023635e-02 -1.027330940755242644e-01 5.601128137048624334e-01
-4.279654730993417977e-02 -8.777297610132081540e-02 4.518942920486963555e-01
-1.074200957329177371e-02 -1.274582431050786113e-01 5.143826816787898659e-01
-2.969540395688291534e-02 -1.203053767537246715e-01 5.418924733604572053e-01
-1.197092145398945678e-01 -1.064990237265701911e-01 4.731293686016324052e-01
-9.359263568357020779e-02 -1.198233791899296768e-01 5.074562372831888934e-01
-1.032340526734917135e-02 -1.266849035719157801e-01 5.062906573433783031e-01
-1.717329049859234874e-02 -1.260431250444003781e-01 5.159466578608845611e-01
-4.648295337996966037e-02 -1.207898709813375604e-01 5.119263201099062410e-01
-9.654168393543643978e-02 -1.195314477616903903e-01 5.068415148982822194e-01
-5.243341792059012796e-02 -1.183695180124706009e-01 5.284069168715851417e-01
-4.423992859488692225e-02 -8.186402703663213376e-02 4.482478033337254364e-01
-3.819370151151407072e-02 -1.146163460577843685e-01 4.840359529355528490e-01
-8.762904091910306281e-02 -1.019162477233989256e-01 4.564548830334758112e-01
-9.942723465388682291e-02 -1.207353124942580069e-01 4.834295067972748106e-01
-6.395203021814778455e-02 -1.191155620019722361e-01 5.214927609553541288e-01
-3.593541542034956598e-02 -1.138213424130224277e-01 4.821330252602495370e-01
-4.107976477069787830e-02 -7.349017183875150572e-02 4.444508881172769543e-01
-3.121987753675175073e-02 -1.169519143056878541e-01 5.464955754163913770e-01
-7.196350288970851383e-02 -1.150332195523037643e-01 4.799806585950917581e-01
-8.182827861883547327e-02 -6.931210625207728793e-02 4.397074924709080679e-01
-8.807712285316783574e-02 -1.183846075182417162e-01 4.735230554341430809e-01
-1.042295930705861434e-01 -1.131555104871395656e-01 4.674196318097559311e-01
-7.096340591974392709e-02 -7.515283600588310020e-02 4.407952714914861181e-01
-4.186663170226972985e-02 -1.200723853668419078e-01 5.342125819884279148e-01
-1.103642117576810605e-01 -1.194647316065651915e-01 4.948909886394843860e-01
-7.385367747593543641e-02 -1.204519742406704036e-01 5.112111146375180049e-01
-5.116112241054337345e-02 -1.202910133966885037e-01 5.076578008108399986e-01
-3.625606943521116760e-02 -1.141604072055510816e-01 5.436812740009989708e-01
-6.368750883745223634e-02 -7.732284191873271817e-02 4.430983771251995607e-01
-3.578482828650754455e-02 -1.061757252256773226e-01 4.693899664061448873e-01
-1.148664354928857420e-02 -1.081631001846368734e-01 5.645983270800778442e-01
-5.412000938920914078e-02 -8.325559144324869154e-02 4.474880948451163687e-01
-2.573701680419245019e-02 -1.138159748701193380e-01 5.543125319461602585e-01
-7.380198582611071506e-03 -1.230894012935895010e-01 5.390816145134629256e-01
-3.710679899354355632e-02 -1.217931108129947926e-01 5.131833757109758309e-01
-2.454004880504194464e-02 -1.242943199305105856e-01 5.239750775804719041e-01
-1.031164256976388194e-01 -8.767502107466088046e-02 4.534746098073461074e-01
-3.383427431141597386e-02 -8.444302917865276203e-02 4.497495523198497547e-01
-2.751721309138089808e-02 -1.220941778409566913e-01 5.373234977301053483e-01
-8.406094366146639463e-02 -1.189963206367906229e-01 5.144371236775477918e-01
-3.425540895289416743e-02 -1.098025702131981002e-01 4.743919202136945845e-01
-9.963618790186534735e-02 -1.136276627493359448e-01 4.652695924926715243e-01
-5.183595653053928165e-02 -1.201278509697125685e-01 5.060934312166984750e-01
-3.032895894321722963e-02 -1.228036374874626468e-01 5.288617770540552376e-01
-5.932562926708273565e-02 -5.643727349979132252e-02 4.386420448999893140e-01
-1.820301468732196323e-02 -1.257954979136239881e-01 5.161310549406126214e-01
-1.082546863525786496e-01 -1.095698560143111566e-01 4.650885621341303011e-01
-7.159179568769859225e-02 -9.263345661020885857e-02 4.511995265459501914e-01
-9.937592704129152854e-02 -1.134384747545991445e-01 5.121421379436456034e-01
-1.543918404325281268e-02 -1.168125915477962046e-01 4.793422372920925767e-01
-8.757826036660609770e-02 -1.100881018131944361e-01 4.633361791046799461e-01
-3.047079607567136639e-02 -1.188510511764745980e-01 5.441449134174872748e-01
-6.146996602485282901e-02 -1.105753927576894058e-01 4.738525003467284891e-01
-8.689090058122395099e-02 -1.079064351528094962e-01 4.618079504457250906e-01
-1.424390068380914504e-02 -1.250138263627872948e-01 5.012405039770556625e-01
-9.316206199728349624e-02 -1.198815568143864196e-01 4.702476709900216822e-01
-2.700967000810660865e-02 -1.027805769256149165e-01 5.537376718771372941e-01
-8.488365863732973138e-02 -8.111018171253193965e-02 4.439367778551256416e-01
-1.163079976955140593e-01 -1.054579659896308919e-01 4.679752291164653299e-01
-9.857348650952611757e-02 -1.211842319229766429e-01 4.920463437356306091e-01
-8.555150973216954502e-02 -1.134787666910689607e-01 5.197785132584338275e-01
-7.326144490052899361e-02 -6.014594981789551237e-02 4.378142500822305716e-01
-3.985042194506658447e-02 -1.118447024370874815e-01 5.423841798164968919e-01
-8.096668727872216587e-02 -8.194854855195309040e-02 4.436748533898427493e-01
-2.768266694325819885e-02 -1.230821942917550149e-01 5.091631758441568234e-01
-1.784153152935074801e-02 -1.159845416683849273e-01 4.786676523485903778e-01
-7.017244854676740751e-02 -1.183737732670925163e-01 4.904992362764239999e-01
-8.495405769100417004e-02 -1.161225193298308089e-01 5.182630981893087130e-01
-8.494597154357248769e-02 -7.514251795004479872e-02 4.416481376466499520e-01
-1.158058903713317378e-02 -1.180892374768550829e-01 5.539145673405470038e-01
-8.934124532692809539e-02 -8.564906697425438142e-02 4.469404429947472779e-01
-5.422952938607343565e-02 -1.131665720060372471e-01 4.807798844672684924e-01
-3.374140880380350344e-02 -1.199611408902873239e-01 4.973427410482559319e-01
-1.940464806760492170e-02 -9.746096101056310468e-02 5.645871426400475013e-01
-5.348254508021426344e-03 -1.271254317186131244e-01 5.045790120686690639e-01
-1.672208935015549736e-02 -1.081280547790392371e-01 5.638556603825548574e-01
-1.411121980173496437e-02 -1.222912317617095429e-01 4.913791361610143626e-01
-4.183849827213621808e-02 -1.140253405084490773e-01 4.828464247234223738e-01
-7.860059402718533317e-02 -9.536321512850981508e-02 4.526873360509868771e-01
-4.378944177829809797e-02 -8.672196511592582258e-02 4.510187637419561524e-01
-6.375741784921969135e-02 -1.193718095556725450e-01 5.203392989041473182e-01
-8.074905365712281569e-02 -1.112775726416195682e-01 5.250834365303801432e-01
-1.397818801219405382e-02 -1.224529891788512098e-01 5.445411220323370660e-01
-4.301570256827961375e-02 -1.210015750613201574e-01 5.263588552860672953e-01
-3.883426527486391611e-02 -1.094252009090645184e-01 4.742920005730736355e-01
-1.915085289199634083e-02 -1.176607112658166615e-01 5.536682656184862550e-01
-1.180614387659062875e-01 -1.077245213980049798e-01 4.719278030779562316e-01
-5.555705486647211783e-02 -1.130283436959786808e-01 5.334901862062068068e-01
-6.957092328172023721e-02 -8.697552585076380460e-02 4.471544766210959754e-01
-5.608174303188822457e-02 -6.937011612365401314e-02 4.421598496850746574e-01
-5.473562432034660002e-02 -7.825136506609187137e-02 4.453327341042049858e-01
-3.971279725933487409e-02 -7.878983938609071536e-02 4.467636843690668824e-01
-2.046761487425798748e-02 -1.168337450343917144e-01 5.548018205514837486e-01
-8.902080872726469973e-02 -7.016242909732645083e-02 4.460733741303667399e-01
-9.466706109409941949e-02 -1.029945756086178693e-01 4.568246154402104686e-01
-6.986407894161315857e-02 -1.052078896164426736e-01 4.632822870624724310e-01
-3.244466024951601912e-02 -1.127211656941048551e-01 5.472226427886633937e-01
-4.084767153048832200e-02 -1.161157116010529677e-01 4.873369168396824991e-01
-1.333336570856403711e-02 -1.251300635585911314e-01 5.008664987872767371e-01
-4.753252358391583249e-02 -7.950079766647938362e-02 4.468271102858591970e-01
-1.385361599306069585e-02 -1.236895752722467490e-01 4.960791584765191220e-01
-4.680642329269934371e-02 -1.064353092482847596e-01 4.699348616024952574e-01
-3.440875663735025458e-02 -1.221147983099474532e-01 5.127377138122301004e-01
-1.057179323175736485e-01 -1.194080808747710609e-01 4.795969841302219483e-01
-1.004724778104067046e-01 -1.020196232927591401e-01 4.567053528203212087e-01
-1.025871400636201580e-01 -1.173355251517217840e-01 4.715050912905583980e-01
-6.551953283119466009e-02 -8.325295476121530314e-02 4.454157325807908130e-01
-4.111712377350763836e-02 -1.163120826044214962e-01 5.390431958903740828e-01
-1.088705498982980857e-02 -1.189627128155579805e-01 4.827027690227250201e-01
-6.233077977741630082e-02 -1.148965524102848884e-01 4.835651313740353396e-01
-6.788029226085702528e-02 -1.065445403774344657e-01 4.654673186284195019e-01
-5.138540862688684846e-02 -1.207220117944426407e-01 5.155443139420824439e-01
-7.183330413891191035e-02 -7.709168197215730822e-02 4.412539980012650243e-01
-1.977891030173073092e-02 -1.250191921680700591e-01 5.306463669363483682e-01
-6.142772483976546849e-02 -1.094314163862005473e-01 4.718542046238326515e-01
-2.150688114322669639e-02 -1.209621635785570470e-01 4.926844068719465897e-01
-1.562473430919890729e-02 -1.173104512277960976e-01 4.804929239275310682e-01
-8.543944710963047307e-02 -1.149827703981236571e-01 4.696736062146950608e-01
-1.675672376461218027e-02 -1.154834358691697871e-01 5.577363315404347821e-01
-1.205434987640482819e-01 -1.068723891031059386e-01 4.753936947504403543e-01
-5.460527008510544095e-02 -1.070667785628462571e-01 4.693130746460453806e-01
-1.081577706828730501e-02 -1.249304174781736554e-01 4.986177991911904250e-01
-6.192650289396971208e-02 -6.397830435151462269e-02 4.394866767200508173e-01
-2.069161986606351047e-02 -1.002219574984526962e-01 5.634382400189109630e-01
-3.775880590212768451e-02 -8.585805609213791045e-02 4.508161319614523155e-01
-9.491364564619551858e-02 -1.157637739776984087e-01 5.134292460190662544e-01
-3.206926595421906445e-02 -1.199134293058912448e-01 5.406415512239131083e-01
-6.061320810017482852e-02 -1.022619895431899073e-01 4.612854198197225419e-01
-1.980293401963877098e-02 -1.169045771700094050e-01 5.548655847329186930e-01
-4.729884835666638143e-02 -8.733314213655733738e-02 4.508750445385195094e-01
-3.225172315364460002e-02 -1.225524143359325996e-01 5.140732967390715391e-01
-9.907430382866061480e-02 -1.206192915782727942e-01 4.747207594993139712e-01
-7.239379601439951961e-02 -1.205534558592119276e-01 5.101649078134917747e-01
-1.181874456332134976e-01 -9.880069702058613679e-02 4.727121298106811143e-01
-8.209816084703214223e-02 -1.193211403519559427e-01 5.154951786748054321e-01
-1.084833129125753193e-01 -1.201175687162506639e-01 4.920873161093641812e-01
-3.383512016837277037e-02 -9.996143690606099086e-02 4.624703166756652939e-01
-6.916388022679442749e-02 -6.024754628351255969e-02 4.377620366520600936e-01
-5.671967697245261508e-02 -8.727896480284610958e-02 4.493779003843115238e-01
-8.870104471450478145e-02 -7.476547862125043631e-02 4.443723081830204813e-01
-2.490658894086848416e-02 -1.240600270686613715e-01 5.287303102008865663e-01
-3.492645599229875913e-02 -1.217141691427228584e-01 5.090373294311273389e-01
-1.219544439002812238e-02 -1.212814166518532688e-01 5.483602004725075529e-01
-2.318043522628513570e-02 -1.246607128926570107e-01 5.202905857603598028e-01
-2.524997284936937939e-02 -1.230800381938626092e-01 5.043453709685250530e-01
-9.489054491520787504e-02 -1.182536540385335233e-01 5.114811468447542087e-01
-7.203374518984671793e-02 -6.625106180864805128e-02 4.380427787299948639e-01
-9.556503384890865926e-02 -9.955477602561121908e-02 4.545269059481411578e-01
-8.487953193872883884e-02 -1.148456829051805184e-01 4.699684295686668012e-01
-6.080827838167473381e-02 -1.104105855794092345e-01 4.736187146538075599e-01
-8.393522186928299711e-03 -1.273430607678764925e-01 5.083162152296671898e-01
-6.668071010220949502e-02 -1.205843639106481680e-01 5.105629469413222044e-01
-6.464212911295748321e-02 -1.133538694428809224e-01 4.791235497754011141e-01
-8.768811612061243321e-02 -1.123686399245280992e-01 5.190870689679837335e-01
-3.425872628657439245e-02 -7.825455875397309413e-02 4.460275746331836544e-01
-5.259971495605920283e-02 -1.077849242278202391e-01 4.709255285635496890e-01
-3.050303391733076575e-02 -1.229942160593598260e-01 5.246535974523567347e-01
-1.588711358452142564e-02 -1.263488558179854948e-01 5.155566488607373765e-01
-2.803660833049233594e-02 -1.137613186088040074e-01 4.804215676026898918e-01
-4.476135115801264247e-02 -8.709268345161527702e-02 4.510944058216451169e-01
-6.814914159348416101e-02 -1.158629604704343175e-01 5.254785562010240163e-01
-8.846298051593652623e-02 -1.160054231369826022e-01 5.162259441752200528e-01
-3.257806699554592622e-02 -1.155102284753595637e-01 4.853733919967713750e-01
-1.297962355642577788e-02 -1.255695965758467092e-01 5.319831782935600106e-01
-6.228840187888828178e-02 -8.138053529344295434e-02 4.451853004420172621e-01
-2.378349699062070471e-02 -1.049978497799178845e-01 5.593534535883007974e-01
-7.663818224595937700e-02 -1.198167498033096134e-01 4.942422623923354297e-01
-4.073863268133114113e-02 -1.194151359742741669e-01 4.982666920634141183e-01
-2.466797507777955187e-02 -1.168783923708710815e-01 4.845215686531718635e-01
-6.083998884797099660e-02 -5.711728505941512241e-02 4.385546065043626762e-01
-6.760453079390675579e-02 -8.271312550281557929e-02 4.447825097094800229e-01
-6.433971869543657351e-02 -1.099488315306543368e-01 4.721066318364772751e-01
-3.630134279609422560e-02 -1.159442386078097381e-01 4.866611592018364463e-01
-3.211264274682120584e-02 -8.019561334669787767e-02 4.467648585229577751e-01
-8.273567433607402488e-02 -8.382471568560161124e-02 4.447420754819891298e-01
-9.140675159024433394e-02 -1.205718524996831909e-01 5.028960518567323623e-01
-6.501391292159346656e-03 -1.206529505877283470e-01 5.453687135321528823e-01
-4.966020348901328818e-02 -1.194876426612588444e-01 5.016329062473443567e-01
-9.726577483889412012e-02 -1.030985061054067869e-01 4.570125829961831365e-01
-1.130149925647581655e-01 -1.188046484789441193e-01 4.944756772929684296e-01
-2.872638817004178127e-02 -1.096902887030527518e-01 4.736508119391742988e-01
-8.146895704254535076e-02 -7.713522526023283699e-02 4.414302506470038079e-01
-4.445355877313773157e-02 -1.195461272719986756e-01 5.344910033388664550e-01
-5.393191687805765078e-02 -9.851221830565042026e-02 4.583065729179661707e-01
-5.889273332625768326e-02 -1.198292735924971070e-01 5.200648711411278713e-01
-5.767957471947857129e-02 -8.059904933341213717e-02 4.457335726790903618e-01
-8.826930857162693100e-02 -1.097446673023548813e-01 5.199640607163192874e-01
-4.436327995760391829e-02 -9.504299108105233873e-02 4.573738812093613992e-01
-6.125770819318601679e-02 -1.104883891371960247e-01 4.737033157104572623e-01
-8.362814795157791359e-02 -1.203472810843624341e-01 5.100932128078118355e-01
-7.491097845585888149e-02 -1.034124382605147580e-01 4.604044134798672139e-01
-3.089185065457590237e-02 -1.084095647181655409e-01 5.492547569439074628e-01
-1.540101713684645032e-02 -1.265024040360501756e-01 5.170915631061934192e-01
-7.978754561759757169e-02 -1.113040094564404642e-01 5.262112250542525516e-01
-8.025290428504222584e-02 -1.175054132228041670e-01 4.825163838593833909e-01
-3.726104461941250751e-02 -1.219455753053919900e-01 5.195788229243595291e-01
-1.115868386745203916e-01 -1.148793103139403166e-01 5.014506441069561671e-01
-7.227748514134874069e-02 -7.534905867475842622e-02 4.405973435842333030e-01
-1.184069066953158805e-01 -1.101653970321654630e-01 4.755445441898604741e-01
-3.278457731706657663e-02 -1.202229090102134024e-01 4.978735480671149238e-01
-9.663301066744893475e-02 -1.211055437097235121e-01 4.929026487428316283e-01
-6.808100021869607776e-02 -1.178709847286750767e-01 5.220149610336244361e-01
-5.740910714072429422e-02 -9.702110080095192879e-02 4.565093634216717544e-01
-8.034210785746641326e-02 -8.239805017826445921e-02 4.438700843888286340e-01
-5.338005912071519532e-02 -1.202076164614769987e-01 5.072173840820067836e-01
-6.230487619605939997e-02 -7.288559748640387193e-02 4.419373004615415601e-01
-1.374950748769184633e-02 -9.769120589825154577e-02 5.678402936190938277e-01
-8.533926652532819457e-02 -1.206972815019818068e-01 5.050452247902877945e-01
-7.274703512946736894e-02 -1.203595681890314850e-01 5.121604767547841552e-01
-7.742243838863065164e-02 -8.486507167147426534e-02 4.453605577995316533e-01
-1.723806007080084732e-02 -1.190676508372118803e-01 4.848186666456151261e-01
-1.501470397633669976e-02 -1.264846612180259011e-01 5.141369814796303839e-01
-5.398633399778512976e-02 -6.279055979459295667e-02 4.403654275448708466e-01
-7.162529751023830049e-02 -1.092224657003587757e-01 4.687658455633644805e-01
-8.175699454751086948e-02 -1.047310270877239713e-01 4.599730083646233481e-01
-1.717806448410118605e-02 -1.228655381851491563e-01 4.955363280175352769e-01
-3.109228829305198116e-02 -1.163130626486914704e-01 5.470420719219882821e-01
-7.942042036062152421e-02 -1.015591204213569659e-01 4.574625582565537973e-01
-6.178244871973275626e-02 -1.205202213687428386e-01 5.118393826481432152e-01
-3.464868600350101691e-02 -1.167863855013251129e-01 4.882683144850694656e-01
-6.197993799561633821e-02 -1.055902725760545641e-01 4.654800009913087067e-01
-2.564082224538028615e-02 -1.073613624491501495e-01 4.693572646746651533e-01
-1.136524730383860482e-01 -1.181529572373655190e-01 4.826816621917993100e-01
-1.063344926190601114e-01 -1.200544450851327438e-01 4.837488690694550786e-01
-1.026040753935933067e-02 -1.212433222302108926e-01 5.469148828650545191e-01
-2.290657846053751126e-02 -9.797860608631064894e-02 4.572654241430363364e-01
-5.376347571036276668e-02 -1.107718930534307561e-01 5.357408172120697865e-01
-9.980088174028155235e-02 -1.072422646715165406e-01 4.603465298024262409e-01
-4.962545843081778846e-02 -1.173894755381098415e-01 4.918526657382583100e-01
-4.627100733215926132e-02 -6.618335358670748847e-02 4.419979158644731787e-01
-5.762092683029725743e-02 -1.164154784538173476e-01 5.298933074994990333e-01
-3.766806165408438656e-02 -1.198787048323324417e-01 5.369989873709100081e-01
-1.024592609453608832e-01 -1.082003189852299291e-01 4.619884597823539218e-01
-4.870355299350959122e-02 -1.039959632583314225e-01 4.661753918568746768e-01
-7.219079281722920460e-02 -1.156122689266766423e-01 4.810944431810459387e-01
-2.062903924138972944e-02 -1.253162085205778153e-01 5.211900213618601008e-01
-3.212306030146840768e-02 -9.278511208529313659e-02 4.558874730583917234e-01
-1.086367062776956577e-01 -1.129025684676652902e-01 4.690117476536043717e-01
-9.539302595999658851e-02 -1.200041839156923973e-01 5.045203570919052360e-01
-2.594518982991812425e-02 -1.040909458385101405e-01 5.559987792841266652e-01
-7.232679842174923046e-02 -9.471315517928022287e-02 4.527908207638494109e-01
-8.577030268955082581e-02 -1.208450356993106128e-01 4.983657115137598015e-01
-2.822457685794436261e-02 -1.130817582511692149e-01 5.519251867781517218e-01
-1.211556919438389751e-02 -9.963822401564544073e-02 5.679918794210233601e-01
-1.684949983857605624e-02 -1.262054111331530060e-01 5.195499699707908370e-01
-1.048346550431429464e-01 -9.383319540674935066e-02 4.540201857018587583e-01
-1.137654095366665286e-01 -1.148677938057045961e-01 4.747010300079693712e-01
-8.697994025992808464e-02 -1.051486359238720525e-01 4.592215582263736162e-01
-7.601069972556427634e-02 -1.196997683062678702e-01 5.150014675033790512e-01
-1.763232909980334481e-02 -1.121489627646230364e-01 4.722797506258043509e-01
-8.225189983595813242e-03 -1.161099598484687939e-01 5.569210310337477932e-01
-1.858151364195257879e-02 -1.231687473106578556e-01 4.977661509032021980e-01
-8.650816634545607786e-02 -1.197681217162617079e-01 4.886935022855316557e-01
-1.997485551514035368e-02 -1.120783746121640917e-01 5.595979942220975500e-01
-8.535959157710780454e-02 -1.209713872634587406e-01 5.003349934495400220e-01
-1.010360920658245898e-01 -1.138620953947511866e-01 5.107939552332226851e-01
-9.663592903683605739e-03 -1.271462477732133167e-01 5.083019376598059136e-01
-7.667420912852328241e-02 -1.114275089533977720e-01 5.269677646083505973e-01
-1.004287234929150396e-01 -1.189291956013107110e-01 4.701216713873964670e-01
-8.082682093660530087e-02 -1.199105067942267816e-01 4.934451650001635548e-01
-3.453722956807180056e-02 -1.223186656986090110e-01 5.244261596309841567e-01
-8.335550684364462226e-02 -1.180995334051715417e-01 4.805747041013322396e-01
-9.056576243603506327e-02 -1.192138568355818329e-01 4.829380432602100592e-01
-8.838338487674188282e-02 -7.653916748860467578e-02 4.441524532856458984e-01
-6.650982204497388195e-02 -8.937784540058674176e-02 4.491722527736793369e-01
-9.250208607260859694e-02 -1.131402234283611780e-01 4.623901131241274221e-01
-8.419454363656714291e-02 -1.197447916619928943e-01 4.908367225696128044e-01
-1.215408532964431659e-01 -1.073210434991367229e-01 4.821684811717126262e-01
-1.085466636054544659e-02 -1.247621270168567525e-01 5.353895683434903852e-01
-6.302653649649889167e-02 -1.189901615882091868e-01 5.222823854702510760e-01
-1.058965850278354714e-01 -1.186488071668755084e-01 4.778661084317252783e-01
-1.007589345967709743e-02 -1.268651673174906180e-01 5.275073472484433923e-01
-3.639020634593753689e-02 -1.124426590849323532e-01 5.438158266984172151e-01
-5.153611834556354188e-02 -1.145378556818668625e-01 4.838680015443390658e-01
-1.065303050127913709e-01 -9.476750258182844999e-02 4.558466366924674995e-01
-8.329427330643431049e-02 -1.124684386407956427e-01 4.683044645708888121e-01
-1.134081924142825715e-01 -1.160730940608029338e-01 4.764669930889535165e-01
-8.656743482993366212e-02 -1.017826930322587586e-01 4.564737117778353004e-01
-1.086462875107782784e-02 -1.259215693564769978e-01 5.022555050752790518e-01
-3.355805787491390746e-02 -1.187490787324053110e-01 5.419667795542386646e-01
-6.946241637930640478e-02 -1.051367780602356639e-01 4.632666041867988804e-01
-1.977719790115407827e-02 -1.253627685803633263e-01 5.274828493939525131e-01
-6.472399330269417925e-03 -1.284047721337135406e-01 5.162685752269885464e-01
-2.871550905034797249e-02 -1.213285841233969070e-01 4.991432233329401447e-01
-8.001296807716715143e-02 -1.189494201952927543e-01 5.168649624012434662e-01
-1.125873747675412290e-01 -1.080472332889643450e-01 4.657747798803066885e-01
-7.040200867961401987e-02 -1.010450409563401070e-01 4.586347219632641581e-01
-5.930987517530379033e-02 -1.066949917703559486e-01 4.677724210009298056e-01
-8.724067192892241696e-02 -1.147651241177960885e-01 4.673074576533756130e-01
-2.589529404013603264e-02 -1.210834482625190722e-01 5.430729641409810515e-01
-6.189877674571107186e-02 -1.170445266120633959e-01 4.898400226241527711e-01
-5.274273949774162251e-02 -1.062763602730667223e-01 4.685493467820873725e-01
-5.928159410845196958e-02 -8.936453128188598383e-02 4.502500620989024482e-01
-1.638576331031518785e-02 -1.262309769440825846e-01 5.157370677525180414e-01
-5.557924134593003607e-02 -1.194693180317873971e-01 5.232480657516701550e-01
-5.052755097204274237e-02 -7.988986154388270922e-02 4.466835409447899585e-01
-1.070714724412364094e-01 -1.189918668353893011e-01 4.992206154437470733e-01
