-5.518530107179506206e-02 -1.147011709329704421e-01 4.830015578104784324e-01
-9.576587123897568887e-02 -1.212330919221356329e-01 4.989358845663481312e-01
-6.189380873598631511e-02 -6.478887346615985754e-02 4.393782781197778098e-01
-1.063428525732678376e-01 -1.212553749456185964e-01 4.909788456564506687e-01
-7.211122223555979649e-02 -6.678740038007945079e-02 4.378569852124379880e-01
-1.422975526589711007e-02 -1.263460129161542433e-01 5.077689996944974027e-01
-6.559824145864907863e-02 -1.205802384279499734e-01 5.040351107416021215e-01
-6.383085182782412270e-02 -1.185153223320433991e-01 4.929560851113197750e-01
-9.135454130873679746e-02 -9.695966072639498889e-02 4.519570635486832577e-01
-1.091379170371508112e-01 -9.644722976581419915e-02 4.564584320796370442e-01
-2.885676914265299445e-02 -1.208717124386890773e-01 4.969133860257163859e-01
-3.800523415830607543e-02 -1.160954394083309471e-01 5.410040254470728227e-01
-9.634122345936430021e-02 -1.212182919240280959e-01 4.746190041725971143e-01
-9.867764447339030798e-02 -1.180774603806270251e-01 4.669710949385567078e-01
-1.090704241187474971e-01 -1.204947346913492895e-01 4.855827042522624093e-01
-6.702252532383996819e-03 -1.247794490321863792e-01 4.962568219978408246e-01
-6.784548634480852547e-02 -1.189587058963486738e-01 5.199055444190789910e-01
-7.713041866401643132e-02 -1.191555982592932827e-01 4.885633411505554413e-01
-5.712984912119601494e-02 -6.551768318899307830e-02 4.405176810732632231e-01
-1.642105689110204270e-02 -1.229538872139317035e-01 5.429867715705321007e-01
-6.685572180430891798e-02 -1.174439407572176186e-01 4.876098481784352234e-01
-8.479116174426575003e-02 -1.114586743461929430e-01 4.644723417509763475e-01
-6.794800557429303556e-02 -1.087380962028995784e-01 5.297530019188456674e-01
-1.061038362913124533e-01 -1.175651439152793631e-01 5.029497867315602111e-01
-1.035977328504519707e-01 -1.136679623144060403e-01 4.666639878219539517e-01
-9.695758316917144071e-02 -9.496789211285344701e-02 4.513526286392953724e-01
-7.276159521566508137e-02 -1.199502297812834184e-01 5.160098076642466447e-01
-4.296745822329711695e-02 -9.454392966070256088e-02 4.569028829225644239e-01
-7.071143682585963319e-02 -1.200752084984213486e-01 5.161962599647030858e-01
-1.352832088378396955e-02 -1.269613222003115605e-01 5.148720294108148909e-01
-5.781478049165177102e-02 -1.183863822727442700e-01 4.946610915862230118e-01
-5.728824569848594422e-02 -1.204827446105314753e-01 5.163874742168881316e-01
-8.512000243290940293e-02 -8.629975997996167103e-02 4.458178897673928942e-01
-8.332923853863761707e-03 -1.188877785187656827e-01 5.522897109672384452e-01
-8.958279793888042353e-02 -1.203790099268307184e-01 4.869714896265662785e-01
-7.075035553145794798e-02 -7.255531418036281766e-02 4.397130889491701611e-01
-8.476771362832626056e-02 -1.036612675141837386e-01 4.575505725472922003e-01
-1.023884114989366961e-01 -9.237186739450876927e-02 4.514564244432867079e-01
-6.591746223383226910e-02 -1.193331053779078665e-01 4.954080816732052694e-01
-7.761801534432884175e-02 -1.117483850096746278e-01 5.264439055952844226e-01
-4.546466327541315994e-02 -6.896886313942388047e-02 4.426534633832721610e-01
-2.629803722308780844e-02 -1.157310192000880200e-01 5.523226643890921661e-01
-1.420268961700272246e-02 -1.167745788291590370e-01 5.562700196717966783e-01
-1.793798544452415017e-02 -1.253508552450749713e-01 5.067313055726492266e-01
-2.202069179377270577e-02 -1.032356096979615140e-01 4.618800175133669361e-01
-4.441414399248480929e-03 -1.206216872743837848e-01 5.416125594592471337e-01
-8.779698962708235022e-02 -7.370356712369309504e-02 4.432887812893208102e-01
-1.193880514331205067e-01 -1.111853976435921570e-01 4.820102226971210713e-01
-6.363947030844221975e-02 -1.085365035469961631e-01 4.690950195030721415e-01
-6.054421463536965864e-02 -1.198880278874061567e-01 5.009543516442163114e-01
-9.094069250593019016e-02 -1.186921052190398895e-01 5.122346090129411555e-01
-1.463403379165744388e-02 -1.189528222392031986e-01 5.526436085512833607e-01
-1.115861830201028693e-01 -9.711971397255904359e-02 4.580635812090279035e-01
-8.878211062420213184e-02 -1.212366609166126985e-01 4.952938098156102198e-01
-9.981199616905782335e-02 -1.151212429244333479e-01 4.656157882656283276e-01
-2.100873865068900170e-02 -1.195518150258639417e-01 4.878982705271163733e-01
-7.843659850903264563e-02 -7.613305078157177330e-02 4.402026104556028829e-01
-1.388480992001966952e-02 -1.216645525489636198e-01 5.476317683696944050e-01
-7.295214465338202559e-02 -9.727329465204831438e-02 4.541849604480600600e-01
-7.723742546250988994e-02 -9.964389329087162961e-02 4.555347261882777277e-01
-1.019756391476257379e-01 -9.932567797067309856e-02 4.543133928802888244e-01
-2.311543403642945041e-02 -1.125627250849632471e-01 4.757808606634495452e-01
-3.537057205516997566e-02 -9.810889247362326870e-02 4.606784128200493433e-01
-2.940343926686396492e-02 -1.223629928504704756e-01 5.347264553814075061e-01
-3.811041655908443959e-02 -1.207007345265688758e-01 5.342363654012445284e-01
-2.698217359459382722e-02 -1.214565849592261770e-01 5.409595643626441408e-01
-4.644488031039718801e-02 -1.100687953127709173e-01 5.391428802977203949e-01
-1.156020797053456672e-01 -1.121768744510341503e-01 4.715521706470486851e-01
-7.419854338250726766e-02 -9.014499321685992550e-02 4.486155586151165386e-01
-1.184792548214463059e-01 -1.168569582797937129e-01 4.874863518709656174e-01
-2.245264005301918220e-02 -1.046764976285523702e-01 5.615788436704828301e-01
-6.823165050205955151e-02 -1.208777741327975996e-01 5.051446606935188210e-01
-1.761217200018519793e-02 -1.104850897131108983e-01 5.621960509270637063e-01
-4.337498124555821954e-02 -1.213752321668307571e-01 5.184980852938619877e-01
-8.978431788561823390e-02 -8.860067093822432405e-02 4.474658710811085238e-01
-4.783586290214345005e-02 -1.207465646214447852e-01 5.090246664928173015e-01
-7.071695611470518728e-02 -8.665568982942042919e-02 4.463732206722104690e-01
-6.250826433009393224e-02 -1.167108614272840961e-01 4.871385155363820441e-01
-1.054445142078511560e-01 -1.191414334961882621e-01 4.769245361832069041e-01
-6.067892753777253539e-02 -1.062820511363123804e-01 5.333674302813316004e-01
-5.715686489256789626e-02 -1.133587297825800061e-01 4.798062791872846899e-01
-3.306635645338493884e-02 -1.093098741242993915e-01 4.731794500555565608e-01
-1.463752651793990417e-02 -1.256474368219045457e-01 5.046703307777988812e-01
-3.672556234815373133e-02 -1.213335743069071937e-01 5.324266351565258848e-01
-2.401853664184949722e-02 -1.092414292623722361e-01 4.710463078905927636e-01
-8.065610668763972813e-02 -1.113238125907848042e-01 5.254570169385218703e-01
-2.006040545288063220e-02 -1.253519484964448760e-01 5.135732378205775106e-01
-6.789801920771264265e-02 -1.082992897199794580e-01 4.675840463282447956e-01
-2.006334920464609289e-02 -1.210419470028401834e-01 5.468306722042739487e-01
-5.246067921166260722e-02 -1.160234396807285906e-01 5.329449125402128118e-01
-4.245222201153690117e-02 -9.589823239611054706e-02 4.580745311297199640e-01
-2.488896868429830989e-02 -1.013575027266059997e-01 4.608462331944089274e-01
-3.847229861460205874e-02 -8.592417638941841906e-02 4.506016885259133131e-01
-4.274557363864278647e-02 -8.552193137676922241e-02 4.501635945492707402e-01
-1.763392834965879855e-02 -1.192666450631189035e-01 4.850929216824085288e-01
-3.887808474200972475e-02 -1.213536537909046392e-01 5.076782676224423918e-01
-7.787126582912722028e-02 -1.187728406496380007e-01 4.865932670155575512e-01
-5.769525664170276763e-02 -1.200547028544099171e-01 5.033350737580620793e-01
-7.407659957310931687e-02 -1.210918883341210034e-01 5.079842660255314835e-01
-6.134745261398970306e-02 -6.113533841569790406e-02 4.390028856656346123e-01
-5.964923553469327067e-02 -1.190065186650245410e-01 5.241914320809536454e-01
-6.988243435404592474e-02 -7.603149705018548421e-02 4.409312574698000531e-01
-7.370021387701350402e-02 -1.177124479444252858e-01 4.844820028849268212e-01
-5.669079689294107688e-02 -1.015066822827721538e-01 4.605197815492748092e-01
-3.136498793481905245e-02 -1.229434549572699931e-01 5.266807039055787509e-01
-6.418325278522421518e-02 -1.197546936442675097e-01 4.988607330079182778e-01
-2.625891665555638368e-02 -1.130376950400729386e-01 4.778887836153323798e-01
-4.788449344955990339e-02 -1.072988216348229190e-01 4.706031299981709437e-01
-6.389360524233822503e-02 -1.056794560506010144e-01 4.643980184496037666e-01
-6.778268862074993129e-02 -1.209939783614008418e-01 5.087015448284678554e-01
-6.096503961337657040e-02 -1.026644047460874842e-01 4.610903096902374543e-01
-7.254986616590268500e-02 -1.072929051009863799e-01 4.646343535094545896e-01
-5.798592795484160817e-02 -1.113269398108338859e-01 4.754282084105014294e-01
-6.124390404413388583e-02 -8.994308486984414763e-02 4.498500162371725231e-01
-4.825353257429972065e-02 -1.199659489142697877e-01 5.030265357208005828e-01
-1.496098736025783249e-02 -1.224235889558994705e-01 5.450564595478795127e-01
-9.435960967395717880e-02 -1.109645959809700821e-01 4.610353547922159123e-01
-7.015292561204761190e-02 -1.195600891889242179e-01 4.938170324779790898e-01
-7.428366304651844165e-02 -1.185468201493827256e-01 4.866422454651441187e-01
-3.703588092102662321e-02 -1.218946035024785213e-01 5.266629692586838329e-01
-5.765469886328079135e-02 -1.188550001476755269e-01 5.251113425710810523e-01
-8.765360033149129093e-03 -1.207621429990859974e-01 5.471725775488536225e-01
-1.610771573389720851e-02 -1.220404615436592594e-01 5.460704173305267473e-01
-4.786878805307667739e-02 -9.718798748184541425e-02 4.581278517099418024e-01
-5.164459610992058747e-02 -1.042813295658448075e-01 5.386218657344978844e-01
-7.401072308228824614e-02 -6.895207270004787004e-02 4.382965563974926537e-01
-4.269648281304160020e-02 -1.192190103025836390e-01 4.969520500815894914e-01
-1.801942018573466503e-02 -1.040324435270836567e-01 5.649576202828732185e-01
-1.198028772553827725e-01 -1.133460687310159087e-01 4.862458095713911854e-01
-9.262020366779362412e-02 -9.338839106242743937e-02 4.501889910746648127e-01
-5.619811572050541215e-02 -1.204219180444626447e-01 5.184943736790907920e-01
-1.168324859958266987e-01 -9.848126135205091669e-02 4.684664497827201735e-01
-6.542042887824697783e-02 -1.181047621633764116e-01 4.904155888901450266e-01
-4.861586858849700765e-02 -8.947620525329752494e-02 4.518005759438397662e-01
-7.995140270063358368e-02 -1.182238434545500178e-01 4.847137067639939456e-01
-1.716441724245460973e-02 -1.125116711457269658e-01 4.723835767103543026e-01
-1.033698518754234824e-01 -1.215171863702801530e-01 4.944089907650924265e-01
-4.486188945036687775e-02 -6.163116200044319037e-02 4.406087217972373127e-01
-3.711427326399334425e-02 -1.212837169686290933e-01 5.322816533990882837e-01
-1.849740661907689487e-02 -1.070753291672276869e-01 5.637270597264822936e-01
-1.004582945129269406e-01 -1.212605278937703979e-01 4.978345246581901140e-01
-9.888031813036084194e-02 -1.217362350083951716e-01 4.711971489886207509e-01
-4.333313185476193180e-02 -1.015742783019132067e-01 4.635605967997901145e-01
-3.562024262625323318e-02 -1.031017092422492065e-01 4.654511863442914454e-01
-4.955038477624111593e-02 -8.311204385171966358e-02 4.478369515378449739e-01
-6.866911616124132811e-02 -1.079320166332862901e-01 4.667222505531948840e-01
-1.183053095404886651e-01 -1.173705320340555219e-01 4.883970800241851928e-01
-9.308770397605116431e-02 -1.206761064909219333e-01 4.854354333548019373e-01
-1.364361827492841482e-02 -1.232362534524471809e-01 4.939788808099890294e-01
-9.790626710024498414e-02 -9.406140969611317959e-02 4.510615071930385578e-01
-3.347762549560492906e-02 -1.166988109724515360e-01 4.874825024036518739e-01
-7.151375136540917554e-02 -1.136894052351625634e-01 4.761562735681862391e-01
-6.903074641627242325e-02 -9.180861553430166855e-02 4.502292187137123536e-01
-5.172181483581771155e-02 -1.085679449172241712e-01 4.718680844651567674e-01
-5.015862649269105245e-02 -1.161856708524735687e-01 5.339526389064894740e-01
-2.824374624897110428e-02 -1.083392615629816674e-01 5.532910755539623970e-01
-7.018877220038539921e-02 -7.507302807192596517e-02 4.405748998149591200e-01
-7.838639618641658757e-02 -8.402619279985375222e-02 4.442009823875464058e-01
-7.682866469831055312e-02 -1.182112471127802766e-01 4.843422353644956102e-01
-9.290407456457204505e-02 -9.995146562938629631e-02 4.539560168395587181e-01
-4.644176305146065914e-02 -5.707441766236917569e-02 4.395386985412754743e-01
-8.662118081192957120e-02 -1.126478675022898196e-01 5.196677628130520477e-01
-6.509546087630303790e-02 -9.096934693143669814e-02 4.500621606196328339e-01
-3.325468506052137868e-02 -1.223271742564980696e-01 5.289612546591248021e-01
-9.361965528731332198e-02 -1.190874281049077860e-01 5.105298967320101022e-01
-1.629006924604334272e-02 -1.034907182309760393e-01 5.654604486406143993e-01
-1.203766971854745294e-01 -1.056090759771884657e-01 4.723085047954395654e-01
-6.703638917661101926e-02 -1.094405701857744523e-01 5.297594222379914397e-01
-7.237007737075809577e-02 -1.130769645728868789e-01 4.743709694503725482e-01
-4.692090616161624650e-02 -1.111944389050696508e-01 4.770950719394946860e-01
-6.757186758591073039e-02 -1.186590456335353677e-01 4.912636918055340862e-01
-5.365060434190044303e-02 -1.184679169577711327e-01 4.954380037941609749e-01
-5.474075235653119709e-02 -7.885706223896372935e-02 4.452680889344018400e-01
-4.705563306727288120e-02 -1.208900165508555585e-01 5.213192880292646381e-01
-5.426985386526258365e-02 -1.151111541206000233e-01 5.327876824870356742e-01
-3.742617639547349967e-02 -1.219943417189973400e-01 5.241840564414010917e-01
-3.091212134444489695e-02 -1.230775107039466382e-01 5.183069127769945883e-01
-2.721549551348574278e-02 -1.161511250272383028e-01 4.844239022937718575e-01
-5.969775586746432078e-02 -6.951501017441291674e-02 4.413922696314492300e-01
-1.006124132631185629e-02 -1.191933069320187111e-01 4.827190236094682785e-01
-6.088719570018020361e-02 -1.195790649054558064e-01 5.210151453934104282e-01
-6.397526836961579810e-02 -1.007987444566687540e-01 4.586427987373943305e-01
-9.486263021703646159e-02 -1.174608582588530098e-01 5.123526903642777741e-01
-7.730940532361521567e-02 -8.490058236010919468e-02 4.448678438487428943e-01
-1.130447921773695130e-01 -9.928659822900219589e-02 4.607112239083297478e-01
-8.484374919552378769e-02 -1.212601127582329380e-01 4.981410889304800915e-01
-3.136690579075541302e-02 -1.228457039655535543e-01 5.137869117535054375e-01
-6.753874404039747481e-02 -7.117453195035298996e-02 4.399403163582448206e-01
-1.173245243951684808e-01 -1.138666329476403921e-01 4.768831418256125887e-01
-1.955335468612873218e-02 -1.249977470348311720e-01 5.066808811911212018e-01
-9.006368524268262843e-02 -1.024923185448679136e-01 4.558733232164863258e-01
-3.167096937457186678e-02 -1.143589151545217897e-01 4.824293620867079468e-01
-7.687402357665919228e-02 -1.099610618353295960e-01 4.669014134125352156e-01
-9.376435196860886945e-02 -8.863250445307953307e-02 4.476579629974112851e-01
-1.648524333929091840e-02 -1.251952380850090696e-01 5.044045977225912747e-01
-7.675784651691414107e-02 -1.212994560659361176e-01 5.025753460026815000e-01
-5.919458070327933419e-02 -1.204956510778340401e-01 5.072783005292094138e-01
-1.146083666529511130e-01 -1.144895629482801519e-01 4.989272335772781952e-01
-8.556507562161178027e-02 -1.189672617326509307e-01 4.803661143762493757e-01
-4.502417631947756849e-02 -6.732270365637826881e-02 4.422127405012372670e-01
-6.730054310889917180e-02 -1.207185613485349113e-01 5.042949450081609664e-01
-7.681418569617678993e-02 -1.174675631832214490e-01 4.814861103547274368e-01
-7.739212518882362946e-02 -6.235590044660493242e-02 4.375693581820124800e-01
-2.511205118780533360e-02 -9.990040905086930434e-02 4.595758839158970988e-01
-5.152317907633767458e-02 -1.208394818598320791e-01 5.115646294435070018e-01
-4.281925529311501888e-02 -8.785231323155986982e-02 4.516599615464129691e-01
-9.536514362336323547e-03 -1.247137419475013720e-01 5.354863356070421743e-01
-7.898945662509049281e-02 -1.199386559368094268e-01 5.147855172229304221e-01
-1.227565002488348843e-02 -1.213609317998862042e-01 5.482498690242755268e-01
-2.268132515124117454e-02 -1.018628356176621286e-01 4.605101064022827928e-01
-5.063772416399933696e-02 -7.619791741055267909e-02 4.450103238756590307e-01
-1.115652069447375105e-01 -9.604450788551439910e-02 4.579753187514192803e-01
-5.785237828583438685e-02 -1.022239861278499418e-01 4.612285585531239462e-01
-6.218435942962999285e-02 -5.825563599951830845e-02 4.383685718601131875e-01
-3.804240118435921192e-02 -8.832717196409313465e-02 4.522711400786234570e-01
-5.630400316512014502e-02 -1.140168211432099482e-01 5.325134929675126028e-01
-4.722461957018993933e-02 -9.139903410605802747e-02 4.534161500755887753e-01
-2.744234397090312277e-02 -1.160629757997621719e-01 5.505147941888546281e-01
-5.897672336271715665e-02 -1.064008672330684496e-01 4.667017181703646544e-01
-1.031452311417568879e-01 -1.038351106466122442e-01 4.575750002914218406e-01
-7.110693860405327416e-02 -1.210166071885252076e-01 5.086424288921955750e-01
-2.179601602732015447e-02 -1.239468267967511333e-01 5.352420631564968057e-01
-7.499485891002340143e-02 -1.198530356700943655e-01 4.928549271544180321e-01
-1.683052819566460689e-02 -1.216178408400894889e-01 4.908920682734784213e-01
-4.260027050427020456e-02 -1.208529355716777137e-01 5.062401758838098731e-01
-1.562408594202794460e-02 -1.228753327986708693e-01 5.431878185166124640e-01
-7.153343433472582336e-02 -1.211949314167076880e-01 5.067967346574089316e-01
-1.626755185636517831e-02 -1.219370032635819501e-01 4.914241414442356293e-01
-1.205102669027929563e-01 -1.112211740880193062e-01 4.910535506921577253e-01
-7.071841687692534406e-02 -9.544283378647269722e-02 4.529449667324306761e-01
-1.260722270835917466e-02 -1.206482909833512807e-01 5.496427171580252624e-01
-2.488231798508126758e-02 -1.115790323630617142e-01 5.563385501985481651e-01
-7.728788972950860481e-02 -1.097890373224657129e-01 4.664321302383390710e-01
-7.841225612364952080e-02 -1.205693003053659312e-01 4.947602428755016879e-01
-7.947187470522669439e-02 -7.316631411454230238e-02 4.395069932986050976e-01
-7.827555430361907152e-02 -1.022239516523822389e-01 4.576736674071242850e-01
-1.079723201213340575e-02 -1.244174109327217392e-01 4.964339907134007190e-01
-8.467387571213730313e-02 -9.308317110215792722e-02 4.498398958134511294e-01
-5.278834821546187633e-02 -5.938521873451793609e-02 4.396625214421436278e-01
-1.039941036715848546e-02 -1.213096345557104494e-01 5.468893285278028094e-01
-4.270159676327574261e-02 -1.181883423069314959e-01 4.928847820803536339e-01
-4.431307359314631128e-02 -1.096774411557291662e-01 5.403987219748364046e-01
-2.875016165479085326e-02 -1.229096736822886393e-01 5.076783733935564813e-01
-8.920190600429164784e-02 -1.204270082749075710e-01 4.875647383397503920e-01
-5.876672221744456276e-02 -7.054983368577692759e-02 4.418722408845398575e-01
-9.052614722028518024e-02 -1.200350516005742746e-01 4.769613878313178623e-01
-6.007730037256351491e-02 -1.066667313187577293e-01 5.335019717018083529e-01
-7.302644418833913187e-02 -1.024280949155909892e-01 4.590051358198997122e-01
-1.340182077494583325e-02 -1.267353783709448400e-01 5.100921471864211520e-01
-5.449277529709471019e-02 -6.950499869711521117e-02 4.421768639949247848e-01
-2.790920211431419107e-02 -1.203335042106939562e-01 4.946554625243489434e-01
-9.720802043823625893e-02 -1.184113482043057941e-01 5.105038840318693039e-01
-6.922615717462006490e-02 -9.938346972664173495e-02 4.565199989120184432e-01
-1.075563718372390953e-01 -1.159618949515973108e-01 4.710029202276432847e-01
-2.550688709448108507e-02 -1.024256467758778710e-01 5.561768874554775532e-01
-8.552197179698299567e-02 -8.284240104964311902e-02 4.443180961892739256e-01
-6.530487317923720780e-02 -1.209586493937388624e-01 5.099675150934197543e-01
-6.243030411584520739e-02 -9.973897951458433886e-02 4.577746361484015258e-01
-8.879973287268951021e-02 -1.207744097201673278e-01 5.069018076549374197e-01
-5.369813629774298352e-02 -1.122315978227666766e-01 4.782769233111524576e-01
-3.091175541947471447e-02 -1.061705174262143198e-01 4.684484165806644951e-01
-2.701663790976383331e-02 -1.227863561858118513e-01 5.042619531566572277e-01
-2.391942005733500159e-02 -1.173697111294891016e-01 4.845929225508122107e-01
-5.820925724819322328e-02 -1.150627535309778487e-01 4.835870031763456200e-01
-3.658155794964108171e-02 -8.916581192092587482e-02 4.530593567668295685e-01
-4.231096843773345627e-03 -1.287093539472806414e-01 5.145704010601356293e-01
-8.834483351641635174e-02 -7.867843390674289505e-02 4.440572746401764137e-01
-2.004159561044741023e-02 -1.254129968312154841e-01 5.148322243506266993e-01
-5.733553506271478473e-02 -1.203567018159604207e-01 5.065635262750712853e-01
-5.643166762023454908e-02 -6.559912264397155246e-02 4.406480249047926012e-01
-1.993673087603899108e-02 -1.093073160568624469e-01 5.622206879428445214e-01
-7.587123506922344163e-02 -1.198443549907691058e-01 5.154530265195893524e-01
-1.062550478082658137e-02 -1.270494146958323078e-01 5.262449207898234338e-01
-3.944598237471151625e-02 -8.730083835089874622e-02 4.513856813730842132e-01
-6.134357123889769975e-02 -6.142568150168101898e-02 4.390552589919713422e-01
-7.179641741532005739e-02 -1.089980803419379335e-01 4.674261663024452673e-01
-1.162341478020437191e-01 -1.143894676891391293e-01 4.759508501739814212e-01
-7.304635414615898159e-02 -1.208273959537724818e-01 4.987348354771007908e-01
-2.747174981587288331e-02 -1.128352758769503583e-01 4.780221325932089704e-01
-4.106378784090364970e-02 -9.112502395473240369e-02 4.543026153791404065e-01
-9.554200644901450490e-02 -1.216068860366581184e-01 4.702913803943324367e-01
-6.841731541015591556e-02 -6.820075278014556264e-02 4.389102956363393204e-01
-2.339454423586750584e-02 -1.087353497864218810e-01 4.699435568354511927e-01
-7.428353815167147711e-02 -1.159268450021920943e-01 4.794714132323174560e-01
-1.024915267723254947e-01 -8.769830462533458049e-02 4.526215814703714035e-01
-7.109292081768159299e-02 -9.662975560070252712e-02 4.538480811026843753e-01
-8.751162413736256196e-02 -1.105574877600536549e-01 4.629619572048732090e-01
-8.289228209572546691e-02 -1.210913596676250759e-01 4.974401235569169688e-01
-1.034333901905241798e-01 -1.156179237031839946e-01 4.687520859689875419e-01
-1.178006852428665069e-01 -1.066791057925132874e-01 4.698833105447080549e-01
-5.150265002549359039e-02 -1.175333188550859997e-01 5.313696147172580764e-01
-1.154004174353733259e-01 -1.186529516498110448e-01 4.840082956381736579e-01
-4.135398769072728270e-02 -9.651360793958857487e-02 4.587118727179363975e-01
-4.152660216155133754e-02 -1.190751075381289575e-01 5.366734103244346077e-01
-5.144266635585381664e-02 -7.312959987007745799e-02 4.437306441864657947e-01
-8.257124020725691016e-02 -1.027175560407796728e-01 4.571553133231940902e-01
-5.336892532437541997e-02 -7.611818086317695409e-02 4.444960643445097781e-01
-4.697579509597919756e-02 -6.086488857174277706e-02 4.402755354608088312e-01
-1.692771619780624945e-02 -1.262120850067236788e-01 5.169378193497095042e-01
-4.017344980444567670e-02 -1.023425935501186407e-01 4.645374904444929398e-01
-1.195806612461452062e-01 -1.142479452100165632e-01 4.893698823742833603e-01
-1.386526546280912250e-02 -1.269493558027580959e-01 5.168774204459314348e-01
-6.715775847934042642e-02 -1.194367556184064844e-01 5.191867729972685641e-01
-5.604753822387371909e-02 -1.208001659652450516e-01 5.120929111395041700e-01
-9.868181699851623356e-02 -1.196307033969376682e-01 4.681468024593717914e-01
-3.380309783399369078e-02 -1.225390387109873830e-01 5.263037694996963722e-01
-6.149741770425528470e-02 -7.760751221118415699e-02 4.433900600361876942e-01
-1.224587761727153126e-02 -1.226613936280216005e-01 4.912756043663129013e-01
-4.834745036551620773e-02 -1.112059391558613136e-01 4.769435891845514308e-01
-4.007611596386330410e-02 -1.192605558830513030e-01 5.372667230869561106e-01
-3.959930003303351737e-02 -1.154106311663256196e-01 5.406317341102145901e-01
-9.757289522745357657e-02 -1.174094489090790477e-01 5.109780614983310265e-01
-2.210944704479167466e-02 -1.250305123194815626e-01 5.202182296536300710e-01
-2.355879544147958249e-02 -1.216021708152924957e-01 5.435528416730797119e-01
-7.440128573121355948e-02 -1.195402998997938532e-01 4.915090189174327606e-01
-8.003566267262245473e-03 -1.277541222439625423e-01 5.102976328247554871e-01
-1.556097173863160710e-02 -1.202514375069925340e-01 4.865962967008740647e-01
-8.321449252984948822e-03 -9.484578077512863248e-02 5.708424589056579901e-01
-6.725039053972978187e-02 -1.175997162036210436e-01 5.233081143498710119e-01
-1.353696818992800206e-02 -1.000541675150066062e-01 5.669535719231036941e-01
-8.071076575697001820e-02 -1.180315607668158268e-01 4.796107854015851935e-01
-9.828397763546653509e-02 -1.210816961067498060e-01 4.691719315961125347e-01
-7.839838293239735634e-02 -1.155130357583410983e-01 4.762415591137046933e-01
-4.680443201343252591e-02 -1.208827218232421258e-01 5.219484558501645832e-01
-9.111784904103750748e-02 -1.141363787901301940e-01 4.626010960681439799e-01
-9.687405050075494073e-02 -1.018401046533121829e-01 4.554263200665256694e-01
-2.897835483241560997e-02 -1.232003790658336151e-01 5.289384667092316139e-01
-1.139494585819712108e-01 -9.607707018820443867e-02 4.626015995854146912e-01
-9.438629686321695078e-02 -1.217140437835564359e-01 4.912472140672515253e-01
-8.242457995161800444e-02 -1.077905345817076754e-01 4.619837727918585935e-01
-7.123952088999849219e-02 -1.126492318404922893e-01 5.276086021752356414e-01
-4.292618945832287619e-02 -1.152615272183463574e-01 5.384895214452393164e-01
-7.260104069228484613e-02 -1.056844505013738583e-01 4.625549649267053365e-01
-5.947417408953944301e-02 -1.031226413804140485e-01 4.619553536590045861e-01
-7.875855552403014659e-02 -1.214151344527430454e-01 5.039579107113313361e-01
-9.974505602411970484e-02 -9.315472369365183913e-02 4.511282959810237192e-01
-2.677509046133739329e-02 -1.239336954153567039e-01 5.209101609864296156e-01
-1.068518393174004710e-01 -1.123359910231471054e-01 4.662942776037700687e-01
-1.177656274793056068e-01 -1.062999094875784201e-01 4.695848655422236728e-01
-4.453791536038062548e-02 -9.294818983831089343e-02 4.552771115572085137e-01
-1.539927496804919214e-02 -1.230990474487705932e-01 5.422443985996142635e-01
-4.944311789555644321e-02 -7.577446009371067992e-02 4.449413522950432243e-01
-1.148497376118244422e-02 -1.272172216654094690e-01 5.112706753180037422e-01
-1.031362499020214429e-01 -1.074703245532098034e-01 4.606127437456009055e-01
-2.868263645937043499e-02 -9.877011625437980002e-02 4.598371452985471897e-01
-8.634927501887836032e-02 -1.204564086052379857e-01 4.895690930561157339e-01
-5.215989364754696628e-02 -6.917559715407205212e-02 4.423193410197303610e-01
-3.353756301167063608e-02 -8.939744779753820703e-02 4.532132987855474471e-01
-5.952070552588994284e-02 -8.179877925215710277e-02 4.455609274852277979e-01
-7.017383203933344471e-02 -1.202388735913304807e-01 4.973407892818778042e-01
-2.705882264910172003e-02 -1.076847635082088389e-01 5.548805428468306378e-01
-6.892331387038466706e-02 -1.106209017406751260e-01 5.288321758435398090e-01
-2.782242484135819330e-02 -1.039857967181576359e-01 5.530843445873930841e-01
-1.142301729274614458e-01 -1.159891382440655927e-01 4.983420881208096009e-01
-7.378636238748068066e-02 -6.891292515637086058e-02 4.382766884864330859e-01
-6.655728423701660901e-02 -8.774282021978516144e-02 4.475695309453210369e-01
-1.012708761415142752e-02 -1.229051959355805662e-01 4.915184333265676386e-01
-2.084564150218851802e-02 -1.081960210402817535e-01 4.677447957579659032e-01
-7.419350472884808645e-02 -8.320220838867360691e-02 4.438333710090784923e-01
-3.998224378047127159e-02 -9.524634024407868660e-02 4.577659454035424846e-01
-8.947026013310853398e-02 -1.213042246044833128e-01 4.956184643482212659e-01
-3.828660990238137718e-02 -1.138361995949785516e-01 5.423723788047042360e-01
-4.314471413160671232e-02 -8.889687231535178813e-02 4.524227755026991593e-01
-6.685369681581580792e-02 -1.145131783460917874e-01 5.274399219711959352e-01
-7.714137623505146202e-02 -8.558450332466117916e-02 4.453360731984833953e-01
-7.939302206791340466e-02 -1.213590487290386044e-01 5.012859698432865496e-01
-6.035633966495425329e-02 -1.160097826406291249e-01 4.857629931474547469e-01
-3.245381591328409115e-02 -1.228497438293390948e-01 5.209840571191566294e-01
-7.268867325877109709e-02 -8.547836071088700527e-02 4.455109446067040957e-01
-6.828185011820846195e-02 -6.950164160771897526e-02 4.392865346502157764e-01
-1.160569530826516538e-01 -1.168846989084787735e-01 4.936262455010801409e-01
-7.770209456747263765e-02 -1.067577502269683593e-01 4.625258473720974539e-01
-7.568842482103647906e-02 -5.881831622542423033e-02 4.382650457777095276e-01
-6.647333182646553151e-02 -8.591059607856679770e-02 4.464783495740503594e-01
-3.773757964691641653e-02 -1.220413084469594150e-01 5.195119636718669165e-01
-2.282393994367965667e-02 -1.130444337178914543e-01 5.572474482504481408e-01
-6.021433979128936603e-02 -1.137914693298708729e-01 4.802631070067330810e-01
-5.373442613138387780e-02 -1.143300456900738643e-01 4.824345807602253289e-01
-7.635626335023353028e-02 -9.659913249877742636e-02 4.532600771143660001e-01
-1.083690512066931150e-01 -1.196042526050251492e-01 4.979422319120718199e-01
-5.040311110766981795e-02 -6.372242907005404300e-02 4.408179815827575343e-01
-8.898179477740976451e-02 -1.121137513760222387e-01 4.628790986529348617e-01
-9.629045699322140439e-02 -1.074288085340879551e-01 4.588944187492161597e-01
-9.797391439251723622e-02 -9.666224241588897148e-02 4.523011661346791334e-01
-5.117252765157113276e-02 -1.012080070934868181e-01 4.613665008901137732e-01
-2.499905789844621140e-02 -1.239267851870516912e-01 5.301629442667847858e-01
-7.239082615020421552e-02 -7.641951308790825848e-02 4.405634578218735609e-01
-5.971680728015042044e-02 -1.204657239837516602e-01 5.144317477327103871e-01
-7.659379524358747582e-02 -1.008278264053392298e-01 4.566451586898184201e-01
-8.643460664496820101e-02 -1.014415258762975947e-01 4.555372724640228688e-01
-3.340284843972524120e-02 -1.187697315539697762e-01 5.421964308828789436e-01
-5.237036504883848392e-02 -1.206137819533841804e-01 5.089247128738740855e-01
-1.755309537924297503e-02 -1.190869977560171933e-01 4.846773867338734498e-01
-4.520831397812689889e-02 -1.208624541720491746e-01 5.077900682603087024e-01
-5.209149937042217154e-02 -1.194634553395163279e-01 4.999650622818503365e-01
-4.956224222514118288e-02 -1.146276144849466827e-01 4.834159237068556547e-01
-7.187642906813307420e-02 -8.097379156330550276e-02 4.425712329431973902e-01
-1.189908562588753299e-01 -1.032650815548762785e-01 4.710023137273457450e-01
-9.661131172241028617e-03 -1.231527302515836308e-01 5.400978422240212407e-01
-9.535098574465683541e-02 -1.144669392807412395e-01 5.140033305362728955e-01
-9.634758185735922686e-02 -1.216660759542206593e-01 4.921154185261187308e-01
-8.720089650989223951e-02 -1.192701874528660083e-01 4.787267693967633964e-01
-3.855097743844924929e-02 -1.191042891134743015e-01 4.951053569896302076e-01
-6.020504384425195282e-02 -1.204533444677218512e-01 5.146841126496995988e-01
-7.523242204761373952e-02 -1.195435692863070914e-01 5.166232771387694322e-01
-1.513674800978888173e-02 -1.266419762530765214e-01 5.167985083189720052e-01
-2.203267753952780836e-02 -1.060549786559633334e-01 5.617250384646406136e-01
-7.025227969158751029e-02 -1.122581506497597192e-01 4.737819569584043600e-01
-9.711239074268532279e-02 -1.208313105264939569e-01 4.826257856085708342e-01
-2.025613241795341454e-02 -1.140550912731963240e-01 5.577957609518801041e-01
-8.240244870713922531e-02 -1.183544587957216648e-01 4.802937862435610050e-01
-4.211120583682419205e-02 -1.155787537736772119e-01 4.856045622783401461e-01
-1.904232735395788162e-02 -1.233723151199559165e-01 5.401708256661665875e-01
-9.218693595241712890e-02 -1.072037472702911248e-01 4.589453959539942507e-01
-1.164049115360790178e-02 -1.175110228882967345e-01 4.794641347891238081e-01
-3.303302225291655098e-02 -1.189432963556034673e-01 4.928066600057291469e-01
-7.121348398894478127e-02 -1.154861530308319978e-01 4.801122281346699161e-01
-7.684421357453231904e-02 -1.167581342741528111e-01 4.797614732226330725e-01
-8.765743701026038059e-02 -1.194122977102762967e-01 4.751936556689469460e-01
-9.645819230462170102e-02 -1.208082261525800366e-01 4.762816025006514908e-01
-6.553067372031441684e-02 -1.206066641222453134e-01 5.043524121422274797e-01
-1.134267935201087457e-01 -1.006183346878682244e-01 4.611946004831051216e-01
-7.747940444666528981e-02 -1.210279514695409009e-01 5.082437491215122671e-01
-8.757208375244951437e-02 -1.099961685747072038e-01 5.200726702723439399e-01
-9.692615010947876197e-02 -1.219791868369701077e-01 4.714732125558637188e-01
-6.470902875182803216e-02 -1.018456414026304019e-01 4.596752137994579712e-01
-8.933206499149071861e-03 -9.661817935683188197e-02 5.698741200198246259e-01
-3.514405848153149409e-02 -1.215875009452194455e-01 5.065106878027072490e-01
-4.171205626302675051e-02 -1.194142550122347934e-01 4.975457183990609766e-01
-7.788758931150602249e-02 -1.069855136673949075e-01 4.627389661334766480e-01
-1.268611882225274129e-02 -9.895473298010204477e-02 5.679610295839617740e-01
-8.063465233475954064e-02 -8.776019271606508299e-02 4.466872685744460170e-01
-8.793732397828159242e-02 -1.146328660654730575e-01 5.172983266295271276e-01
-8.595535594985014016e-02 -1.198374428797264468e-01 5.111860215620461778e-01
-1.096930439197788820e-01 -1.122271143418744344e-01 4.675998845847770813e-01
-1.006014539319434187e-01 -1.209506397818399387e-01 4.785642828402281168e-01
-6.566389804176105127e-02 -8.126067563223238199e-02 4.439039413136347534e-01
-3.863458984874522384e-02 -1.217789745184706257e-01 5.126508263681303079e-01
-6.996821505614497783e-02 -1.121997345515509115e-01 4.738132112027497733e-01
-3.608896361136681996e-02 -1.027310281091680655e-01 4.651008562309825178e-01
-3.055676659083925856e-02 -1.171886312795765578e-01 4.880731115541654397e-01
-9.095450596726180337e-02 -7.215467298845477939e-02 4.474701846823135321e-01
-5.842258374456749809e-02 -1.128205096208372282e-01 4.784548187825100607e-01
-4.316008128966077051e-02 -1.105257203321954873e-01 5.407488641897394421e-01
-5.235552044664439769e-03 -1.269862503000641907e-01 5.032987697839098606e-01
-4.323081514341631237e-02 -1.031062514404088165e-01 4.653274727991347226e-01
-1.132422185442560625e-01 -1.121509702913050105e-01 5.010534960546536576e-01
-9.751551222775899086e-02 -1.054196868888453986e-01 4.578983336351625244e-01
-1.043322117114735791e-02 -1.276710830030925170e-01 5.157962240808512400e-01
-7.472265285803106338e-02 -1.181989446093243690e-01 5.199781537054836145e-01
-8.428508018819461101e-02 -8.256818179811169223e-02 4.439178033619240460e-01
-6.808295293580768348e-02 -5.965759750223068036e-02 4.375936117483282817e-01
-4.398868864532815004e-02 -1.154241094734946710e-01 4.853243050111069601e-01
-3.688653997713926824e-02 -8.789765527704186676e-02 4.519872279261170078e-01
-8.070869624981223678e-02 -1.153614055731804339e-01 4.735332807618153339e-01
-5.831885995336844736e-02 -1.206030858586090576e-01 5.097354845435597692e-01
-1.060025631229634807e-01 -1.155750234048015107e-01 4.697345209778892583e-01
-3.447537962835918457e-02 -9.051849038778343737e-02 4.541762321505282696e-01
-6.756998805851885392e-02 -1.063548238374883576e-01 4.645167202004993334e-01
-1.050780861954141165e-02 -1.180340152192944497e-01 4.802955491439822033e-01
-8.641197548239178128e-02 -7.759876012102420728e-02 4.430169494838993582e-01
-3.446363913530085116e-02 -9.899779674081188308e-02 4.613390422069192365e-01
-7.546411222227716875e-02 -1.117983292382970506e-01 5.269851902411536448e-01
-1.175026495473231042e-01 -1.051357969951167010e-01 4.684788969326799113e-01
-3.095023100718772083e-02 -1.203026871735687758e-01 4.963045443337478768e-01
-1.073635128656345028e-01 -1.136187949495156974e-01 4.680392023441043436e-01
-6.221984792597639452e-02 -1.099179313712169564e-01 4.717007783498508022e-01
-4.439942487949365135e-02 -1.201454425759386074e-01 5.323859290676751232e-01
-1.156352055763665704e-01 -9.968195035231858236e-02 4.648081813444540633e-01
-6.686023068296929883e-02 -1.101897331652352402e-01 5.296087149704616914e-01
-8.597197633941119910e-02 -1.207231264517881764e-01 5.090591647376306872e-01
-8.985899772981000011e-02 -1.199291591789475031e-01 4.843337361121313189e-01
-2.955609740958550780e-02 -1.179141454775308462e-01 4.893718610380264900e-01
-7.511535252626475034e-02 -5.752214460311420863e-02 4.387263124417846161e-01
-1.142192720696593722e-01 -1.117850270711035904e-01 4.698864578898671041e-01
-4.722292320015455958e-02 -1.169011575242490109e-01 4.893074059781283291e-01
-9.182251857099427150e-02 -7.792219789846129008e-02 4.471345435047884842e-01
-5.864239130677981887e-02 -6.356384634133402378e-02 4.398254349736123170e-01
-4.523242578040728712e-02 -1.155173197155645454e-01 4.855575115826159527e-01
-3.914813224970915134e-02 -1.215221345056591989e-01 5.272674950388145376e-01
-6.071344720982407156e-02 -1.110175967863460955e-01 5.318941714912606145e-01
-1.137464108909982813e-01 -1.190311712356497409e-01 4.944949141373239376e-01
-6.173303382236064452e-02 -1.206825508334217617e-01 5.074368122158506855e-01
-7.259967362052009709e-02 -1.065497363480125970e-01 4.637138180297071255e-01
-1.063942228447978394e-01 -1.195123163336669486e-01 4.996755890003138911e-01
-2.132804047871912287e-02 -1.039648572511659291e-01 5.628360233371860755e-01
-8.054357903202505331e-02 -9.943272028609397017e-02 4.548789359034406954e-01
-8.011869388729851715e-02 -1.198778307178637176e-01 5.148997944881057443e-01
-5.032266416272862530e-02 -1.096826347981257471e-01 4.741879133307862482e-01
-1.037931975374794813e-01 -1.187174023625311714e-01 4.732220354705182763e-01
-5.914137376166093973e-02 -1.061961560776475688e-01 4.663651932812296619e-01
-7.234936355395038890e-03 -1.191979568822935098e-01 5.505954582003926845e-01
-3.848831431412869791e-02 -1.215759100597784970e-01 5.273658184295205720e-01
-6.444939695329887641e-02 -8.774964747961901124e-02 4.478700796250650318e-01
-9.943752214091858277e-02 -8.092732705251050318e-02 4.543122876625622086e-01
-1.176952692896652275e-01 -1.147006672460772064e-01 4.938196981448714773e-01
-7.110142416376422081e-02 -8.250956497244767152e-02 4.437108289737570765e-01
-2.044989630138539100e-02 -1.154040303119453909e-01 4.786865313863996607e-01
-7.333871614363009217e-02 -1.171980702196350754e-01 5.221448220888940117e-01
-2.155444753874121572e-02 -9.833801820199118693e-02 5.626850969339937114e-01
