-1.872182385689400569e-02 -1.143840461822350912e-01 4.758526267536237753e-01
-7.993547352795633831e-02 -1.081371696115977221e-01 4.616749537672236725e-01
-1.038078071887211518e-01 -1.214636967482141255e-01 4.776423523521676207e-01
-1.002756736760379436e-01 -1.208085286736373110e-01 4.692845292370214083e-01
-5.174968972791615246e-02 -5.941201713101595255e-02 4.396393641839931310e-01
-2.994516355561193180e-02 -1.106735954767509855e-01 4.742930328838982357e-01
-1.077461221001644598e-01 -1.031008319671767315e-01 4.567434129330658066e-01
-1.847392385695132908e-02 -1.256742579234640111e-01 5.103491641607702523e-01
-8.098489253601563742e-02 -1.133510059308141388e-01 5.230703008411091703e-01
-8.027926618934976000e-02 -1.133617750401822027e-01 4.682533873976045258e-01
-7.305038889654327794e-02 -5.841680060354777909e-02 4.383561365948588917e-01
-5.429814974337045935e-02 -6.216226877351423152e-02 4.398511271965383496e-01
-2.637834318981083226e-02 -1.160167651846343434e-01 4.831682608918561606e-01
-8.880335902459848829e-02 -1.146984778677402755e-01 5.170530217159560182e-01
-1.887891723518081086e-02 -9.983620833257782212e-02 5.645100784084469137e-01
-8.440180593812988963e-02 -8.654674851100875588e-02 4.450483241862475126e-01
-5.041611386528675048e-02 -9.014231883940738987e-02 4.512890754538155247e-01
-8.149767628300930156e-02 -1.137485026854457709e-01 4.682284398988607599e-01
-2.621233975797183577e-02 -1.194759170009377508e-01 5.465135681285009372e-01
-7.693815552458359297e-02 -1.222586764076843135e-01 5.008169209671955446e-01
-7.820348763513913781e-02 -8.881544339529393040e-02 4.465308387884386887e-01
-3.588963695016050143e-02 -8.472688443317524798e-02 4.496149358128019857e-01
-8.519219764715747767e-02 -1.223492651396985015e-01 4.961735070961435512e-01
-1.135661215390858375e-01 -1.207740687274330982e-01 4.838191554321242815e-01
-7.575541560330491253e-02 -7.603420633132558504e-02 4.397921416249093163e-01
-7.261025893057192204e-02 -1.214570910264369530e-01 5.130040005584628471e-01
-4.775532284817021744e-02 -1.210876792291453591e-01 5.231019954089072277e-01
-6.925963718823785475e-02 -1.217788578030760405e-01 5.030266604883320003e-01
-2.986296231973190399e-02 -1.111407227428714006e-01 4.751953227042178263e-01
-1.081572120161322231e-01 -1.105570084172413370e-01 4.631785718794164119e-01
-9.089237893598726969e-02 -9.879168318408794447e-02 4.520207225571409304e-01
-6.018182689047044814e-02 -1.211420573170050030e-01 5.148211625318430684e-01
-3.864093811126275563e-02 -1.183237943829781591e-01 4.913197395384037991e-01
-3.092183400632695853e-02 -1.043345357387423927e-01 4.658371655931334843e-01
-5.112299054249552777e-02 -7.115916282525547309e-02 4.428318861838656528e-01
-8.725489813969106168e-02 -9.252080722405256474e-02 4.485527916923270908e-01
-3.619486299516570804e-02 -1.223150858639548144e-01 5.105273854819016854e-01
-4.045760687820100510e-02 -1.093584743773688833e-01 4.729291238664864450e-01
-1.004083371648751416e-01 -1.219826620476625462e-01 4.734772005559761410e-01
-3.676329863978659851e-02 -1.112260047034338284e-01 5.432544903366145483e-01
-6.268111558995349830e-02 -9.104663834106600795e-02 4.496442384492627120e-01
-2.500853306119426439e-02 -1.201391770011917687e-01 4.916498787893747169e-01
-6.616465104738340763e-02 -1.191936612597745970e-01 5.218225603448151118e-01
-7.049815451730584437e-02 -1.073783514193352440e-01 4.635967385982375788e-01
-7.171115253014098689e-02 -1.151228460850958341e-01 4.763878036527027793e-01
-2.441670058033331217e-02 -1.208450386742456195e-01 4.935192903501695594e-01
-2.565825768672112817e-02 -1.222118633520884040e-01 4.985254371318618705e-01
-1.193302573253371968e-01 -1.101153453523671943e-01 4.731750486513847109e-01
-8.327793915849271422e-02 -1.140322120035872078e-01 4.666873861372646259e-01
-9.107766062177556632e-02 -1.218301116867587242e-01 4.752910185074118998e-01
-6.125593247277798248e-02 -1.095613601346362848e-01 4.696379475048496066e-01
-6.048354025770763531e-02 -1.190678673417107647e-01 4.930818552064796800e-01
-8.309636131597616937e-02 -8.899472795458843177e-02 4.465766944764396618e-01
-3.382450220229036436e-02 -1.164073804492327252e-01 5.442590173388892616e-01
-7.790614213154685441e-02 -1.066670813371693727e-01 4.607021589688821139e-01
-1.199692430562618872e-01 -1.047492697707194109e-01 4.737067614949534433e-01
-7.172661093964918799e-02 -6.122435489451095308e-02 4.374836968720495767e-01
-1.103029851510757553e-01 -1.217415755288538820e-01 4.933852721515977202e-01
-2.928472677555914519e-02 -1.235605252198804793e-01 5.264045405556110335e-01
-2.019003453092728384e-02 -1.248736423586731537e-01 5.058916628119233261e-01
-3.848965072606600618e-02 -1.120256265154407904e-01 5.425659777114802962e-01
-6.926547290292740799e-02 -1.123193643255616381e-01 4.718310064162095085e-01
-9.219686944828282826e-02 -1.229006800686997386e-01 4.930114016230831009e-01
-3.221944544380462433e-02 -1.183497217116431105e-01 4.901558229478534812e-01
-3.803708779514172744e-02 -1.115577684781115936e-01 5.427401806331186851e-01
-8.606624645641522409e-02 -6.836033626761202353e-02 4.417993096531120933e-01
-1.181644023566881183e-02 -1.217934615436926521e-01 4.885937671962962137e-01
-9.755009005546018408e-02 -1.230882836989315443e-01 4.869604144055661443e-01
-9.446124082525325649e-02 -1.160950331959521298e-01 4.627007016505825243e-01
-8.094959861102189735e-02 -1.162864599941158539e-01 5.208269820593879329e-01
-2.511663697267072989e-02 -1.143296342921577419e-01 4.793847717333750147e-01
-9.695444433094345393e-02 -9.101756900500464209e-02 4.498148513273615423e-01
-4.380373204126472575e-02 -1.210549856295692478e-01 5.047473330927119139e-01
-6.972057003826470645e-02 -9.062234036257491021e-02 4.483225263281107598e-01
-6.964669451544357182e-02 -1.154078410211296646e-01 5.261094573658517959e-01
-6.300957080179793446e-02 -1.115445594597865159e-01 4.725109833605085630e-01
-2.793680460472627858e-02 -1.111794960069038829e-01 4.752507861836101077e-01
-1.056597136475488918e-01 -1.202596921221300713e-01 5.011299987154523849e-01
-4.078197614754801997e-02 -1.067505092790730636e-01 4.689313934794795413e-01
-5.529403497992929628e-02 -1.174784331173970159e-01 4.886634672962338888e-01
-7.476517664996766566e-02 -1.168087283560513001e-01 4.782122637938691634e-01
-7.387823219666413144e-02 -9.947364317232951225e-02 4.547443628985753383e-01
-6.798240401759081397e-02 -1.052188170439298104e-01 4.614535637401117052e-01
-1.029390980704513181e-01 -1.228410851051321695e-01 4.952448976733688224e-01
-2.351784514516080948e-02 -1.012274200624623671e-01 5.589968617395405515e-01
-3.582231328115319247e-02 -7.657455093829014514e-02 4.451628868182217480e-01
-2.900654623308393520e-02 -1.236175221761407900e-01 5.262338004066142716e-01
-2.222411789437357330e-02 -1.247827301900240049e-01 5.100982556769658727e-01
-1.471342392386079494e-02 -1.266583726587845460e-01 5.126665539908883407e-01
-9.864405903199734149e-02 -1.231256213153521517e-01 4.876383299420986028e-01
-5.485383514152139539e-02 -1.186260729768848082e-01 5.279461336668235250e-01
-4.840905777242730107e-02 -9.365073906928055025e-02 4.542726362956542308e-01
-6.424129395757922911e-02 -1.198191963349742178e-01 4.939301869869082706e-01
-5.710077448888574436e-02 -1.213981496226194667e-01 5.123773848726943525e-01
-1.142906819240616517e-01 -1.085805570695945188e-01 4.647979474282031842e-01
-9.331519547997325914e-02 -1.221812784460571261e-01 4.762418233850789773e-01
-3.652062401679344317e-02 -1.061194825217818827e-01 4.683014582002126835e-01
-1.546344625757155311e-02 -1.232278054838622378e-01 4.945482228377522382e-01
-9.726161019042577072e-02 -1.220599304195633672e-01 5.011116491737128698e-01
-4.615211421995891322e-02 -1.198206120208812897e-01 4.981945462411926928e-01
-1.679585616239319748e-02 -1.260274192452296160e-01 5.098291012024138702e-01
-7.633688357481108189e-02 -1.217579435500810436e-01 5.105610186890704449e-01
-3.002528048931822624e-02 -1.234768799743254375e-01 5.180999479857114620e-01
-3.623973107615735545e-02 -1.211947754195909221e-01 5.016295355395044009e-01
-5.545087949660604948e-02 -1.175464359242858331e-01 4.888331391401387060e-01
-1.537604173995164684e-02 -1.189750349374973509e-01 4.832685760745911163e-01
-8.410636419223742333e-02 -8.709223906201873922e-02 4.453889257923653311e-01
-6.270873888452638267e-02 -1.039214066309545187e-01 4.610274630723112943e-01
-6.670275026281398401e-02 -8.431577808964851872e-02 4.447690000550776346e-01
-6.739941163699945947e-02 -1.169602706800576403e-01 5.250990685692904503e-01
-1.133836011481826611e-01 -1.181401961711164017e-01 4.751953731039252893e-01
-8.729619639688064592e-02 -1.168623511259810205e-01 4.664032646945608929e-01
-1.879010498873331242e-02 -1.112993113014029423e-01 5.609177664526941998e-01
-3.024172320065169825e-02 -9.102994514791988567e-02 4.536657747222793691e-01
-2.866511919307856981e-02 -1.233278063602596675e-01 5.094116009515238241e-01
-5.742452362435936097e-02 -1.147396799584289445e-01 4.808134041927831226e-01
-4.468324784631769186e-02 -1.134065858714203984e-01 5.383274124161828711e-01
-1.086204794850216121e-01 -1.204626310488605828e-01 4.989674325296838964e-01
-2.397465904832894734e-02 -9.821578000856578949e-02 4.574887463202527149e-01
-4.496018333692261559e-02 -1.186780030795460128e-01 4.927821390508738686e-01
-1.018334963180814734e-01 -1.217043698154919862e-01 4.759062992161046668e-01
-5.622881532181302905e-02 -1.209154460956489568e-01 5.046656285789483665e-01
-9.097648176412818921e-02 -8.464825192086135319e-02 4.455520637978540588e-01
-1.120114584749684061e-01 -1.003421652849754292e-01 4.589987513611297199e-01
-3.132968461323399484e-02 -1.219728288940672700e-01 5.025509932377771882e-01
-3.388267001267095818e-02 -1.173798505134000525e-01 4.879690935621700532e-01
-5.934224382441948692e-02 -1.117070887426414860e-01 5.321607056243848888e-01
-8.140394254974031574e-02 -7.168356917398416295e-02 4.391359930073807649e-01
-7.380955752765253064e-02 -1.155385488446185605e-01 4.760446553338125164e-01
-8.711678140934664416e-02 -1.108811053476721209e-01 5.199682614216439847e-01
-4.740151158744123489e-02 -1.120664211815772665e-01 4.772447223088415180e-01
-1.127726449626132027e-01 -9.740537041241989491e-02 4.603267947668359117e-01
-3.815506158418272703e-02 -1.013919235820156389e-01 4.629841956661377989e-01
-9.173862008288378306e-03 -1.229235338713350195e-01 4.908120428521816070e-01
-1.105908155220442918e-01 -1.216933142691170727e-01 4.930359522029894581e-01
-6.394485631788421331e-02 -1.175594487954774170e-01 4.861342292439997381e-01
-3.978915717349931075e-02 -1.068294095330418747e-01 4.690715819049807167e-01
-7.956057958151445397e-02 -8.742604748511179080e-02 4.455174108474330152e-01
-5.055710471353022650e-02 -1.215617122907959036e-01 5.129911506537846444e-01
-1.191817941042484508e-01 -1.166221796916961095e-01 4.872827776489207507e-01
-3.177566205570188373e-02 -1.224126226263472367e-01 5.058970384176773027e-01
-3.847556735995703858e-02 -8.028709538540418356e-02 4.469521716116407473e-01
-2.001128719710429035e-02 -1.143999739560055268e-01 4.766330550109496023e-01
-3.757088113630390608e-02 -8.480016771313972357e-02 4.495956063172933947e-01
-7.733494727932170576e-02 -1.139884713629458896e-01 4.711522904998628469e-01
-1.536008021975140796e-02 -1.231362705826667125e-01 5.428513300402242336e-01
-7.437353918556094401e-02 -1.206737360430598649e-01 4.916483230108030789e-01
-6.943695752388889808e-02 -9.108234607338412669e-02 4.487055073989515419e-01
-7.504174177470567496e-03 -1.277392150980468100e-01 5.086889601505496517e-01
-3.958661425527135874e-02 -1.089839191737347474e-01 4.723206535667163752e-01
-1.002539725334206655e-01 -1.231802195856447762e-01 4.923307752400141735e-01
-2.462433651036248158e-02 -1.176544618248949320e-01 5.509411527997256641e-01
-1.026065415557379512e-01 -1.226977803370217224e-01 4.966199361971265214e-01
-4.445695002811819729e-02 -1.217075011423439518e-01 5.131996653554788956e-01
-5.602414913419699605e-02 -1.193026104510030300e-01 5.257218588367728040e-01
-7.690195030487534389e-02 -9.985244698617005976e-02 4.545721256729271520e-01
-2.010683380600641890e-02 -1.180052037274432336e-01 5.529792000890233483e-01
-9.982356416957378908e-02 -1.231964088402175000e-01 4.917410781890746430e-01
-2.432758366144034332e-02 -1.246352029932243227e-01 5.219438696726539373e-01
-1.023127669451361771e-01 -1.077581272751183122e-01 4.590995513214609636e-01
-1.138220689366790661e-01 -1.155593014794948775e-01 4.719197003489363773e-01
-6.662377053660749338e-02 -1.189189121004828875e-01 5.221518773480267051e-01
-3.707839406421253869e-02 -1.159428298207381830e-01 4.851250280220991695e-01
-3.291286688600541382e-02 -1.143462671549875243e-01 5.458995762099589921e-01
-1.182839051228774391e-01 -1.184782368175605199e-01 4.871628750153992882e-01
-7.131188170654512160e-02 -1.218085594925937265e-01 5.004055543950117757e-01
-6.209640651215186935e-02 -1.204180674136387519e-01 5.198821112536120559e-01
-1.015355851561930284e-01 -1.051591189209900162e-01 4.568569294626692034e-01
-5.150979371961339481e-02 -6.375470662685807366e-02 4.405284750904939761e-01
-3.550433653893752400e-02 -1.214637812190629829e-01 5.342116435362687099e-01
-4.942675890528237803e-02 -1.022120285801236678e-01 4.620884973398048934e-01
-4.738426207084756037e-02 -1.095132182599945631e-01 4.729716714014643442e-01
-9.612758101585568843e-03 -1.184696446075134135e-01 5.533397788782741245e-01
-3.267058572792905929e-02 -8.624171163489402492e-02 4.504644957487853318e-01
-8.249749889673006764e-02 -1.089214230012608697e-01 5.237467825388325560e-01
-2.024555284246083026e-02 -1.229904373573004750e-01 4.974500932302395317e-01
-6.049233396008629748e-02 -1.214036215130120666e-01 5.125893178418656770e-01
-2.312678833670178680e-02 -1.152079843254769087e-01 4.799036313392291975e-01
-1.203550455478171327e-01 -1.126911817380144842e-01 4.895639773873508571e-01
-7.347002127809226790e-02 -1.218506414693525108e-01 4.985502456173094288e-01
-8.255474445960729601e-02 -1.145432062009916208e-01 4.683696403604482583e-01
-1.129566557654635289e-01 -1.212691101510287583e-01 4.887619703632239410e-01
-7.757833822842297167e-02 -1.111879045784130993e-01 4.662014727944986392e-01
-2.723878348522541792e-02 -1.240042275765194379e-01 5.239988099266185140e-01
-4.324341561862905803e-02 -1.217813322888697952e-01 5.130991293331748082e-01
-1.056445191916182205e-02 -1.266744243793509472e-01 5.283863323289976766e-01
-3.522009087365268742e-02 -1.128196836202053632e-01 4.785995346918017201e-01
-7.653807296099271462e-02 -1.204663596834768396e-01 4.895709955462507201e-01
-1.788017170942444306e-02 -1.259889473478395527e-01 5.135846125962308939e-01
-3.648858464002843749e-02 -1.225602527926426821e-01 5.177190715761400552e-01
-6.055725557193192971e-02 -5.915244638340358407e-02 4.385931976509172547e-01
-1.089039732999385474e-01 -1.184742873431218896e-01 4.731212573496497709e-01
-8.745431643519731291e-02 -1.087872529721720938e-01 4.600429047290250373e-01
-4.589100048328744602e-02 -1.194900432058737250e-01 4.965868060593586208e-01
-3.788363186487829493e-02 -1.136526956227798812e-01 5.425738092820423519e-01
-9.807912495826216770e-02 -8.542246852170744253e-02 4.499461460979937710e-01
-4.375998785576216271e-02 -1.015455847286005214e-01 4.626210583258572040e-01
-6.065506236325539369e-02 -8.637893645245824092e-02 4.470870789237126330e-01
-7.201610345861912676e-02 -6.775160162438619016e-02 4.377600756475472088e-01
-6.835387202609388702e-02 -1.214635099992939365e-01 5.001143740554806483e-01
-4.071623712604753587e-02 -9.937019064434494953e-02 4.606840010846365296e-01
-2.174033890798678439e-02 -1.227416243347831531e-01 4.977769399215704049e-01
-9.437247788945603288e-02 -1.201295690625463208e-01 4.648334731231467121e-01
-2.381356392684071122e-02 -1.247476063619994552e-01 5.228472591965763749e-01
-8.974028626210033693e-03 -1.267849708393480879e-01 5.044641567838838991e-01
-1.306858868930625174e-02 -1.268101391171324033e-01 5.254458945196283093e-01
-2.724913214539916723e-02 -1.042474601301739690e-01 5.533889984288613562e-01
-3.872166975337917871e-03 -1.245121484388957978e-01 5.357800027216158556e-01
-9.770941530600051744e-03 -1.216714181941234985e-01 5.461109341013343776e-01
-7.804002716256856764e-02 -1.084448507410011170e-01 4.626866551679137407e-01
-8.601579217679204692e-02 -9.621384335254982989e-02 4.506553520985351335e-01
-1.086019049844726969e-01 -1.217922269209926606e-01 4.834721985301346781e-01
-9.962503419895692158e-02 -1.081685196356356460e-01 4.589054911481323384e-01
-3.939250216642405794e-02 -8.862660862982137122e-02 4.519512413070539414e-01
-7.242958997508429364e-02 -5.826440749784456835e-02 4.383505441956333515e-01
-8.904634644728286197e-02 -1.222155168107735973e-01 4.897869176610434305e-01
-9.105302143731847098e-02 -1.031174710785600773e-01 4.549776751612222836e-01
-3.787591634585905226e-02 -1.175452891241372810e-01 5.398678205246142392e-01
-5.661420333804883381e-02 -1.166140172205193393e-01 4.855622323434727883e-01
-2.130286387925513572e-02 -1.245122404743714689e-01 5.335583182494382237e-01
-3.459549700342923195e-02 -7.687890974234125319e-02 4.451359513298818182e-01
-6.558041307439817225e-02 -8.347972269764533659e-02 4.444074000005765468e-01
-9.890621531374065023e-02 -9.289944602017057018e-02 4.506692912545329777e-01
-2.190969108910846563e-02 -1.051996382377076433e-01 4.639553736388883909e-01
-2.894526385438145680e-02 -1.059876222463293077e-01 4.674231167249640606e-01
-6.538282010581671078e-02 -1.090762667846366246e-01 4.677059384210832116e-01
-3.883580020993213002e-03 -1.254532978191821024e-01 4.970950655172052257e-01
-7.040817766882935536e-02 -6.219232384909666178e-02 4.374067602028253732e-01
-4.514753274243975267e-02 -1.204971627438129744e-01 5.013914111497331794e-01
-1.182880315346030997e-01 -1.051388314382050160e-01 4.693797215812234858e-01
-5.500777984247241792e-02 -1.026234957432868439e-01 4.610342639733314707e-01
-8.927025423817430694e-02 -1.180046597516744983e-01 4.641219458696588807e-01
-5.308049719983024689e-02 -1.164206116085556575e-01 5.324279664334640172e-01
-9.388285707745198938e-02 -1.116884250485923047e-01 4.603461933198869649e-01
-2.567625997207404615e-02 -9.578346657897601757e-02 4.561178210764573748e-01
-8.068789635929861370e-02 -1.098470239604423943e-01 4.630737243185725771e-01
-8.673703945426329553e-02 -1.056726195374482757e-01 4.574327636104537631e-01
-6.055485243508249016e-02 -1.185638559195540953e-01 4.911574545986517881e-01
-5.106061065782483560e-02 -1.099633584701238953e-01 4.730543154808375950e-01
-8.804691477771468822e-02 -7.372699328503358462e-02 4.439081750112801594e-01
-2.091721622245064360e-02 -1.170629504725177045e-01 4.814286345582464710e-01
-2.566131842440437863e-02 -1.153503540671294986e-01 4.815888719871020962e-01
-5.277949944176555525e-02 -1.082032627095544930e-01 4.694682136560294761e-01
-9.715479657646169942e-02 -1.213218652742181908e-01 5.055830823798230789e-01
-7.125092451239743718e-02 -7.460369659487488259e-02 4.397685427909190370e-01
-7.462194599202630341e-02 -1.210268588536297374e-01 5.145579767533616788e-01
-3.258113436673682611e-02 -1.183549561703062108e-01 4.902301696929886043e-01
-4.547248553368921087e-02 -6.240678341661506923e-02 4.406329222282261426e-01
-5.391288019928201086e-02 -1.212829915723670215e-01 5.167816220603879129e-01
-8.984808033133298566e-02 -1.213676955885587827e-01 5.084073684639176527e-01
-2.276897010779893853e-03 -1.290136639478683123e-01 5.172457576388554967e-01
-2.392030685138022209e-02 -1.004602709343767192e-01 4.594589484206966779e-01
-6.973170117488031172e-02 -1.210387411137017061e-01 4.963724995960293040e-01
-3.404555990129127380e-02 -8.246928720762736198e-02 4.480435339301029884e-01
-1.043989184686191229e-01 -1.230077997302679721e-01 4.855966618419321756e-01
-6.467079065763184365e-02 -1.175668601529827190e-01 4.858440027074942269e-01
-3.318813174740966460e-02 -9.749371876308478291e-02 4.595152068994323713e-01
-1.167720734692501844e-01 -1.002532038700140876e-01 4.684245091947151218e-01
-2.440094077687857479e-02 -1.014442879077390169e-01 4.604909368698481553e-01
-3.163539696064061879e-02 -1.076269242110137747e-01 5.480440392146056494e-01
-1.959215674621055808e-02 -1.233408566284000946e-01 4.980884741757839462e-01
-6.576162723965081613e-02 -1.072097988370662724e-01 4.645010134849414385e-01
-2.644417995529250304e-02 -1.184548881581185403e-01 4.888291035669434237e-01
-2.381981678065298036e-02 -1.197688782236702304e-01 4.898238396213947521e-01
-3.715829596768873561e-02 -8.799064426268371486e-02 4.516130525441447441e-01
-8.518418823080371738e-02 -1.002976021234748272e-01 4.536511883589155469e-01
-4.308808867008194488e-02 -1.049017989434975345e-01 4.666741482428793386e-01
-7.597071964177687375e-02 -1.217557336364260279e-01 5.105800091981086419e-01
-1.038056564447848926e-02 -1.258896148232150070e-01 5.324022548894049578e-01
-9.155529075805489414e-02 -9.890122316630890753e-02 4.520559743472875591e-01
-8.715059120093766876e-02 -1.206696059263470677e-01 4.779500935819585572e-01
-9.683738396922884212e-03 -1.260868845599418253e-01 5.012528649875908071e-01
-1.791045368674413704e-02 -1.181750289245562247e-01 4.823806799863606942e-01
-8.586830705852067924e-02 -1.120001079911590869e-01 4.632124950318889933e-01
-2.467457139463436963e-02 -9.677985349732307063e-02 4.565506003718109995e-01
-7.633323925785513719e-02 -9.214022739704835763e-02 4.488815847975740625e-01
-1.122418526580771098e-01 -1.206407853368456490e-01 4.958512754436310010e-01
-2.357588450503050187e-02 -1.055792111778607739e-01 4.652473877434535332e-01
-6.941375681445643986e-02 -9.409411729094881160e-02 4.510302754725566965e-01
-3.625676310335611968e-02 -1.206794291961373333e-01 4.989778638038913083e-01
-5.193936042467891395e-02 -7.251235128707261834e-02 4.431643318976959955e-01
-1.137164404182535865e-01 -1.069743299349859983e-01 4.632366851875024394e-01
-5.664132662607701887e-03 -1.206210816217211101e-01 5.453874971032114383e-01
-7.441128437410003682e-02 -9.920627448263798220e-02 4.544321763476139586e-01
-3.305942657654199063e-02 -1.124393495801172121e-01 5.460636668249434500e-01
-3.798294421601694504e-02 -1.222683498250497075e-01 5.241805576648115306e-01
-1.031436308516931050e-01 -8.706300372518846475e-02 4.553183921834426662e-01
-3.787553877572751027e-02 -1.222170069872460241e-01 5.117141263183083710e-01
-2.643049115585034345e-02 -1.125152041268875497e-01 5.541419731373847801e-01
-4.901386910751578951e-02 -1.121022161986008903e-01 4.770671687647362047e-01
-7.860787764779607334e-02 -9.258932895686454445e-02 4.489978175851548903e-01
-6.945124658443678489e-02 -1.081329821144048631e-01 4.648483861382581850e-01
-1.579802925191592725e-02 -1.151743949319331412e-01 4.757163409852847025e-01
-1.022408602722288673e-01 -9.809524230411917345e-02 4.530672232499777241e-01
-9.247631462369856892e-02 -1.211377766398031436e-01 4.802820805426329387e-01
-1.119964760566815182e-01 -1.175079289695850904e-01 4.999660828269185675e-01
-8.674241549593070255e-02 -1.001547168683523392e-01 4.533417307564972520e-01
-6.431236891367414499e-02 -9.030783601003064542e-02 4.488633746425038651e-01
-9.992095999237769754e-02 -1.035571377118705838e-01 4.555738295450241226e-01
-2.229183418033159336e-02 -1.209539472025742829e-01 4.922554810054778907e-01
-4.830009222664027185e-02 -1.180728629808227570e-01 4.907830118991501345e-01
-1.113814950974309076e-01 -1.204194657008238467e-01 4.791806847453768947e-01
-1.079284845888670852e-01 -1.160101458166079846e-01 5.033016992945273937e-01
-7.627885771240101864e-02 -1.165381686212142442e-01 4.767106457583178414e-01
-4.734379959875802124e-02 -1.198634066631409645e-01 5.308129391587881329e-01
-1.087380419990113811e-01 -1.102478855245717371e-01 4.630807141213197364e-01
-5.302060780740024126e-02 -8.556867765137828041e-02 4.481193728865736636e-01
-5.919220768125899729e-02 -7.035829577003391289e-02 4.414092880126052054e-01
-2.064469290021289649e-02 -1.068057689781184288e-01 4.655013784158110179e-01
-8.497697624381972403e-02 -1.219448296472865623e-01 5.078724558135154776e-01
-1.087420883963209073e-01 -1.213692170821003835e-01 4.813476091771307641e-01
-6.984849048168501051e-02 -1.200160559773004315e-01 4.909193670780682694e-01
-5.483940887483043647e-02 -1.213233361777087821e-01 5.102163817677372037e-01
-6.750548663650240110e-03 -1.269326242776223079e-01 5.304626301734112204e-01
-2.468672770919914244e-02 -1.230541223510839138e-01 5.017797442105926820e-01
-6.954920603881363517e-02 -1.094646575354024931e-01 4.670306446070557338e-01
-3.703706097139846526e-02 -1.024818569684088077e-01 4.641859652516941437e-01
-2.427652027049477176e-02 -1.233591925636706166e-01 5.358848801563553810e-01
-5.630289367987032639e-02 -1.162092277437525994e-01 5.313889801976310334e-01
-1.484254327260880503e-02 -1.091544156085684641e-01 5.636613209412008052e-01
-9.065949206491401291e-02 -7.814304392818487155e-02 4.459889970827932149e-01
-7.440710243431392090e-02 -1.209109248154793953e-01 4.928475210165522147e-01
-5.341932704146810235e-02 -1.168016977392448974e-01 4.868870654802351927e-01
-6.558151454689707671e-02 -9.101566983533643240e-02 4.491717842323992294e-01
-9.642625992011030767e-02 -1.227833968028950867e-01 4.853168488985342144e-01
-5.579037403426931330e-02 -9.277750631209244481e-02 4.519509174497809978e-01
-1.151916897750722840e-01 -1.117965768553261657e-01 4.685579314516201688e-01
-6.544708556573568259e-02 -7.061165904466552845e-02 4.397992501383886088e-01
-1.067564178745139883e-02 -1.272543995219717339e-01 5.254358064934184780e-01
-7.016196600209151368e-02 -1.214139147910827665e-01 5.129075860682242860e-01
-6.477734821198345705e-02 -8.664580860082084224e-02 4.464551263393158886e-01
-2.581053129316366809e-02 -1.229034782527195085e-01 5.023564631965149463e-01
-3.158920692930891616e-02 -1.150296313365366252e-01 4.828938815628713299e-01
-7.742958399640736608e-03 -1.225085136518803547e-01 5.419158244310643413e-01
-7.078487992232686266e-02 -9.585021256398235101e-02 4.522640742678353809e-01
-6.740080990122819526e-02 -1.117555704742814876e-01 5.288783389224287479e-01
-1.037940078310987529e-01 -1.066876061789902436e-01 4.585360664584214319e-01
-1.529305059495268508e-02 -1.176861413911215043e-01 4.804504958067238318e-01
-9.469928826664945898e-02 -1.162710368796802118e-01 5.134877298187946471e-01
-4.442954303387527948e-02 -1.214152820338969402e-01 5.255041871016156163e-01
-1.569081136939417045e-02 -1.146071079136746773e-01 5.590328217628490748e-01
-8.125990297426809172e-02 -1.056971435680244681e-01 4.586669570881712898e-01
-6.916945790195137833e-02 -8.968881619176957698e-02 4.476733432222269049e-01
-7.279940848800754705e-02 -1.217936864077651116e-01 5.098864619971633649e-01
-4.268850241293247610e-02 -1.215353051742580071e-01 5.077666380848722127e-01
-1.041309932884475625e-01 -1.225398618682128210e-01 4.824313061247219037e-01
-6.344373060919952789e-02 -1.037746470103470264e-01 4.607386445242118156e-01
-8.292829832378209587e-02 -1.082873549409810315e-01 4.606743293941611972e-01
-3.917086385532048132e-02 -1.124633075349633082e-01 5.423177246846522248e-01
-5.558860204818209805e-02 -1.201164569770771240e-01 4.997517293401333438e-01
-4.247302702283548698e-02 -1.001367388466637698e-01 4.612075117096435806e-01
-9.806525658737458295e-02 -9.724186352361538499e-02 4.516426122169665547e-01
-2.320215038981439035e-02 -1.190498435974816638e-01 5.494152161997513106e-01
-6.808576234774188496e-02 -8.281426824087274874e-02 4.435957084951964724e-01
-2.219926356881470053e-02 -1.040504110935882159e-01 4.626986262112998682e-01
-7.790969500926084312e-02 -7.601955162385272413e-02 4.396814404249818620e-01
-1.018764706735729997e-01 -1.139725946337342144e-01 5.100873197478127397e-01
-3.457212005490902657e-02 -1.151052990416309707e-01 4.832179481949693822e-01
-8.895012673829054417e-02 -1.123705524845824560e-01 4.620497120620542519e-01
-5.458327371808160966e-02 -1.147521359040593880e-01 5.328722144214955714e-01
-5.007271105136406469e-02 -1.181367458022363204e-01 4.911404820822775075e-01
-1.751358220434300755e-02 -1.122301565872336482e-01 4.718956793964988461e-01
-9.676789974313923515e-02 -1.228038053546881142e-01 4.850718197104464391e-01
-4.777681088131606468e-02 -1.188727451922734768e-01 5.319896344726596782e-01
-7.203547181650635234e-02 -1.141464462183248429e-01 5.267922990970540509e-01
-1.767264977658828534e-02 -1.262235681769585671e-01 5.234156484515971597e-01
-1.032031413856927399e-01 -1.136439957538585704e-01 4.646203082417835750e-01
-4.046335358965159196e-02 -1.102781333155481158e-01 4.744937443912006780e-01
-7.141856334091299663e-02 -7.683673864142130661e-02 4.403767273117678016e-01
-4.186123432358783425e-02 -8.395780834935119563e-02 4.489209883286902625e-01
-6.929925749422223558e-02 -1.217985527976751664e-01 5.092298837615875096e-01
-1.151523962255640403e-03 -1.289992512539517855e-01 5.185859108098643810e-01
-8.001735312568135361e-02 -1.185105960804883479e-01 4.775298461324554711e-01
-6.831000425964323108e-02 -1.101935922151541236e-01 4.686936001594934065e-01
-3.528070498370103336e-02 -1.213476023900909306e-01 5.020116137522824262e-01
-6.145020728052226489e-02 -8.722683306669015701e-02 4.474314817458503457e-01
-7.614284650896835371e-02 -1.143344343484037628e-01 5.256246344175978802e-01
-1.018166096569602386e-01 -1.228628385528872241e-01 4.832132160589179826e-01
-9.323889772156028488e-02 -1.226662533413636624e-01 4.736822910481029991e-01
-9.398124233269605776e-02 -1.229556633825859280e-01 4.937722234394333332e-01
-1.324110941860331091e-02 -1.271866077680553486e-01 5.174964954082659219e-01
-4.040378018955761291e-03 -1.226504858522387137e-01 5.390251564018316843e-01
-6.840147021230490176e-02 -1.160863624809862077e-01 4.800742622567354401e-01
-2.548622650864016889e-02 -1.112697187357430811e-01 4.746462437702950177e-01
-6.648510398603417471e-02 -7.182619034040527151e-02 4.399446757106981742e-01
-8.226411892879889609e-02 -1.116314847396263632e-01 5.221986913177019130e-01
-4.562642852748551026e-02 -1.016838447234165860e-01 4.623157106522147730e-01
-2.604090357183315441e-02 -1.045252062705658014e-01 4.647972895182527764e-01
-7.421919927662765093e-02 -1.089816602399117096e-01 4.644477469318991081e-01
-1.084003846305993217e-02 -1.039480685570194907e-01 5.668103640151325173e-01
-8.404247918157585484e-02 -8.645302315814785976e-02 4.449925362592638267e-01
-7.914369177840943625e-02 -1.083953122356018928e-01 4.622583053243328188e-01
-4.596811313302721913e-02 -7.884829175489067865e-02 4.461148971833479582e-01
-1.126507921555589820e-01 -1.168526956257424504e-01 4.997550607057081873e-01
-5.652166445021303276e-02 -1.213290035850347892e-01 5.103844830360650953e-01
-4.402569157006281514e-02 -1.215369501298380200e-01 5.084127205169607366e-01
-9.809708942449921198e-02 -1.178398446248246495e-01 5.107430876527271346e-01
-9.795661498918772914e-02 -1.192851919429275820e-01 4.662061505290453489e-01
-1.109517067701891041e-01 -1.083895565944822115e-01 4.621078975161361235e-01
-4.586471217118823218e-02 -1.106084628987433482e-01 4.750071395146879816e-01
-4.888090721723851312e-02 -6.815749554814817812e-02 4.420108954927817191e-01
-2.747969929242180184e-02 -1.186734850935844687e-01 5.474146450512155093e-01
-3.053208400971795661e-02 -1.228447374378099366e-01 5.075777723943785125e-01
-9.732587400735613625e-02 -1.223745588063855222e-01 4.820892402657884768e-01
-6.118576020532924542e-02 -8.776324308187537226e-02 4.477958720977744389e-01
-7.554124393317682151e-02 -1.207619270217152041e-01 4.915524430170492565e-01
-8.995403212627778311e-02 -1.139581045172576718e-01 5.169783118628683560e-01
-1.076002904880264677e-01 -1.210323152758030069e-01 4.980052324062516078e-01
-8.544997049839184178e-02 -1.168989142542320447e-01 4.687916639203330016e-01
-8.341780720230594637e-02 -6.989339755163194445e-02 4.400719637625377656e-01
-3.801119855598066727e-02 -1.122673402282073490e-01 5.426982876111786647e-01
-1.829006632524370068e-02 -1.244285665742309449e-01 5.016501664293188112e-01
-3.168984892179627089e-02 -1.218162479646568985e-01 5.354512207240044175e-01
-6.509520863957592163e-02 -1.161290181388947851e-01 4.818727426481678733e-01
-1.208259068929304347e-02 -1.256427080745329272e-01 5.009331293475005609e-01
-6.294166222460728134e-03 -1.239793740017457457e-01 4.931983619995545798e-01
-1.846092613955017947e-02 -1.230297429975763801e-01 4.960739323045788574e-01
-1.075919798414525508e-01 -1.124345455335382937e-01 4.647565310626241564e-01
-2.158023126057648580e-02 -1.219296512527384829e-01 4.949721761714320767e-01
-8.230083248710905186e-02 -1.091863741195183701e-01 4.617507330663793708e-01
-4.550153681600026950e-02 -9.233420151589623315e-02 4.539044924942831627e-01
-1.036331578201852704e-01 -1.199403153562681318e-01 4.718829495032358934e-01
-6.072901943959330834e-02 -1.210185571953261707e-01 5.160867798907506909e-01
-6.228763934705512650e-02 -1.212147436234036202e-01 5.030496094217015157e-01
-2.917171198761482273e-02 -1.232359219798897787e-01 5.299973207078906290e-01
-6.757425844175024565e-02 -1.218096428763061206e-01 5.087836772091802739e-01
-1.148227866151967959e-02 -1.262434660800334785e-01 5.033067709552152547e-01
-4.266365421964971733e-02 -8.585476062868767355e-02 4.499580642209678460e-01
-8.967479751256909534e-03 -9.897718780905925828e-02 5.689583877862888217e-01
-2.151029752216219657e-02 -1.252265641232813420e-01 5.161406406626203314e-01
-8.389711100454055881e-02 -1.199094192380473489e-01 5.148752106448898358e-01
-8.183810163012723848e-02 -1.078171745823439248e-01 4.605731778364906548e-01
-8.357930515770853330e-02 -1.179102825877302585e-01 4.724162045729677906e-01
-9.129419095312550636e-02 -9.923472854643691776e-02 4.523003951883406981e-01
-1.146253275179227732e-01 -1.209094870864250437e-01 4.896882691234618612e-01
-3.961820274906367734e-02 -1.199099334351168694e-01 4.969286513468906263e-01
-5.439274021083154859e-02 -1.204302724670652386e-01 5.016844061993015469e-01
-5.150969161979776501e-02 -9.646582035817473366e-02 4.558904011650934951e-01
-1.081256725606783015e-01 -1.215683431535279080e-01 4.817263584378070340e-01
-4.469782832637678172e-02 -1.214814865469212996e-01 5.241798067136164141e-01
-4.645448318440329599e-02 -1.187758674091006078e-01 4.933963158335351595e-01
-4.863221770227865726e-02 -1.213157521165654090e-01 5.206825255574901723e-01
-1.693441223075654173e-02 -1.152394797710621921e-01 4.762966677661440995e-01
-8.936167574736225694e-02 -1.212199835945179660e-01 4.736310407103370701e-01
-6.899027766018386854e-02 -1.175084742185164705e-01 4.838468921718929727e-01
-1.299683727193938834e-02 -1.015402215492956367e-01 5.664601092059426968e-01
-5.286480445624679170e-02 -1.199197992525061485e-01 4.986392459934796406e-01
-1.099354516406805399e-01 -1.200883997074692761e-01 4.992714413365655357e-01
-2.986894952282667659e-02 -1.232200640582639950e-01 5.105683916703936953e-01
-1.068900952287221151e-01 -1.167122191572930040e-01 5.034716976698541124e-01
-1.014332187927204781e-01 -9.243496830716659007e-02 4.511832346179376341e-01
-8.321855960525571805e-03 -1.281236413378090966e-01 5.145806570254155554e-01
-1.020213838406905382e-02 -1.275421584648150086e-01 5.109191854777670461e-01
-3.743754687494967731e-02 -9.892458286016655999e-02 4.607370013285341237e-01
-7.956874166299561513e-02 -9.759819784543542764e-02 4.524789903982095463e-01
-1.113461669918920649e-01 -1.083020876241094638e-01 4.622205561904688120e-01
-9.416434094291835366e-02 -8.013078172942657285e-02 4.482509567832910768e-01
-1.050957706167075928e-01 -1.171587367989340017e-01 4.690708264830981133e-01
-2.987450978157858358e-02 -1.234927069784728659e-01 5.234760423290243381e-01
-2.520342298724572924e-02 -1.096464507181961062e-01 5.559084718246943835e-01
-1.844568446908717227e-02 -1.056825988334418043e-01 5.641925030521013351e-01
-7.011155516768474184e-03 -1.278853686813013202e-01 5.091069805662450376e-01
-4.381080901852987819e-02 -5.904191033471336419e-02 4.399846312749712274e-01
-6.157892832083927681e-02 -1.215875476888318429e-01 5.110229413419501432e-01
-9.042929366319753248e-02 -1.173477888585562762e-01 5.147070690812272087e-01
-4.005744113432299636e-02 -9.648286864713975786e-02 4.582521129626070944e-01
-8.255984768318970490e-02 -1.223944759047276148e-01 5.038259903550207364e-01
-1.644242530052920578e-02 -1.264427890413783451e-01 5.174754595173806093e-01
-6.612921695888970830e-02 -7.027527276429071379e-02 4.395618998023653745e-01
-1.043380892186894782e-01 -1.223353650456513453e-01 4.967547890239578656e-01
-5.269286200045160407e-02 -6.759758741075538868e-02 4.415077355896759870e-01
-4.124602567165498029e-02 -1.153571117092234005e-01 4.838328823338519102e-01
-2.181004189276030195e-02 -1.083547631914914960e-01 5.606480238535213045e-01
-5.216837411782214440e-02 -9.374098756875193228e-02 4.534203343842220790e-01
-4.812940424491009977e-02 -1.213103703702430175e-01 5.213617390278320052e-01
-4.391997932956615003e-02 -7.151767087772448184e-02 4.434005648512362452e-01
-9.152998323325969854e-02 -1.216713511610574699e-01 4.780902721142950007e-01
-8.082994196705807488e-02 -1.200038831254548882e-01 4.872472992219420429e-01
-2.655738478302974159e-02 -1.239232738335737660e-01 5.121610400822285136e-01
-6.793051103748026787e-02 -9.532569104183302722e-02 4.521489277964357845e-01
-1.020170400024184021e-01 -8.556386264231913286e-02 4.550631427750654878e-01
-3.377207496729421610e-02 -1.221090669708855825e-01 5.065383888466179485e-01
-4.955507492469147374e-02 -1.182829409313332358e-01 5.318414817750216628e-01
-8.216828526911741648e-02 -9.966538976810082606e-02 4.536104726784800922e-01
-7.975112763378425229e-02 -8.951184888071725410e-02 4.469061744185991447e-01
-7.388937170564695289e-02 -1.153406187639579167e-01 4.755657521306320690e-01
-6.784500791250008822e-02 -1.114842041646933596e-01 4.709871002766436443e-01
-7.825293377857296673e-02 -1.133818491057436151e-01 5.255845161607128890e-01
-3.341414247610988847e-02 -1.229714974707608599e-01 5.177176161742552685e-01
-9.712528053054758637e-02 -1.024507372442140241e-01 4.545918805562109144e-01
-7.827762930194591753e-03 -1.276530574775599225e-01 5.265200625908474930e-01
-9.246114520864563702e-02 -1.214445940135898544e-01 5.072605546079737016e-01
-1.014384244490917769e-01 -1.225433515884575414e-01 4.807006794691665030e-01
-8.794277767097503223e-03 -1.247993316659308516e-01 5.355703530150281999e-01
-7.877094919546601126e-02 -1.066312657421896182e-01 4.604210571709588251e-01
-4.324372112271983315e-02 -9.264609881155874693e-02 4.547113518590129022e-01
-4.953626228415460714e-02 -7.669957825970798171e-02 4.449655415447130169e-01
-4.295536814979557944e-02 -1.210424052928761873e-01 5.041585975841689216e-01
-7.488406472273596848e-02 -7.545000798411903575e-02 4.396760886641322696e-01
-1.070582352421860228e-01 -1.177257046319469674e-01 4.707093911906181094e-01
