-9.309621868831670366e-02 -1.078558144491823939e-01 4.577853440614738645e-01
-4.141731740136582463e-02 -1.093309971094795496e-01 4.727421539004737494e-01
-5.908482504862472978e-02 -8.726370245858013075e-02 4.477887123911467593e-01
-9.639751691163808700e-02 -1.233782084601958151e-01 4.690353610981674581e-01
-7.781492344543150530e-02 -9.834914238256166341e-02 4.530579276922215848e-01
-8.039918572105089756e-02 -1.116999687324100599e-01 5.255508798629390244e-01
-1.421409418149445839e-02 -1.269762822975719074e-01 5.234789485257228536e-01
-5.836981572239676591e-02 -1.188187585430713622e-01 5.264730931164723904e-01
-8.436056509775295698e-02 -1.222574781412577027e-01 5.070756130587585897e-01
-9.696970097108499609e-02 -1.201129132971428121e-01 5.099586973427351344e-01
-6.768164182195793299e-02 -1.212190751147072115e-01 4.980191972672993184e-01
-5.808879937307411673e-02 -1.208880506944113170e-01 5.023685014450355313e-01
-9.386267224038176427e-02 -1.230898580010328786e-01 4.965488447630729829e-01
-1.211441864715200600e-01 -1.102640811704615753e-01 4.836129433401075706e-01
-4.424621925904351910e-02 -1.192023519500261253e-01 4.942808509542708229e-01
-5.224850543667368397e-02 -1.184118031583313996e-01 5.300945996445599606e-01
-1.591957378884984592e-02 -1.266558613760430385e-01 5.202216538543199542e-01
-7.989312205730463023e-02 -1.219937667791695379e-01 5.102708556638807513e-01
-3.910932284060505276e-02 -7.471882581488345498e-02 4.444668197775287211e-01
-9.097819410230872927e-02 -1.223591921889506939e-01 5.038521637696681266e-01
-1.097620775542897803e-01 -1.130154744232167580e-01 4.660317637995765594e-01
-1.529914328821430601e-02 -1.252039252662003888e-01 5.022683699584954420e-01
-8.804751683969684606e-02 -1.109441222809188915e-01 4.612730824269918317e-01
-1.005424798925477758e-01 -1.234891538077687728e-01 4.917186423244965798e-01
-3.788708313844735970e-02 -1.205531713957054829e-01 4.986015684768294598e-01
-9.344942033252834346e-02 -1.219168180268924845e-01 4.819136924596876814e-01
-8.262001049538518493e-02 -1.128603747817052416e-01 5.216889618054785238e-01
-1.900596138516166475e-02 -1.094037371596037894e-01 4.681964576011968804e-01
-2.047590598387655919e-02 -1.254443086971022137e-01 5.137173480748684629e-01
-9.366508896889785829e-02 -1.223505068862568851e-01 4.841301185789819161e-01
-6.615979366689224428e-02 -1.218329333684309429e-01 5.058645394614851298e-01
-1.841753506293111742e-02 -1.245471650504025168e-01 5.021623516092388329e-01
-1.190348711605522108e-01 -1.135256689089333831e-01 4.822521201975712435e-01
-9.170592220737840139e-02 -1.219077297360034035e-01 4.837509909666837804e-01
-8.215679892236184279e-02 -1.165332546415518700e-01 4.708423290097430436e-01
-4.258797125051210636e-02 -1.213181744502376397e-01 5.052451507003941078e-01
-8.159356742079777736e-02 -1.139212872846143698e-01 5.219229560967345583e-01
-1.037919984534686896e-01 -1.233655231688399884e-01 4.909252222040220159e-01
-4.940392217655011076e-02 -1.181926997767874521e-01 4.907975214415712939e-01
-1.666702662218449288e-02 -1.227578040425684330e-01 5.442745581568492197e-01
-6.003860779359996430e-02 -8.239162468614669166e-02 4.451272625510108716e-01
-6.933035682238875008e-02 -9.765518547288762341e-02 4.536414662879136861e-01
-8.559263221143921518e-02 -1.222515239951633137e-01 5.067172461917230919e-01
-3.800897397032017982e-02 -8.101763898957813070e-02 4.473331852759199201e-01
-3.531806890686021300e-02 -1.221904200361607212e-01 5.297892071834533478e-01
-7.415462098102669486e-02 -1.205533120714360890e-01 4.899655240530484956e-01
-1.538152283013586100e-02 -1.197203165012662995e-01 4.847777268585937716e-01
-1.134530655277551404e-02 -1.267216650806831379e-01 5.277046347646759950e-01
-1.042943690614214491e-01 -1.125297321750265006e-01 4.634173822308607638e-01
-1.059176764668245604e-02 -1.222490391828592038e-01 5.449312760258171462e-01
-2.124505639348014951e-02 -1.021780193704996398e-01 4.599930152222874158e-01
-6.165746781362126117e-02 -1.203735858223308475e-01 5.207427987523135515e-01
-8.724116906417736517e-02 -7.264082604963144341e-02 4.432568113300185964e-01
-1.127246087764880306e-01 -1.215284919236531563e-01 4.928652844232306318e-01
-3.928456816189643264e-02 -1.201785543519470895e-01 4.975357674839284150e-01
-5.197452465213157902e-02 -1.201937572384656899e-01 4.994857717652069762e-01
-2.365128662851179869e-02 -1.028654606901449886e-01 4.618104951245596834e-01
-1.117329261046196287e-01 -1.208546721707990657e-01 4.801089063539738522e-01
-8.867051570343410793e-02 -1.187218606480089922e-01 4.681451618794815195e-01
-8.778701121401347174e-02 -9.254238389556694588e-02 4.483635677879623249e-01
-1.008443424022677226e-01 -1.225892593290801441e-01 4.996221227643086182e-01
-2.879968272047883290e-02 -1.205418787778356621e-01 5.424222081378041738e-01
-8.992670841399050610e-03 -1.256355134759411796e-01 4.993643156039429543e-01
-9.135712084844267722e-02 -1.210931863005315912e-01 5.092329132284804105e-01
-7.614472716887749071e-02 -1.139162206748218359e-01 4.711907319475513445e-01
-5.683823604153379061e-02 -1.016003482604944663e-01 4.592615448510093956e-01
-8.216353629141046055e-02 -6.753108835184286340e-02 4.400207396178803521e-01
-8.113492195504612425e-02 -9.379229431202273926e-02 4.493701800108895750e-01
-7.225467177237651639e-02 -6.775276307024975797e-02 4.376550818190430014e-01
-9.651056485480628833e-02 -1.220528261876249188e-01 4.780913938024597409e-01
-1.062422358756602153e-01 -1.225056942087567602e-01 4.828999940472015195e-01
-6.429042985527264054e-02 -9.145831185341424252e-02 4.495414718273384458e-01
-9.934753156542446006e-02 -1.064295100359901602e-01 4.573373217147634895e-01
-2.096516451077559337e-02 -1.016440947054478849e-01 4.593755921070342141e-01
-5.649130279215495987e-02 -1.080985043917375849e-01 4.681184326909660354e-01
-5.838287907132654053e-02 -8.027620450311495626e-02 4.445920647398783343e-01
-3.461041349434983844e-02 -1.128493636977328102e-01 5.447404062837502003e-01
-4.363834682317672270e-02 -9.502687141076159028e-02 4.563918073515664253e-01
-1.315635673639436315e-02 -1.269216933626979849e-01 5.102344858337997113e-01
-5.242790116338722634e-02 -7.875657363215385343e-02 4.451898307772119701e-01
-8.108283335768393107e-02 -8.614641839687831038e-02 4.445441660853514110e-01
-7.350344637258850178e-02 -1.223859600578356271e-01 5.060530446329989385e-01
-7.309499742095093566e-02 -1.156744047935947817e-01 4.762332709077051196e-01
-1.035613232298824432e-01 -1.115266440842402340e-01 4.622266647869271439e-01
-1.330726496026149973e-02 -1.272657077736863429e-01 5.210874382276762251e-01
-4.803241122140830544e-02 -1.131459545130821948e-01 5.369243653532884686e-01
-5.379951174808363795e-02 -7.214051371594261408e-02 4.427321186397529806e-01
-1.150176264412711702e-01 -1.171729065867479352e-01 4.969072394583680108e-01
-9.626297592012018900e-02 -8.214293913111106460e-02 4.491925470266010523e-01
-6.852762297471215458e-02 -1.134866148782581741e-01 5.279500151946409092e-01
-4.844525720380753880e-02 -1.211510816552657244e-01 5.063253070019091417e-01
-6.874409997452332610e-02 -8.289902638023628756e-02 4.434049921814938733e-01
-4.876365485209043643e-02 -6.557527809842760014e-02 4.412608127542148595e-01
-1.047059568844933425e-01 -1.090768332300571658e-01 4.604073873205008494e-01
-7.326316389257322981e-02 -1.153800651165012431e-01 5.258255469982650032e-01
-8.332607698549255454e-03 -1.224591458061243254e-01 4.893421639786325605e-01
-8.001902407223591973e-02 -1.201650860270538218e-01 4.867968344947798953e-01
-9.270878192215522770e-03 -1.237174554315014080e-01 4.929977975736945517e-01
-7.299412355310089251e-02 -1.216160552565196812e-01 5.132718184336971801e-01
-8.836636916034420336e-03 -1.274492518562659882e-01 5.079615993959772924e-01
-9.705131661251925612e-02 -9.311367747947495166e-02 4.501046753960224467e-01
-8.734388666114249744e-03 -1.249695639507582834e-01 4.969312796762174189e-01
-6.847345717469868753e-02 -1.161214610420502891e-01 5.258115068961016769e-01
-5.890791491558510645e-02 -1.208998759552309954e-01 5.019045626455607145e-01
-2.440002216470773741e-02 -1.065612156002653937e-01 5.573673826387088859e-01
-6.554050958495064028e-02 -7.087206674307348908e-02 4.397906749806444471e-01
-6.864690601327143316e-02 -1.176140536454962082e-01 4.836881297295744786e-01
-5.229698231819530224e-03 -1.210003688883499462e-01 5.430642563662703148e-01
-8.973797093626451060e-02 -1.206131842530274723e-01 5.108731893324692797e-01
-8.310063513628446197e-02 -1.138664793944024062e-01 4.663996259607091632e-01
-3.580977248781911509e-02 -1.123973180489020313e-01 5.438209276129257752e-01
-6.166056817325155093e-03 -1.223042847688874668e-01 5.417355467829872984e-01
-5.851390915500537943e-02 -1.214808983046279239e-01 5.124678520517392810e-01
-1.509945906149281689e-02 -1.168434549701668768e-01 5.563711840789961061e-01
-5.327779346986701720e-02 -1.043500815381069313e-01 4.636613383972153501e-01
-7.781237901583253069e-02 -1.067362210923108734e-01 4.604863860304003742e-01
-8.210765588189818109e-02 -1.142594338199986181e-01 4.680416122517080391e-01
-2.600633036713523305e-02 -1.187978215774650875e-01 5.481598234118421065e-01
-8.834656905793068782e-02 -1.111333463596420740e-01 4.613100720371910435e-01
-1.040586499337683470e-02 -1.086125293291347188e-01 5.645007174003132677e-01
-7.631716554869626135e-02 -1.220063443887536708e-01 4.961176009416484733e-01
-2.185074183086604255e-02 -1.252444536206120396e-01 5.237179186581640833e-01
-1.095352914729123273e-01 -1.090194209967541850e-01 4.618360658276493003e-01
-3.718060488474217440e-02 -1.104876417434649538e-01 4.744133285690070312e-01
-1.874366737770354410e-02 -1.209321807686899036e-01 5.477343656010236206e-01
-2.242357865805024927e-02 -1.247572376322362564e-01 5.097022977972023305e-01
-2.752901216294170381e-02 -1.196280218061191586e-01 5.453006001016809101e-01
-6.614747582692702410e-02 -1.208824805937590285e-01 4.974353956520393694e-01
-5.637059508486351456e-02 -1.126188432634148001e-01 4.762357271560996863e-01
-5.496328092089308726e-02 -7.660016759533699870e-02 4.439792199193618449e-01
-4.555476356654779291e-02 -6.848102724665100505e-02 4.422808367954872422e-01
-3.936182664455729202e-02 -1.223207122640865563e-01 5.188393354881825070e-01
-2.268876635785944257e-02 -1.029089311464646828e-01 4.614692252916731685e-01
-5.341729095901412427e-02 -1.035881973223559127e-01 4.625750250602906344e-01
-8.822793132472599165e-02 -1.211627067009009573e-01 4.769844319939129940e-01
-2.001438145795218435e-02 -1.051796599775439156e-01 5.633091800133999127e-01
-1.044684312869277737e-01 -1.156058431870634479e-01 5.056758740756115422e-01
-7.167879871772851741e-02 -9.146000497016375241e-02 4.486385909216398238e-01
-2.544992404805399358e-02 -1.216820366124055780e-01 4.965218331583335365e-01
-9.401625207614329460e-02 -9.048705462631881358e-02 4.476365567543364454e-01
-3.902780656601358145e-02 -1.219005828978207834e-01 5.277774823439119745e-01
-7.651074442129487951e-02 -1.182960474959385139e-01 4.796950450716022663e-01
-3.552711760911971689e-02 -1.106624792725141582e-01 5.443071196917929067e-01
-8.482782007441544425e-02 -8.670975155921269162e-02 4.450442442306951074e-01
-3.648616851849331710e-02 -9.808972947395278030e-02 4.600168810749427628e-01
-8.098995545622000858e-02 -1.224359001031401217e-01 5.059857549796410447e-01
-1.302134666326333623e-02 -1.259686044107064806e-01 5.035812257286298443e-01
-4.799287978897774642e-02 -1.124345564215428611e-01 4.775147178060295539e-01
-3.982482060147247982e-02 -8.789272515334836666e-02 4.512875889620135417e-01
-1.366877019566729509e-02 -1.205406533045264433e-01 4.861409990019237015e-01
-2.579900892052743033e-02 -1.148732466508563810e-01 5.531918857200174289e-01
-7.168278954940515701e-02 -1.160757693706782612e-01 4.779548194333385069e-01
-7.723949194758560066e-02 -7.167934285081181689e-02 4.386916744240714761e-01
-9.406271391358209111e-02 -1.026480758098797519e-01 4.544113151632394043e-01
-5.105571708056624164e-02 -9.072334349030047873e-02 4.513960478711105950e-01
-8.169729595048937087e-02 -1.146567229226574808e-01 5.216782193572999660e-01
-8.627973051052223452e-02 -1.174249971990153213e-01 5.167691271972683076e-01
-1.200381931999353613e-01 -1.142805207192388317e-01 4.895313042038447193e-01
-6.977081379287428109e-02 -9.246015648920367924e-02 4.495444493978718037e-01
-6.736339567056151556e-02 -1.203127426678660683e-01 5.185694533661758809e-01
-5.859699707872160351e-02 -1.143074025566803709e-01 4.792682588518972220e-01
-2.545699387290431201e-02 -1.243793406598842216e-01 5.246370047581551121e-01
-9.656682900929269842e-02 -1.194414715121709658e-01 5.106145932452339498e-01
-4.552543904048130669e-02 -1.039655379200233321e-01 4.649005309391059382e-01
-3.450734947845617018e-02 -1.163316836434176715e-01 5.434723017548863666e-01
-4.661392142085019757e-02 -1.195485371894922100e-01 4.964759555055689444e-01
-1.136703344394051768e-01 -1.167662934300143229e-01 4.728683415855093886e-01
-1.470558519841516122e-02 -1.235792300262612137e-01 5.411016649447281113e-01
-7.271661114325984887e-02 -1.153406057112636302e-01 4.757354609991952255e-01
-6.267738481287059293e-02 -1.207183195440553330e-01 4.989094455128340044e-01
-1.269269474677119786e-02 -1.201431220952548368e-01 5.508670259363103172e-01
-6.130578287909234370e-02 -6.114528156637889789e-02 4.387942362146004527e-01
-7.534662291082598606e-02 -1.101371518361268648e-01 4.651965323191153412e-01
-4.846439423428662574e-02 -8.154287590919329087e-02 4.469033233823090923e-01
-4.014793453685347457e-02 -1.081231918264310421e-01 5.422935929086025730e-01
-5.603588030780502771e-02 -1.194415844008640121e-01 5.256290919057656774e-01
-5.170908751111030072e-02 -1.059612097783775853e-01 4.663170364621528341e-01
-1.930015385182683174e-02 -1.168322305896325325e-01 5.553715941245169763e-01
-4.263176807851869199e-02 -1.209655128654728157e-01 5.026244294316986050e-01
-2.623870415262944192e-02 -1.242821955110543219e-01 5.190097516221132690e-01
-7.184098729170476649e-02 -1.147912533738219693e-01 4.750817465501919190e-01
-2.310255091055949186e-02 -1.216518031201837269e-01 5.439170725593223121e-01
-9.412426274473836840e-02 -1.219567830966945682e-01 5.052698586466766173e-01
-2.803910383271621121e-02 -1.201827072107104211e-01 4.930840806241985619e-01
-9.417405259548473906e-02 -9.666140650747556684e-02 4.507501941526573797e-01
-1.107634037650628150e-01 -1.163961913919918101e-01 4.703372277787985500e-01
-1.205834648225491239e-02 -1.222011881179334292e-01 5.462705550305794189e-01
-7.205067316397729960e-02 -5.634522231927456548e-02 4.391426531470573602e-01
-2.256125773042700830e-02 -1.069285388935524300e-01 5.600015554717111543e-01
-1.916507934365039093e-02 -1.251686183705690569e-01 5.321229811438235036e-01
-1.564508467834653874e-02 -1.185667106414459993e-01 5.532196361097201365e-01
-2.359241918012215319e-02 -9.818154679446999822e-02 4.572810986759495711e-01
-7.384538692114407839e-03 -1.167967247684151000e-01 5.559143793377389065e-01
-6.790242343584620976e-02 -1.176571489393071074e-01 4.841266397916533237e-01
-5.854589342727218454e-02 -1.079802182613351785e-01 4.674158657374544168e-01
-7.979304178493286381e-02 -1.197093603420104346e-01 4.850353780035538409e-01
-8.738377847067597959e-02 -1.033743304959015702e-01 4.553124039985830263e-01
-5.626588319978925723e-02 -1.144489961645364928e-01 5.323280776623401378e-01
-3.814589473832678823e-02 -1.179856453758964113e-01 4.898886673032226691e-01
-4.736196891159867584e-02 -1.010995638630825672e-01 4.610593701491884078e-01
-5.640184981366403588e-02 -9.053848925302558637e-02 4.503032210638446275e-01
-7.784777434513771854e-02 -1.218955717660057808e-01 5.111822351582349100e-01
-3.700031464803759523e-02 -1.067735569809549478e-01 4.689822565260832743e-01
-1.499921583308071356e-02 -1.189498639456441492e-01 4.830052105739492396e-01
-1.061698665690644638e-01 -1.219160488750953703e-01 4.795396241922753600e-01
-1.135399787940963301e-01 -1.214093733923302942e-01 4.916105578589816671e-01
-4.977830257420389620e-02 -1.210632042405792724e-01 5.055844736961322416e-01
-6.361393517777964857e-02 -8.540491173513364842e-02 4.457867216392104592e-01
-4.636700654379471292e-02 -1.150843847843026069e-01 4.828126775768356027e-01
-4.884650131263013062e-02 -1.082984492700148210e-01 4.704499967693429041e-01
-5.665252744310683708e-02 -1.171830626167675443e-01 5.300128939693061758e-01
-1.151065323675145163e-01 -1.210468958877954498e-01 4.862081561025828891e-01
-2.140570432171473234e-02 -1.253478098371987315e-01 5.188079893781054608e-01
-4.564143296118288590e-02 -7.446368187438222319e-02 4.444144051053426359e-01
-1.192271645060329621e-01 -1.169342937795713466e-01 4.865402279502981653e-01
-4.325100999384209194e-03 -1.275350294551265140e-01 5.049262993225664964e-01
-7.108126015762553096e-02 -1.217685788139291903e-01 5.114664889841806783e-01
-5.476993781060495586e-02 -1.159857771461635378e-01 4.838103925957764617e-01
-4.054305496958668376e-02 -1.185545561638280676e-01 4.917974159999102257e-01
-5.724466278448543666e-02 -8.183408095151235850e-02 4.454346886943668093e-01
-1.018938459618629923e-02 -1.264896776587760285e-01 5.034678623669708308e-01
-3.518009834124842528e-02 -1.171230396386383071e-01 5.418823386473243797e-01
-8.893102123026460498e-03 -1.280307509816869249e-01 5.146237295553799385e-01
-4.732299492997382034e-02 -6.960311226372488391e-02 4.425133714119292017e-01
-7.511137291169453500e-02 -1.185415663752873300e-01 4.813505003562915108e-01
-5.105712805201988863e-02 -1.198616468645378880e-01 4.978968274176450159e-01
-5.789130462300977331e-02 -1.084958065121553322e-01 4.684307116583480979e-01
-5.280931894144786504e-02 -7.347016897864408480e-02 4.432879774846443799e-01
-4.860772567808526595e-02 -1.194354291729116946e-01 5.308094245044393533e-01
-7.841661722981402294e-02 -5.833583873841981932e-02 4.390681745267659419e-01
-6.016307029325879130e-02 -1.190043763169732621e-01 4.922907515935388001e-01
-7.629622878418416965e-02 -1.165998128566474445e-01 5.232755431522185807e-01
-3.734057239407460871e-02 -1.074643190905404666e-01 4.699516577066198963e-01
-6.721355106700591109e-02 -1.171292864061553723e-01 4.830336680006516725e-01
-6.418270946189180703e-02 -1.194518302131821752e-01 4.917605953926556528e-01
-9.803205006757285955e-02 -1.025299165273325791e-01 4.544398771220380384e-01
-1.465266023674363649e-02 -1.223749969623637718e-01 4.911146160462547816e-01
-2.988665735619024620e-04 -1.290241806809242497e-01 5.184760395490681795e-01
-6.878252927511986636e-02 -6.018758497559058979e-02 4.375254072399037963e-01
-3.075690768425861851e-02 -1.074754566552151014e-01 4.695615453315284404e-01
-5.579890647195554637e-02 -1.212848872261442223e-01 5.078257566018981040e-01
-7.316697548758205327e-02 -9.773835721973554713e-02 4.532816913623227140e-01
-1.156053358346799675e-01 -1.016125322222249105e-01 4.649060423482742621e-01
-1.158412403782692612e-01 -1.024528753506170065e-01 4.650588274469282246e-01
-3.118872411650814788e-02 -1.214338098736997273e-01 4.995304721948919946e-01
-7.205978110066597886e-02 -1.098231430429371658e-01 4.661600945460824819e-01
-1.038128447661741532e-01 -1.149845714829640236e-01 5.066566733043875725e-01
-7.010728192520174207e-02 -1.139741587335021816e-01 5.273772060970420839e-01
-9.549835544009510624e-02 -1.225663407256012416e-01 4.833635512136715273e-01
-7.296522475138279840e-02 -9.697755397551145740e-02 4.527100793905279863e-01
-1.570888328388804836e-02 -1.109378990896653927e-01 4.691984217174259841e-01
-8.038527944549980764e-02 -1.215740711309190453e-01 5.122983690125549883e-01
-8.476058799095988194e-02 -8.726529781503412908e-02 4.453053449662850993e-01
-1.671485033963329703e-02 -9.987861518339978539e-02 5.653291216039977307e-01
-1.109386217828907256e-01 -1.060839100366704618e-01 4.597191695934296773e-01
-6.992018270097799526e-02 -1.122760430235034135e-01 4.710586146259061469e-01
-1.091636917225490694e-01 -1.010252556590118256e-01 4.565889336892563488e-01
-3.799251472243995315e-02 -1.115320903515812784e-01 4.762620158426068007e-01
-5.433961316853677670e-02 -1.205707309088125539e-01 5.016680593691287271e-01
-2.700461482681727407e-02 -1.195860305973597548e-01 5.458573460248018483e-01
-1.215975196331547589e-02 -9.719795601068358104e-02 5.688845229693375583e-01
-1.111752976532377896e-01 -1.200587905556119578e-01 4.768762803595869570e-01
-1.124212238982666423e-02 -9.875284359842827209e-02 5.687004065897349747e-01
-7.006843008886155799e-02 -7.193827159469526333e-02 4.391723821927711047e-01
-3.858176261471298746e-02 -1.031828805579599329e-01 4.647327553633502362e-01
-1.071017345806303533e-01 -1.205380455696707098e-01 4.761527476059853603e-01
-7.612205555490587916e-02 -1.172824390636885566e-01 4.778224108496064160e-01
-1.062219598792397551e-01 -1.016546500897212851e-01 4.555631937924122243e-01
-4.229746545660490603e-02 -8.150698507210753230e-02 4.476045146396294139e-01
-9.696813903251878808e-02 -8.314681629252765327e-02 4.495692332131142055e-01
-5.041655062633634832e-02 -1.126419676522786295e-01 4.776389585187275633e-01
-9.362357156017152293e-02 -1.216601844604219135e-01 4.662436775958435642e-01
-5.813990392250075606e-02 -1.212291485535231111e-01 5.154323799803640638e-01
-2.785541775379221305e-02 -9.355409919310440914e-02 4.550294051462719924e-01
-1.070452795213924641e-01 -1.064690209378449937e-01 4.587768244480026625e-01
-4.736069097073317830e-02 -7.094772847409333560e-02 4.430106000644907782e-01
-1.014502788048868703e-01 -1.232679961743727570e-01 4.849187174302916903e-01
-5.327526506893433961e-02 -5.809395316524548075e-02 4.392223579173153425e-01
-6.079991770019559094e-02 -1.080646244047344801e-01 5.326731002231879231e-01
-4.330762897345329099e-02 -9.384766378672612652e-02 4.555369729863172346e-01
-3.191778652175398384e-02 -1.129238799376417052e-01 4.785274156500529674e-01
-4.481110654636009938e-02 -9.569153560085963406e-02 4.566595674195509935e-01
-7.077198903668606433e-02 -1.159762632625607331e-01 4.782863617943978740e-01
-1.072582407818559042e-01 -1.126697776998455691e-01 4.644923752269194406e-01
-1.204980912678409871e-01 -1.111135103161968729e-01 4.857977406535664566e-01
-4.015859765208946996e-02 -1.149450023794275216e-01 5.403203816448953756e-01
-7.485977442873631427e-02 -7.785734805864620578e-02 4.403090865783234609e-01
-7.221076868365745860e-02 -8.158015106923176274e-02 4.419643688695839567e-01
-2.639297378344847636e-02 -1.050047626518902100e-01 4.655668650717963986e-01
-5.379470796666838139e-02 -7.574457868787816406e-02 4.438743885702435277e-01
-7.362914803973677480e-02 -1.222637391543275609e-01 5.014685438997510403e-01
-3.397168395551010411e-02 -1.005207882209639692e-01 4.623144862877557881e-01
-1.628631068731864473e-02 -1.223955089410777020e-01 4.921434121166592401e-01
-7.645608967709023596e-02 -1.086781095342770898e-01 4.630820354596706934e-01
-6.847493835632444126e-02 -1.039975046360111510e-01 4.598350258559737447e-01
-1.871612153474357457e-02 -1.246884512711134152e-01 5.031791699673398011e-01
-6.330576797036667480e-02 -1.058699772351402724e-01 4.629635181849950376e-01
-4.859915616345416439e-02 -8.878877901584161791e-02 4.506453615290575976e-01
-5.365002427423966325e-02 -8.705556961583803266e-02 4.487265163428410530e-01
-4.121185353489064535e-02 -1.104575371181784477e-01 4.746569678507872592e-01
-8.487062016293152322e-02 -8.710702946372442246e-02 4.452364416256406332e-01
-5.186343362381776179e-02 -1.212546686595817463e-01 5.206963369813171205e-01
-3.985427369586649893e-02 -1.219029908812133134e-01 5.083915620354305664e-01
-1.020313271610679730e-02 -1.110411093547414574e-01 5.625439144911845712e-01
-6.541852565600518588e-02 -1.188056377884691844e-01 4.885348887282994212e-01
-8.280028409276218859e-02 -1.200217400284208230e-01 4.805470378783439633e-01
-7.422613576456782436e-02 -1.222212052084762079e-01 5.000066519246822994e-01
-8.635499293139191346e-03 -1.247497285519500038e-01 4.961236896800376162e-01
-1.915199186730738579e-02 -1.253618062756865215e-01 5.070423777464285742e-01
-1.024556357822673375e-01 -1.090071894773338018e-01 4.598550984593218760e-01
-3.510087096064071904e-02 -8.266798155960083938e-02 4.482855851271025371e-01
-8.301304470636328148e-02 -6.629684271150845798e-02 4.405702235328008975e-01
-5.587718314901357619e-02 -1.214148066328747527e-01 5.096380490287911735e-01
-4.518968400720398126e-02 -6.238307545442416113e-02 4.406226554802972206e-01
-1.138276953930932867e-01 -1.212363088369139003e-01 4.924439325236141807e-01
-5.542430571321692312e-02 -1.203357158154861467e-01 5.001887155742695823e-01
-2.037614601574539580e-02 -1.171230943783952289e-01 5.545567068951149370e-01
-5.586728830409990604e-02 -1.214115820361526543e-01 5.150894824592492371e-01
-6.640098539393410326e-02 -1.204280352188568104e-01 4.945774648419383746e-01
-1.009061592822248221e-01 -1.150925088599879104e-01 4.649875023972218635e-01
-2.115827617452516185e-02 -1.243891401577705558e-01 5.042267904265868017e-01
-7.728141699551586974e-02 -1.219716345431630794e-01 5.103909256526993898e-01
-1.165166853024835886e-01 -1.028470985210098304e-01 4.664836631823327529e-01
-3.338163250700485613e-02 -1.136905971058231046e-01 5.456084417352123905e-01
-5.985920483498565620e-02 -1.213393054794694031e-01 5.142220634789561595e-01
-3.980261129110179014e-02 -1.036698550252341811e-01 4.652284997583374659e-01
-9.951998116210969414e-02 -1.226802120131370438e-01 4.989420306796024107e-01
-5.775241278491703711e-02 -9.200841195559936181e-02 4.509841718858619286e-01
-2.988007339666029841e-02 -1.215054881425547545e-01 4.986918268258602738e-01
-9.438397970630124298e-03 -1.192162673451586247e-01 4.821202029550478163e-01
-8.771768863320732190e-02 -9.227046734758773128e-02 4.482154351311241625e-01
-2.398573475455186704e-02 -1.034593785768311708e-01 4.626268522687979612e-01
-7.121950595969385976e-03 -1.250643065295291012e-01 5.342815887196401547e-01
-5.981078496937081851e-02 -8.534450523705401637e-02 4.465208946794976819e-01
-3.874455155596017580e-02 -1.094593018396118750e-01 4.728448837427599583e-01
-9.149822689433717571e-02 -7.611970129876745317e-02 4.471746531425468407e-01
-1.162282970239653795e-02 -1.085403683349633330e-01 5.643515376548482454e-01
-4.716629254904719515e-02 -1.168538719725806529e-01 5.352734241371550628e-01
-5.798455109882724723e-02 -9.879698251993340730e-02 4.564123145138125337e-01
-3.299448881406714246e-02 -1.010344287775317013e-01 4.626237724113808625e-01
-4.492921660781869914e-02 -1.133197671547249430e-01 5.382289135286569826e-01
-1.081619086509748306e-02 -1.275590774825553497e-01 5.130398325012098804e-01
-2.599723199116774769e-02 -1.122604275375188032e-01 4.760783794393803059e-01
-2.332938349571405875e-02 -1.174783399780402748e-01 4.839607245812043157e-01
-1.549392542422501837e-02 -1.203548511863609533e-01 5.498916821164783197e-01
-1.013615634208909488e-01 -1.219817565306153123e-01 5.005098548691560012e-01
-9.121165738813023782e-02 -1.230874325300557320e-01 4.943981526436603824e-01
-1.632338684141951615e-02 -1.217046982702654906e-01 5.469383193600527715e-01
-5.989358533161923820e-02 -1.190666824263740542e-01 4.926311777546123483e-01
-9.985707706928753646e-02 -1.234400074566843891e-01 4.887878654815592805e-01
-9.163935186313997006e-02 -8.864557679851589600e-02 4.467503068025047708e-01
-4.131403916623216377e-02 -1.083314925347692859e-01 4.711959768796195602e-01
-3.649437911209862939e-02 -1.182437451087728214e-01 4.902683194900360197e-01
-3.906233670473409358e-02 -1.088159947485880241e-01 4.718667695826046504e-01
-3.295107326618195408e-03 -1.288023940455308158e-01 5.124846335873096681e-01
-4.766032971269409252e-02 -6.772930053395742611e-02 4.419374752587463262e-01
-8.179984986938899916e-02 -1.181401680415191668e-01 4.742002504312964883e-01
-1.410998917022595819e-02 -1.166346829243634919e-01 4.776677048676038484e-01
-2.983044214028831437e-02 -9.918408639662586179e-02 4.602603589855799870e-01
-7.575273266249678283e-02 -1.140748259469016590e-01 5.259004839318554003e-01
-9.449485871998426767e-02 -8.025187148289777972e-02 4.484434786095217174e-01
-3.909606091191882710e-02 -9.389099682742846342e-02 4.561422529984787699e-01
-1.192319701302039098e-01 -1.157656101003560895e-01 4.909463414805375070e-01
-8.037682549661898102e-02 -7.496423905232131590e-02 4.395779191433113464e-01
-8.177465067363341722e-02 -7.693143138606370335e-02 4.402818294921629905e-01
-5.798853549851705480e-03 -1.286620513341421301e-01 5.209266252732218661e-01
-1.894478964888644465e-02 -1.165480105241539777e-01 4.793422636941543358e-01
-5.128615203619660279e-02 -7.321514104056588146e-02 4.434271878627964458e-01
-7.764489363757896834e-02 -8.668669518536546714e-02 4.449750109700131295e-01
-6.016384853271966593e-02 -9.750306029974818711e-02 4.547848942330924293e-01
-6.601117693135578890e-02 -1.214741534362989289e-01 5.013847255278176540e-01
-7.180590925534920121e-02 -1.207513360985661699e-01 4.921287180977649833e-01
-2.771893925059862665e-02 -9.802498281202713659e-02 4.585459300779699543e-01
-1.019070538428883815e-01 -1.122199250777515811e-01 4.622264173860798353e-01
-9.534298228954457555e-02 -1.228395168886566580e-01 4.850751194901574137e-01
-2.160423972721273525e-02 -1.113012378346872056e-01 4.725161116006901252e-01
-7.333731652388200684e-02 -1.051225938085077749e-01 4.600840871422458012e-01
-1.118747117635663507e-01 -1.217305130873581887e-01 4.929068072955701818e-01
-6.844220199392968274e-02 -1.169496616015329865e-01 4.818993359812682176e-01
-7.402131464703717856e-02 -1.210376852781213514e-01 5.151995824027156834e-01
-7.297054246425890844e-02 -1.079680327558333458e-01 4.633453699406461235e-01
-6.557739022003555851e-02 -1.185710148059510444e-01 4.877686816064458752e-01
-2.142355084787526953e-02 -1.098577006846146176e-01 5.606277328610623778e-01
-6.488114218894007468e-02 -1.103091639950882774e-01 4.695753564349511300e-01
-3.711993766559341934e-02 -1.010427183151922231e-01 4.626865867612574013e-01
-1.075502039701071860e-01 -1.164539465770176585e-01 5.033642540696813272e-01
-4.650125280231670599e-02 -1.107306995010954448e-01 4.748954483793813575e-01
-1.085626103501719127e-02 -1.269315068149208803e-01 5.066068421481983997e-01
-2.087375294194301206e-02 -9.921544495646142381e-02 5.631377764393095120e-01
-5.092260361024093795e-02 -6.421212766964042029e-02 4.406876687405086312e-01
-4.471973503194827393e-02 -1.212308227042538378e-01 5.275855695502289500e-01
-9.133317334374081720e-02 -1.114875310935050101e-01 4.604519291209802079e-01
-2.300831047454227410e-02 -1.248790593771865187e-01 5.278955952032607923e-01
-8.340793481316002844e-02 -1.173429034615344341e-01 5.186506619440557353e-01
-6.124076149213070197e-02 -8.886021940486338311e-02 4.482980019554461681e-01
-8.790826238334656373e-02 -1.145737733322540614e-01 4.630207436347872907e-01
-4.345021526064920397e-02 -8.670162144487020273e-02 4.502488083335272062e-01
-7.573134177864593308e-02 -1.201173258275524125e-01 5.177233551523773292e-01
-1.278886764493981573e-02 -1.226819245375394135e-01 4.908552674687206019e-01
-2.835539870578146146e-02 -1.137768832716748030e-01 5.508882607064561343e-01
-8.592150414006952119e-02 -7.599032269147656948e-02 4.419917919826311103e-01
-4.401800782403914036e-02 -1.206300372004559390e-01 5.009121266310335718e-01
-6.450146735378492480e-02 -6.939551267616654584e-02 4.396301999601313626e-01
-7.986336932344106909e-02 -1.204085150339685856e-01 4.877719839807431734e-01
-6.910535674040903242e-02 -9.838917383405809680e-02 4.542665951064894792e-01
-9.825815313367296244e-02 -1.233104495314369387e-01 4.692882032865212660e-01
-4.987770930014671228e-02 -1.177948016829395705e-01 5.323892748694030175e-01
-5.259918833623133949e-02 -1.216057820114277987e-01 5.145378687903580106e-01
-4.484067320049641564e-02 -6.433308949646755759e-02 4.411830043078004970e-01
-1.496711980785957533e-02 -1.211461220075958772e-01 4.879000849952900842e-01
-2.347472767056053844e-02 -1.218973132653494024e-01 4.960441252843098003e-01
-5.745204073085746072e-02 -1.214680316377501762e-01 5.129078540636834438e-01
-9.724457241501503757e-02 -1.224530742750103707e-01 5.002931412492038765e-01
-5.181700924472276704e-02 -7.404618122201063468e-02 4.436166724436491071e-01
-2.318244686141254784e-02 -1.212854257126532720e-01 5.446316857373396658e-01
-7.764535913698203395e-02 -7.393843572825244126e-02 4.391712540953808253e-01
-1.013251822986918488e-01 -1.134925139512781983e-01 4.634051410188042008e-01
-1.062134455619361539e-01 -9.375843056203521375e-02 4.556070634486867887e-01
-4.273006141125814533e-02 -1.180067259760287091e-01 4.902347292383493760e-01
-9.461479723629820371e-02 -1.080796992255009525e-01 4.577123420574067403e-01
-2.642468891303451778e-02 -9.729505153291420627e-02 4.574589585697076410e-01
-1.088435384189911648e-01 -1.202377119071679490e-01 4.761883234283899036e-01
-2.674499296151368333e-02 -1.157925557225690238e-01 4.827504075192552979e-01
-4.537980738492563421e-02 -1.035228218579742343e-01 4.643556357988539718e-01
-1.023237931054195027e-01 -1.225521499031119038e-01 4.788136779654577069e-01
-6.540929411879400912e-02 -8.586278691458866519e-02 4.457606714760465327e-01
-5.056497094296975858e-02 -1.085423916241395614e-01 5.381897146834077050e-01
-7.248547520524592502e-02 -1.139808198936562572e-01 5.267950630371531773e-01
-8.197398146401983776e-02 -8.444508250173661523e-02 4.436386549151870584e-01
-3.061099650920229027e-03 -1.206129228036837003e-01 5.405586468153027457e-01
-5.494524976175577807e-02 -5.660244182204789837e-02 4.387968956699720979e-01
-7.968666215894713856e-02 -8.798523556862231088e-02 4.457109169938729409e-01
-4.206327355266100548e-02 -1.213277372312748653e-01 5.050748677890827265e-01
-4.337934258192385761e-02 -1.202470721348662119e-01 4.989661440381176205e-01
-1.736596986205541510e-02 -1.249924646535021111e-01 5.343042662754776684e-01
-2.592721442708904867e-02 -9.359760914937514942e-02 4.545026528174050395e-01
-6.297229667020143307e-02 -7.223315916027452099e-02 4.408761722670347383e-01
-1.530708239596747372e-02 -1.080390102624934207e-01 5.640061007764550771e-01
-3.928087533337538961e-02 -1.222977113028895502e-01 5.204772322542936536e-01
-7.576521996699076000e-02 -8.427339224656428540e-02 4.434507495054285653e-01
-4.398718326342284518e-02 -7.973623890777914447e-02 4.466726292696056033e-01
-1.843480172543062248e-02 -1.253451474733904281e-01 5.317952161257525345e-01
-1.759785402484075750e-02 -1.262546630000712655e-01 5.241805472465423943e-01
-7.953080110479439357e-02 -6.888274599430335710e-02 4.382693870945492676e-01
-4.255810870162664988e-02 -1.162210980604140714e-01 4.854402553522215724e-01
-6.867734207526846046e-02 -1.217836707517355316e-01 5.107892050782071314e-01
-3.992309388233732104e-02 -1.187471446829741067e-01 5.377204169214632179e-01
-6.967512272448955768e-02 -1.089133163365170603e-01 4.656369969673314624e-01
-9.390250165790731129e-02 -1.224102579170725236e-01 4.677386229330017242e-01
-9.739070008557568214e-02 -1.218323246421094130e-01 4.674380851574663209e-01
-1.027697656728545905e-01 -1.234157830187907201e-01 4.874577902722981859e-01
-1.174867250241105471e-01 -1.080003192841984816e-01 4.687958895518445357e-01
-2.392834146277281193e-02 -1.226606975134656163e-01 5.395333325957886172e-01
-3.367416412393608310e-02 -1.226894772492040375e-01 5.108603119785032343e-01
-3.765706525274456484e-02 -1.073604136327844238e-01 4.697842030146907044e-01
-1.457267143962066511e-02 -1.184317450735837968e-01 4.817677579150597689e-01
-6.875648626283777098e-02 -1.165232867403242362e-01 4.803396463960864504e-01
-3.481516664318140553e-02 -1.221956530611814640e-01 5.304633561714006129e-01
-1.181935811110128992e-01 -1.149289322606363295e-01 4.791157844151082146e-01
-9.772210618854587638e-02 -1.033921068238180391e-01 4.550073901171619584e-01
-9.176118502245912689e-02 -8.438177007172263655e-02 4.456952149969214405e-01
-7.502841887632227813e-02 -1.190326941397890081e-01 4.828034862798910032e-01
-7.978029922752444270e-02 -1.182211818396325803e-01 5.192742695641689998e-01
-1.437013915241075468e-02 -1.236815062988438213e-01 5.406046607905395929e-01
-1.479689243159170234e-02 -1.183219996832987758e-01 4.815900394998025025e-01
-1.135447476120678284e-01 -1.072477279602536276e-01 4.629108933296242623e-01
-8.061541075734299233e-02 -1.135686090453617708e-01 5.236737548708071399e-01
-5.211426119255149064e-03 -1.283211153741689592e-01 5.102573363299501841e-01
-6.410498617221314921e-02 -1.190154892104867690e-01 4.901029545783170405e-01
-3.570355454435740483e-02 -7.686457074691106783e-02 4.452409554011583226e-01
-5.466772385821751234e-02 -7.229786354187742181e-02 4.426512638559808033e-01
-9.049931807520222860e-02 -1.227856361108966149e-01 4.899205471567850689e-01
-1.053756732480851943e-01 -1.122199955005816069e-01 4.634486303814622232e-01
-7.457069423077984649e-02 -8.035338901865494987e-02 4.410881506057447998e-01
-1.681269464482591097e-02 -1.238897797426216085e-01 4.978935126841558256e-01
-1.077750128188235956e-02 -1.263159178796189608e-01 5.028983036338759982e-01
-1.313507407347828081e-02 -1.253774447898428623e-01 5.006595924184715773e-01
-1.007098622970718088e-01 -9.796704406422207523e-02 4.523090057453912349e-01
-1.134537370133046480e-01 -1.179168602794527509e-01 4.986230812161326909e-01
-1.073270040986457619e-01 -1.227823077989473738e-01 4.908403987509536992e-01
-4.631775468728010353e-02 -9.482946221161279998e-02 4.555982374692479353e-01
-4.616599332505116199e-02 -1.071717203670584651e-01 4.692251182001633270e-01
-1.335631263500273655e-02 -1.088198877438584511e-01 5.639955337673455693e-01
-5.382548193741237830e-02 -1.020469313594706273e-01 4.603207317497802209e-01
-1.340391966134584119e-02 -1.165443683124241375e-01 5.568414490699906683e-01
-8.402720369314284343e-02 -9.632145964281944861e-02 4.507841144654493037e-01
-1.133063236407569341e-02 -1.186776977856936754e-01 5.532018835626715259e-01
-3.924715972499082106e-02 -1.106466087235629808e-01 4.748369879457771670e-01
-2.901318218087633322e-02 -1.219411159859807581e-01 4.999831668889142544e-01
-7.929954637953098850e-02 -7.439903766153127540e-02 4.393396227868702208e-01
-4.111334858796470565e-02 -1.095704268858364305e-01 5.418899066002015319e-01
-2.758888635693475255e-02 -1.041215952872126677e-01 5.527761718212164110e-01
-8.994831760232460671e-02 -9.925508277764948095e-02 4.521567175967264318e-01
-2.397991140244055269e-02 -1.245091264732557240e-01 5.117569852041951028e-01
-9.388090603341629758e-02 -9.240363072751978102e-02 4.485917010124220727e-01
-1.730430928493673776e-02 -1.228421938774793137e-01 5.438801825518184696e-01
-3.412814452019637124e-02 -1.216753227169067447e-01 5.027861117539152991e-01
-3.861036026349561057e-02 -7.756464616138977752e-02 4.456844661928544005e-01
-3.510656683632874808e-02 -1.114796060612308903e-01 5.445331383023542804e-01
-4.180488270595586475e-02 -1.045499324290697085e-01 4.661312912957729093e-01
