-4.132782179100603047e-03 -1.277011230180734036e-01 5.058131860325461027e-01
-8.627047985966028454e-02 -7.258445217738633548e-02 4.424159866609350122e-01
-6.756315730798982677e-02 -1.038367714108538037e-01 4.597900330635138477e-01
-8.363668585790831611e-02 -1.210202865979798509e-01 5.138786810391055004e-01
-2.697457056245365289e-02 -1.021333838978238234e-01 4.622789317287324118e-01
-1.143379550517447663e-01 -1.217971178804105326e-01 4.898768460597975327e-01
-5.644133381546480310e-02 -1.188431342459934648e-01 4.919628426859971593e-01
-1.354694264972788886e-02 -1.268995765065128456e-01 5.118376240637498853e-01
-1.082950700858072435e-01 -1.158105279042321162e-01 4.684516935361250356e-01
-5.127714653746402729e-02 -8.119105147884768392e-02 4.465274543782550287e-01
-6.845991629389938660e-02 -1.222129932200869407e-01 5.102593258487737593e-01
-6.608712397652923010e-02 -1.078899864524689861e-01 4.648741749706188364e-01
-2.961161524585592328e-02 -1.059897307468602445e-01 5.501929587618139550e-01
-5.574074390714917060e-02 -6.850911557623934334e-02 4.416093358006026315e-01
-9.946063850505233728e-02 -8.758814765328047647e-02 4.514522026209394356e-01
-8.238838786116678761e-03 -9.786454070010917883e-02 5.695132588533441398e-01
-8.387198638492479597e-02 -8.447174735121198985e-02 4.441479677329305820e-01
-2.061045889350888310e-02 -1.018518713288801836e-01 5.630009227175993836e-01
-2.958311017009135346e-02 -1.231917786117356778e-01 5.304967263323002724e-01
-1.058405149701919373e-01 -1.041969810475182057e-01 4.567895030802442413e-01
-1.304057194428131367e-02 -1.272699982197225688e-01 5.191420112293704259e-01
-1.018451295550060337e-01 -1.239409133922718259e-01 4.936009093599958431e-01
-3.825289367419713177e-02 -8.759007759072987009e-02 4.513247644238549405e-01
-8.434076867807928368e-02 -1.229549356454902320e-01 4.961383802153271905e-01
-4.060306441980787023e-02 -8.679744675362877082e-02 4.507159184538084840e-01
-9.317666623347968524e-02 -1.158968478271667907e-01 5.150492716828348749e-01
-5.518689513492409243e-02 -9.094565333238502358e-02 4.508828852951418109e-01
-8.586086972911469856e-03 -1.202893864564014009e-01 5.498404819373874375e-01
-8.613670830360720121e-02 -1.121243286904790581e-01 5.204870375122653270e-01
-4.786853543715121478e-02 -9.059818212926692982e-02 4.521088200232385446e-01
-6.774029781759072222e-02 -1.017273844164476443e-01 4.575800687832303759e-01
-6.677239040155646954e-02 -6.075015367214312706e-02 4.381070536923860614e-01
-7.737634739424488484e-02 -9.283760075606772855e-02 4.491871833358311306e-01
-4.958447541468107705e-02 -1.054959020261619917e-01 4.661074575544588150e-01
-5.228262464983889080e-02 -1.102069704356796048e-01 4.725295820414433523e-01
-1.200082963212862758e-01 -1.108749287588953192e-01 4.753763652402618334e-01
-1.213987290179644740e-01 -1.098985224944691169e-01 4.771075180101295166e-01
-4.768588118637991785e-02 -5.842810457851810996e-02 4.398638286090699734e-01
-2.446212351298977100e-02 -1.010527216405603945e-01 5.562718902458271275e-01
-7.403501161764337868e-02 -1.026696850364632596e-01 4.573326540075093871e-01
-3.647199268052567223e-02 -1.204590892152030274e-01 4.973021308567423526e-01
-7.062584884197078972e-02 -1.158812357941624710e-01 5.261833521585199680e-01
-1.588359891243063676e-02 -1.137196046055456433e-01 4.734513357818221913e-01
-8.246838145596828429e-02 -6.783789734090578394e-02 4.406099766045905031e-01
-1.952264674285597232e-02 -1.192580231566394006e-01 5.510016890792869271e-01
-8.394024531416134638e-02 -1.010405935071423678e-01 4.542229693544213576e-01
-3.606760208520053135e-02 -1.128031448285949229e-01 5.434380923868878943e-01
-1.682146670052325765e-02 -1.159885892374228622e-01 4.776350299916654607e-01
-5.572652841545283099e-03 -1.274224209103925476e-01 5.296305311037536878e-01
-3.800410764561319710e-02 -1.211270016560658802e-01 5.344213982124512707e-01
-8.957032072954670965e-02 -8.770301844176955908e-02 4.466903783391624749e-01
-5.858689036935134375e-02 -1.180764567254502101e-01 4.883106241348566523e-01
-4.556003080036035574e-02 -1.217775445932735706e-01 5.205173731810323057e-01
-1.025839563271763004e-02 -1.278279807743027685e-01 5.214647292153035130e-01
-4.760405107620498122e-02 -1.039335483157806800e-01 4.643761833969869968e-01
-2.325256158940451623e-02 -1.249343590474424198e-01 5.196045185942638200e-01
-6.395147231417361300e-02 -1.033682569827538422e-01 4.599484616184165153e-01
-5.748111595370705706e-02 -1.094605130283311800e-01 4.698895993905768398e-01
-7.369534815549411144e-02 -1.191154336787914464e-01 5.210330106381039217e-01
-1.156397845719714795e-01 -1.143964338131560204e-01 4.715183200833040766e-01
-6.470645846695617653e-02 -1.134717963214899178e-01 4.752690660435560099e-01
-5.041495221655893644e-02 -6.364730997830855830e-02 4.408093777362300791e-01
-1.138535081753992706e-01 -1.020363013389306017e-01 4.627078503950807775e-01
-3.859960244982633959e-02 -1.065043026299160867e-01 4.685265782128964496e-01
-2.956477147409728411e-03 -1.289840198792515380e-01 5.150795346534066121e-01
-9.770953111924819690e-02 -1.238628206169913731e-01 4.697509071020308236e-01
-3.983737338241664927e-02 -1.211385399595750340e-01 5.335287502259636883e-01
-5.171912472552481210e-02 -1.193601811277437003e-01 5.284004315433098453e-01
-1.155359230031667572e-01 -1.215370273082905100e-01 4.905935494305431743e-01
-1.066573161866946201e-01 -9.191346136825694069e-02 4.575751668054921506e-01
-7.801567381836721493e-02 -7.993457731526604215e-02 4.413743707034160080e-01
-9.092464284989006107e-02 -1.209416611633401806e-01 5.112378576656591012e-01
-1.215960414239066097e-02 -1.266148865730452877e-01 5.285444042252644969e-01
-3.791670427347439837e-02 -1.221627877991631889e-01 5.084517879382995931e-01
-6.394689468717057457e-02 -1.095409240853533334e-01 4.682403280149533553e-01
-3.859563773558511574e-02 -1.111925650350670258e-01 4.756515282786084042e-01
-7.161553733373002273e-02 -8.233519611357809076e-02 4.426884297378629318e-01
-1.007336965263237599e-01 -1.239488607439693801e-01 4.888548096091191453e-01
-1.034635220255088195e-01 -1.167736962096278391e-01 5.062062079841508355e-01
-7.388282976519915113e-02 -9.635498448213572487e-02 4.521999493356890776e-01
-3.573365042392256941e-02 -1.136672364571879590e-01 4.799869404549832463e-01
-2.190951861132056644e-02 -1.101656566639613172e-01 4.710206739372795881e-01
-9.202135992261120667e-02 -1.203958840579573419e-01 5.121888436606065742e-01
-3.128347079954423710e-02 -1.101812868811593293e-01 4.734771577379662255e-01
-9.289179669820585294e-02 -8.280392336745337478e-02 4.474164934180450692e-01
-3.040113782192275377e-02 -1.120064523511793558e-01 5.486004428661328536e-01
-4.075519549317457163e-02 -8.524135365654739172e-02 4.498137309677999740e-01
-4.431875172925894835e-02 -7.013636391712098350e-02 4.430826035573444677e-01
-9.131375942147964414e-03 -1.202796652890771173e-01 5.503285183462317542e-01
-8.986446662191618917e-02 -9.955484522825046312e-02 4.524812330416614348e-01
-5.022426280141481514e-02 -1.201015694973575354e-01 4.982298770737998428e-01
-2.744370347054143205e-02 -1.151620312658131612e-01 5.505239625932394354e-01
-2.520891432175778948e-02 -1.217930153418125688e-01 5.420898261203576096e-01
-7.602090125914455487e-02 -1.221154488151222212e-01 5.127243183696164053e-01
-8.924248273045248814e-03 -1.121375266371164997e-01 5.618413917988390738e-01
-5.822090101623732944e-02 -7.285131362736438354e-02 4.424851557346696773e-01
-2.711754813979296713e-02 -1.240787868227209018e-01 5.168367422981086090e-01
-7.221690722726578637e-02 -1.174210523674352052e-01 4.799220434876291241e-01
-1.543114260867208161e-02 -1.250247005351943774e-01 5.347830573833778356e-01
-3.613042482704651587e-02 -1.096557307663444392e-01 5.438489401576497295e-01
-4.194448433767512807e-02 -1.114599576526345420e-01 4.762800412840072495e-01
-8.342403503192245828e-02 -1.206674858020778812e-01 4.840794337116566259e-01
-4.736629650842340972e-02 -1.216020681753980093e-01 5.222001397408454482e-01
-9.397936449853969143e-02 -1.236207630659457990e-01 4.958247587912330556e-01
-7.983793363937413678e-02 -1.231601765843856611e-01 5.021341222992359299e-01
-6.519569331406446788e-02 -1.152157293576873409e-01 5.282023240042253986e-01
-1.756392562472644525e-02 -9.856917759461490680e-02 5.651725418587141281e-01
-4.589086271306194731e-02 -1.200800817886669425e-01 5.319432188488512070e-01
-3.911320469021344753e-02 -1.203270696718882760e-01 4.976536139022637584e-01
-3.889920687989392722e-02 -1.133907304797479726e-01 4.795158634959399979e-01
-4.883189545071912191e-02 -9.173766187112092352e-02 4.526984583494308989e-01
-6.833784983873554542e-02 -1.068410247858864875e-01 4.629165325803407671e-01
-1.650075906179364338e-02 -1.264861101499587526e-01 5.247507848452729329e-01
-7.950465662532164857e-02 -1.019199964187352953e-01 4.556235368127899976e-01
-2.761820957138488852e-02 -1.073280509149030920e-01 5.532702472014714434e-01
-1.362987865294528270e-02 -1.271652485279608780e-01 5.203546494137967215e-01
-9.370728112157564182e-02 -1.175861250829411397e-01 5.137946852328504344e-01
-8.304366054393223784e-02 -1.105597028990815550e-01 5.224105690533352719e-01
-2.511703975043839965e-02 -1.148445320603370540e-01 5.537057844864181622e-01
-1.033811503265763404e-01 -1.108459298959809242e-01 4.617003302359829475e-01
-1.000550932579322982e-01 -1.072346186708534044e-01 4.580941808379374591e-01
-4.296063280850310334e-02 -9.898880128114340149e-02 4.599832922273827118e-01
-7.418218507800405925e-02 -8.016565064258714124e-02 4.413458413622764476e-01
-7.779596321698400985e-02 -1.228401525266537703e-01 5.060183713871632127e-01
-4.198971118237084660e-02 -8.008654005641011042e-02 4.471398213004514344e-01
-8.553179423746409826e-02 -1.214171359290464186e-01 4.853244076553298036e-01
-1.393285383970703853e-02 -1.252028377583762064e-01 5.340705701152276275e-01
-1.243327540659900504e-02 -1.149553597423646767e-01 5.589330329894326432e-01
-3.294401065207879648e-02 -1.227176086078116124e-01 5.093369079409379996e-01
-6.039411444581890831e-02 -1.070858308310434631e-01 4.653526804037836917e-01
-6.009573161533005720e-02 -1.200520604007553199e-01 5.238128057862727616e-01
-1.533020709003773789e-02 -1.160458843270333884e-01 4.770930171010595577e-01
-7.577172527657954904e-02 -6.065025946068267060e-02 4.384522941202734780e-01
-9.523032911925742583e-02 -9.017740610874408480e-02 4.489212029758108402e-01
-8.354339360035743789e-02 -9.423955036382901385e-02 4.495880170454977232e-01
-3.729583183733146262e-02 -1.226817671225053086e-01 5.177966522494571455e-01
-3.231875722260362654e-02 -1.150969860764040897e-01 5.458694575938055626e-01
-4.055326039968128182e-02 -1.187835346532572639e-01 4.921460306798641771e-01
-3.210217998867724576e-02 -1.233104839477846132e-01 5.216432568884252774e-01
-5.105468253191339234e-02 -1.102004852801452411e-01 5.374693581889216087e-01
-5.823896866104437409e-02 -1.073100024864060559e-01 4.663141019102269857e-01
-5.232703207989439220e-02 -1.087094705386354582e-01 4.699338538832087964e-01
-1.629136914487212817e-02 -1.165944728479487297e-01 4.785728824487056610e-01
-9.922205570217824955e-02 -1.041692339240390536e-01 4.557818946223471945e-01
-9.378736485312831606e-02 -8.561239447420289361e-02 4.471452115129394000e-01
-3.822534553001816909e-02 -1.223461537736804383e-01 5.259144938540687431e-01
-8.848394586065171097e-02 -9.935949922479896113e-02 4.524390918616434387e-01
-4.957940182151800157e-02 -1.085170950292960457e-01 4.703907567531638856e-01
-9.177394967696875239e-02 -1.014137178023000185e-01 4.536361411610888017e-01
-6.296985186314278671e-02 -1.178637472457260971e-01 4.861664704508693036e-01
-6.893008895325053453e-02 -1.187418147729432660e-01 5.222607241244492382e-01
-1.044655030413507157e-01 -1.143274019615945214e-01 4.653103231935098449e-01
-6.496503834472226735e-02 -9.213847207599477895e-02 4.500256640358749616e-01
-4.691131154726375235e-02 -8.014840173209761276e-02 4.466905429376846204e-01
-5.118875103735514437e-02 -1.061974045991034427e-01 5.383810846348813239e-01
-8.866985516316902571e-02 -1.197877753402145085e-01 4.694641270853489035e-01
-5.901446941693194032e-02 -1.217940509243754521e-01 5.090247129202548626e-01
-3.135999998697022034e-02 -8.536799755416588087e-02 4.497113576716322836e-01
-4.485810265083831072e-02 -7.570456089525709475e-02 4.451588793266800237e-01
-2.703758376032600053e-02 -1.075157493126544656e-01 5.543008515978072870e-01
-1.033276532907703715e-01 -1.219241619054750730e-01 5.007842567319263916e-01
-9.242368099754580402e-02 -9.400092789354271006e-02 4.495446949901280576e-01
-4.721375070129597840e-02 -6.213243356916597210e-02 4.406213324696911515e-01
-7.187849881373456484e-02 -7.098975966696717543e-02 4.388247415862560064e-01
-1.101237545471122764e-01 -1.227244701006011685e-01 4.889522430926534491e-01
-5.284048657504703678e-02 -8.369621068270755027e-02 4.472007708507928503e-01
-3.604696570245906340e-02 -1.219976346733841754e-01 5.313909028047170136e-01
-7.598448295246412743e-02 -1.209471592138061241e-01 4.891636881344029186e-01
-3.288393149013104505e-02 -1.186079597255356582e-01 4.905366858636635019e-01
-1.128538374234220737e-01 -1.150949918530287386e-01 5.009700090065271061e-01
-4.301762994655691785e-02 -1.194060274193637500e-01 4.942576566992147313e-01
-5.969591663583423413e-02 -1.201119808426653890e-01 4.959642703497788019e-01
-8.678022762350619257e-02 -1.228850660101176440e-01 4.919693476868408077e-01
-4.037388315940329542e-02 -1.218791306837984784e-01 5.075111055144279071e-01
-5.275795016901013018e-02 -1.134979697345434024e-01 5.347524883552805530e-01
-6.218382012599620728e-02 -1.114448744385173468e-01 4.719084265760268293e-01
-8.944164667008634717e-02 -8.200631370449422419e-02 4.449391232775132821e-01
-9.941308840760629262e-02 -1.130459312157502255e-01 4.620582563859489400e-01
-7.079690709168000307e-02 -1.082660716494694003e-01 4.641987027213453909e-01
-8.544492254677880927e-02 -1.224228229407535035e-01 5.091126378909658357e-01
-2.199098785660499530e-02 -1.015809545885226067e-01 5.614866087195892197e-01
-6.827511050744043686e-02 -9.607450002897487129e-02 4.526020282215727497e-01
-4.041924250673403080e-02 -1.219553169757916083e-01 5.276659465747947086e-01
-4.776840680071599982e-02 -1.151744432830269921e-01 4.826557337244592460e-01
-1.160656048394290846e-02 -1.165939322607011525e-01 5.568171180901519968e-01
-8.621155562602639266e-02 -7.389222981291734826e-02 4.421857865984078484e-01
-2.585481300846711669e-02 -1.021715139617006968e-01 5.541491024040153812e-01
-1.013314055008765341e-01 -1.159784797805848006e-01 5.098809149601528645e-01
-8.580538725412537038e-02 -9.664239997903080470e-02 4.508982376728885022e-01
-9.011496081041799056e-02 -1.222481377016033655e-01 4.846502202845551222e-01
-5.217276307499418841e-02 -1.032565352710334283e-01 4.623473073205278117e-01
-6.830709761595277207e-02 -1.217102051664113727e-01 4.982902014438799765e-01
-8.307940737688837562e-02 -1.129413423508950909e-01 5.217797175678809962e-01
-8.295138801906543069e-02 -1.117530256613435274e-01 4.637152559775032379e-01
-6.599255404923200230e-02 -8.836182381865034796e-02 4.473005312641843978e-01
-7.220639661026756473e-02 -1.099286388750994187e-01 4.659140795536820256e-01
-2.527123912816033394e-02 -1.047318046902521865e-01 5.560893210824736643e-01
-9.312551274785980937e-02 -9.378146457676907188e-02 4.494767241083418852e-01
-7.923842639192264781e-02 -1.185935598325251195e-01 5.197336012994974164e-01
-2.047645687009108997e-02 -1.255943738370368379e-01 5.202725179026391755e-01
-2.333202142730652143e-02 -1.127635901010650005e-01 4.759647643285856988e-01
-7.694239518473845740e-02 -8.811338289409662017e-02 4.460886072425859217e-01
-1.124664380381499434e-01 -1.211673996826759803e-01 4.802498044752309125e-01
-4.082998903493580134e-02 -1.131300894068575646e-01 5.408395183351205615e-01
-1.990467305407820145e-02 -1.210592302261534470e-01 4.907761471422286692e-01
-4.051478811405710700e-02 -1.093636565917127795e-01 4.727020445426813877e-01
-1.014063315150195432e-01 -1.219929148736700053e-01 4.734196832628902452e-01
-1.128392233241358733e-01 -1.213885317376267453e-01 4.819810385410590592e-01
-6.321498035109653080e-02 -1.183559108632239315e-01 4.873962215204334925e-01
-5.961807018466354358e-02 -9.388099526850660070e-02 4.521130321793142559e-01
-5.658711055775457466e-02 -1.063595081940179599e-01 5.354292156270833436e-01
-3.818364568787239316e-02 -9.658854769615381197e-02 4.585344227835306818e-01
-9.224779424954546170e-02 -1.013344026488102734e-01 4.535495738631359908e-01
-4.915704384446606401e-02 -1.207968430246147556e-01 5.022903237637766916e-01
-5.984115536836723259e-02 -5.914721809619901544e-02 4.389926177499956506e-01
-8.043810952933384828e-02 -1.159391936488652769e-01 4.713576450348582747e-01
-1.128292857935829091e-01 -1.198064604184356230e-01 4.986875679366040703e-01
-3.514943662227656973e-02 -1.221661724353763218e-01 5.067166729548094883e-01
-1.054428764205681546e-01 -1.129410328989201989e-01 5.074075220133300590e-01
-5.878966897940818975e-02 -1.159538001285814190e-01 4.825712653352439152e-01
-7.594872363474966526e-02 -8.502868588425038787e-02 4.440723714775406394e-01
-7.481920271783321086e-02 -7.264299711459670794e-02 4.391456430269186639e-01
-1.017891749561805614e-01 -1.091328447395996382e-01 4.598957768970816096e-01
-8.571518989098839136e-02 -1.017115468049450827e-01 4.544546040153291666e-01
-8.561206270291804588e-02 -1.050984400573253819e-01 4.569580996564289732e-01
-1.666163691904233579e-03 -1.290520779909202775e-01 5.151296015129864792e-01
-5.720597704071901657e-02 -6.838080578463616443e-02 4.413334909294260866e-01
-7.181772041726820766e-02 -1.174151906167915094e-01 4.801517888835442061e-01
-7.411146009873589846e-02 -9.996640311469257023e-02 4.549441532914494379e-01
-1.146520516290344682e-01 -1.024585364475718435e-01 4.638689545205453291e-01
-9.335503682566469175e-02 -1.235810225315332883e-01 4.888491132588497767e-01
-2.645691529119643948e-02 -1.217240786780158374e-01 5.412632745075871554e-01
-1.179607607149316256e-01 -1.182477657615070565e-01 4.916323200712494623e-01
-2.091590198443061405e-02 -1.182619730092345639e-01 4.838322889210014965e-01
-8.333213548250860414e-02 -1.207172369712701254e-01 4.825877743976281775e-01
-1.054331313887956478e-01 -9.024380161958128754e-02 4.572590069312774674e-01
-5.210048762740686346e-02 -1.018795197646169270e-01 4.604562056164654416e-01
-1.111577354615748275e-01 -1.081744724714619743e-01 4.615637614307066539e-01
-1.020228825523763205e-01 -8.767416461129970418e-02 4.547605035904677684e-01
-3.877320358475613848e-02 -1.216300501682234386e-01 5.310287408581481072e-01
-2.417165479082430957e-02 -1.164946458786032257e-01 4.829371460327558374e-01
-3.120559612218955572e-02 -1.193956114337843266e-01 5.430720576874163985e-01
-8.271069177812412354e-02 -9.706816128913527131e-02 4.515934167434369484e-01
-2.938662103570712988e-02 -1.212900640459159546e-01 5.397908928522591188e-01
-3.319308393260305551e-02 -1.213514517005818694e-01 5.003169718420622525e-01
-8.063767336583155254e-02 -9.181366541324495478e-02 4.482473312290415346e-01
-7.728234718531476477e-02 -1.218054421706223633e-01 5.138058344261026145e-01
-8.951381012235158641e-02 -1.123916193033807909e-01 4.619566964692117805e-01
-6.109871856773608362e-02 -1.130596418128119868e-01 4.754145948675834732e-01
-2.736347252520762025e-02 -1.028666068439181847e-01 4.632802917943465992e-01
-4.179740861180190198e-02 -1.143099941108224604e-01 5.395655889492793067e-01
-7.412431899641538924e-02 -1.095719161048966939e-01 4.647497333469345904e-01
-6.297683474607662646e-02 -5.753910061856451486e-02 4.382732299433300116e-01
-5.403155229676672583e-02 -9.359843597174533070e-02 4.528210613568797172e-01
-2.715330732340631367e-02 -1.151239801273897939e-01 4.816588570228342303e-01
-5.197934770575450558e-02 -9.645060262301864695e-02 4.556760013865412962e-01
-9.928993847469869127e-02 -1.191836790425156306e-01 4.672129375805308404e-01
-2.467484253219819762e-02 -1.066370181946460771e-01 5.568343813024381195e-01
-8.684870297102970094e-02 -1.053076180629348713e-01 4.569355581741715855e-01
-1.062090176972109862e-01 -1.233031656620917627e-01 4.950410421284084372e-01
-8.557222858310854774e-02 -1.114551118091518800e-01 4.627212301142738515e-01
-7.205997985932610650e-02 -1.049099421959049649e-01 4.600758918829858102e-01
-4.908906147569450096e-02 -5.774847972876986923e-02 4.396838600978626999e-01
-5.525494959843123277e-02 -1.103627740348721159e-01 4.719542317456915659e-01
-5.428427619882428973e-02 -1.202412703253790960e-01 4.983277756018346105e-01
-3.663107100594574506e-02 -1.162188224647945078e-01 4.853192816519923958e-01
-8.045369634661314606e-02 -1.162495273711542237e-01 4.717296986879873089e-01
-9.710667813622978969e-03 -1.202135414236892158e-01 5.506284575594856401e-01
-8.269372703043229023e-02 -1.206027195308661398e-01 4.813568012115356787e-01
-5.688296159290930770e-02 -1.058886874463907529e-01 4.646662695544986343e-01
-5.218939440858121059e-02 -8.117342834668983542e-02 4.463527092461875290e-01
-4.422714719238313857e-02 -9.994468937954109622e-02 4.605183340842702311e-01
-1.080630862690719063e-01 -1.228188404442275006e-01 4.845148164888081199e-01
-7.365605375097936114e-02 -8.969758355848146680e-02 4.473765668680608765e-01
-4.819677093412308433e-02 -1.216989348182730274e-01 5.195357767657279302e-01
-3.590734461742667999e-02 -1.218935549801713203e-01 5.047612496182335429e-01
-2.773087721698173219e-02 -1.203762029408975975e-01 4.934444417959361062e-01
-8.524903603156299553e-03 -1.014552468045796935e-01 5.681455799903353254e-01
-8.598961096882123956e-02 -1.006848163448670619e-01 4.536809375117177856e-01
-1.020541397482232909e-01 -8.785173590834081947e-02 4.546585861482836943e-01
-8.434190290348191066e-02 -8.657404907245011549e-02 4.451026506008040617e-01
-1.721544852515479590e-02 -1.187461847010253119e-01 4.832961505999144314e-01
-8.338879098411580704e-02 -8.533640790404635468e-02 4.443714470074241474e-01
-5.668869624487958558e-02 -1.148546865963061131e-01 5.322134700884606495e-01
-4.038088235270008430e-02 -1.134793871341505667e-01 4.796956551256308376e-01
-8.298726812605276837e-02 -1.131637817780824090e-01 4.653193896922874773e-01
-2.375940380862223006e-02 -1.238165629873036744e-01 5.341821361349353703e-01
-4.535227383360550951e-02 -1.078851161928340990e-01 4.703453696633542180e-01
-9.814040434333770602e-02 -1.148467196375410615e-01 5.128506137658962460e-01
-6.782355245172763669e-02 -1.175766554286424986e-01 4.832250187422472698e-01
-1.175751879811618439e-01 -1.181308305493713601e-01 4.829024303561777476e-01
-2.330319959114282233e-02 -1.215431245082453510e-01 5.440942885942088303e-01
-4.903563261722230365e-02 -1.178832921198888634e-01 4.889954918027613617e-01
-6.576255110803709558e-02 -1.214851629853945791e-01 4.993921439782738059e-01
-9.749828216125314140e-02 -1.234404086232695902e-01 4.832786552958776571e-01
-1.104118898073256916e-01 -1.079212054828354861e-01 4.610955057347654318e-01
-6.065429878202685532e-02 -1.216677582546015768e-01 5.044549006574828853e-01
-7.594460634339406102e-02 -1.199843795257270612e-01 5.191769954146125965e-01
-9.820999262923749140e-02 -9.778111214640847204e-02 4.519750238797418662e-01
-1.145663871286611013e-01 -1.045859256325620129e-01 4.636715581562914079e-01
-8.214552698168686717e-02 -9.162180163134207855e-02 4.481235709997844485e-01
-6.906454726546197576e-03 -1.280164133054123576e-01 5.099565635467928626e-01
-1.010382257088321967e-01 -1.239082816521324959e-01 4.873373340477910598e-01
-6.914406384317894894e-02 -1.086289635626656730e-01 4.650944707796302313e-01
-6.885252857432641940e-03 -1.208457578787996839e-01 5.467822822331243060e-01
-9.154298267927647725e-02 -1.017750983645227536e-01 4.539011013788359916e-01
-2.737195316067476264e-02 -1.004061093727721954e-01 4.606820032309839608e-01
-8.493345796995827035e-02 -1.112825655655157731e-01 4.627679711124345618e-01
-8.760245359399709830e-02 -1.229943497607031422e-01 5.028947979002060809e-01
-2.109766647597549616e-02 -1.224311062019304841e-01 5.432758054231922040e-01
-9.575168501824080081e-02 -1.226119582422389998e-01 4.802845279464811878e-01
-4.737353475724320750e-02 -8.336626328422772070e-02 4.479736842474583702e-01
-9.102321561759763036e-02 -7.988750333658616032e-02 4.467506145966127495e-01
-1.915910703890954386e-02 -1.226000192329955996e-01 4.951204973022335643e-01
-6.062491820952606997e-02 -1.191634395530707380e-01 4.917460037743683343e-01
-9.703377944404937075e-03 -1.272497739418277929e-01 5.075886102889368701e-01
-4.981003035386286776e-02 -1.081098356171728697e-01 4.696115241188179579e-01
-9.991921717092684674e-02 -1.139848049977804229e-01 4.633406328029510135e-01
-8.006290007160284106e-02 -1.216162714814181811e-01 4.914658667207639775e-01
-7.346642513460542590e-02 -9.471727395204457278e-02 4.509644640616455868e-01
-6.564897165969310611e-02 -9.389680580988231384e-02 4.511880145339591808e-01
-1.396718146712216252e-02 -1.239535875541182969e-01 5.395839458466756833e-01
-7.569443169185580134e-02 -1.067026297455395123e-01 4.609900285640141648e-01
-7.657423565168185176e-02 -8.643787726385351866e-02 4.450085742686963330e-01
-3.883126253171931969e-02 -1.214647372687498866e-01 5.031539696283773289e-01
-4.982881575573936545e-02 -1.203425051593685069e-01 4.992918291986114254e-01
-5.248254203962868236e-02 -1.114302040192098053e-01 4.747338720567767512e-01
-5.346887968026137194e-02 -1.097998926536275371e-01 4.714670618343567710e-01
-7.014113296974198997e-02 -7.371539608537990007e-02 4.399570577845359765e-01
-5.099813929437216342e-02 -1.145379403506415761e-01 5.349647296390414031e-01
-3.245085840503467156e-02 -1.127446760722619068e-01 4.780760756911044407e-01
-1.172796731469567255e-01 -1.086977064659447739e-01 4.693690136739700480e-01
-5.761098149963714277e-02 -6.335775915120404889e-02 4.399785267090405849e-01
-8.533403098847864091e-03 -1.159904341464618321e-01 5.575230401381000567e-01
-1.457727394652939129e-02 -1.212431266128276841e-01 4.880114851693146405e-01
-5.886868225718303732e-02 -1.182130724628956964e-01 4.886559953837990578e-01
-2.948867378632491487e-02 -9.880004935449923642e-02 4.599461788382326333e-01
-5.259120613652860932e-02 -1.217365679423599856e-01 5.161544475971551194e-01
-8.287486371677231511e-02 -7.074961014425001915e-02 4.402548929771855635e-01
-1.027961068829603281e-02 -9.626707876029633182e-02 5.698179276081594136e-01
-1.125986604495133603e-01 -1.186362891159731675e-01 4.745448935926751544e-01
-6.621733871342204425e-02 -1.101059616348413067e-01 4.685254559209838798e-01
6.298178473971797608e-05 -1.290161094448361023e-01 5.219865996937835817e-01
-2.730452780168201102e-02 -1.222043323048227353e-01 4.995427230729560519e-01
-5.387369995362167874e-02 -1.083647940412873351e-01 5.364643379790102751e-01
-1.421073938512663025e-02 -1.242082233934816426e-01 4.971846108055517077e-01
-3.820963666614638626e-03 -1.278384202601449693e-01 5.290016978838520956e-01
-8.781284057250561548e-02 -1.179316225910985033e-01 5.161621379159431200e-01
-9.031190016954962485e-02 -8.191882753813402307e-02 4.457183665042803722e-01
-6.138026622021423157e-02 -1.088635156425413614e-01 4.678360759399203816e-01
-4.643605421502465525e-02 -1.177297404799901304e-01 4.889776316472763673e-01
-7.590805466834053827e-02 -1.222059295422530528e-01 5.118708170058697826e-01
-7.285377972711103156e-02 -1.184402257383725399e-01 4.819578407853263302e-01
-1.000657151533317635e-01 -1.137268827899904772e-01 4.631108105042011647e-01
-6.679128950576386503e-02 -1.125140160086695040e-01 4.726184169738461560e-01
-6.930928618470220959e-02 -1.146728727784262630e-01 4.757500905078786424e-01
-3.911816725444918624e-02 -1.179044485782021201e-01 4.893655138241944091e-01
-1.058962903676516770e-01 -1.234553411905189718e-01 4.933555338154775316e-01
-4.412210875363338503e-02 -1.026244117485311108e-01 4.635785951301808483e-01
-3.642986010155627175e-02 -1.047917562611173359e-01 4.666932924218213374e-01
-3.385037253763217846e-02 -8.337742365300283842e-02 4.486557550054299237e-01
-1.690600616563891351e-02 -1.202053357909225045e-01 4.865138846574011411e-01
-7.196990276032304290e-02 -7.387310487604348275e-02 4.396276668090740580e-01
-3.045034123137597970e-02 -1.229971912762261449e-01 5.077730128573390012e-01
-5.213274784521531452e-02 -1.014761005361886070e-01 4.598867433920493797e-01
-6.089149017156754440e-02 -1.137835925926377750e-01 5.310835195883796267e-01
-1.188466544141537351e-01 -1.129003872500737443e-01 4.760609909042608501e-01
-8.798934665529954680e-02 -1.179214546494824212e-01 5.160899371702324379e-01
-8.739858054347172944e-02 -1.227726721044631042e-01 4.906245779646606908e-01
-6.674355977596371781e-02 -1.210563564166150102e-01 5.179457489310984597e-01
-6.619922721520900277e-02 -9.630524400248632877e-02 4.530046768451064243e-01
-1.149494301602072416e-01 -1.064854222757363605e-01 4.648162163282628101e-01
-7.312715254989000935e-02 -1.118224292574541978e-01 4.686005724411439477e-01
-7.014279385785264498e-02 -1.223087933494843571e-01 5.010360068951064116e-01
-6.042828126788328535e-02 -1.219226792124518677e-01 5.087740352197253069e-01
-8.321688215472879124e-02 -1.206755231030184061e-01 4.833366275029497561e-01
-8.087756211452418187e-02 -1.067948855688143350e-01 4.595490679544670387e-01
-4.219195144884218401e-02 -7.689469162075983355e-02 4.457237203201754872e-01
-7.934757660525949829e-02 -1.231195701237252915e-01 5.020381002721781005e-01
-5.955613270257276853e-02 -1.171045026354842339e-01 4.853956093012776751e-01
-1.048690776618628473e-02 -1.272768526476702466e-01 5.256196279702038954e-01
-1.004527154152459190e-01 -1.239961456934943612e-01 4.926531404650107970e-01
-6.542011860508382959e-02 -1.219255022425794616e-01 5.038862592392852058e-01
-9.736033326064492954e-02 -1.232457060637406898e-01 4.822643331770443687e-01
-1.668371885137185512e-02 -1.260097132768395745e-01 5.082994041329949031e-01
-2.318821738235938082e-02 -1.058213872100542685e-01 4.654387113939567611e-01
-2.263545951820625929e-02 -1.232685067934123357e-01 5.382893753614607091e-01
-5.520201000659629570e-02 -1.043050094301642000e-01 4.629253716124174800e-01
-8.878579444759980566e-02 -1.232831808758545755e-01 4.962736148832389005e-01
-1.085284568871708669e-02 -1.006088540401102877e-01 5.680210290830086661e-01
-1.124366850350370095e-01 -1.207804199761447345e-01 4.787672547582175753e-01
-7.839004843641167453e-02 -1.182427801093561687e-01 4.774075173998134081e-01
-1.000248433696269146e-01 -8.556964611367648410e-02 4.537308786757881518e-01
-2.066789949052911385e-02 -1.246659152703445822e-01 5.337444169942936467e-01
-3.394731846593016661e-02 -8.118355175126205914e-02 4.473800903638846527e-01
-5.815522659398656563e-02 -6.313590211872519009e-02 4.398877476718798807e-01
-7.197560372992370392e-02 -1.045564631895964103e-01 4.597278805014518577e-01
-1.478042784664665432e-02 -1.217739587200781654e-01 4.895997273845895670e-01
-1.143804496693608119e-01 -1.199688890951607356e-01 4.948592681404145321e-01
-4.895640758343559884e-02 -6.472468960751173728e-02 4.412369493990527247e-01
-1.165967842766528900e-01 -1.177684495284124916e-01 4.787227553339595265e-01
-3.639369930305853124e-02 -1.128398790740234303e-01 4.783659371655057946e-01
-7.752281041090626490e-02 -1.208875582564201551e-01 5.165521074823068437e-01
-6.337103564075478868e-02 -9.865801252853675929e-02 4.552847625215468708e-01
-2.084008544801745424e-02 -1.250755640647136235e-01 5.087854527847223141e-01
-5.233349106017774754e-02 -1.218870876652946023e-01 5.140008914215606906e-01
-7.278310604432963737e-02 -1.227481608995570211e-01 5.064165777454195938e-01
-1.464066349665403728e-02 -1.235059309608443207e-01 5.418308010710686240e-01
-4.558242442152070362e-02 -6.006905552555671240e-02 4.402938234709865006e-01
-4.566907352079264959e-02 -1.217416523640927201e-01 5.096304476207154099e-01
-6.125869055310874389e-02 -1.208025984000823672e-01 4.986294640004134138e-01
-1.911034213398484297e-02 -1.220381776324059586e-01 5.455316275633845802e-01
-7.271603761040441871e-02 -6.078399591296716753e-02 4.379634381052681658e-01
-2.722992142800422996e-02 -1.238849308190515530e-01 5.121773191648627543e-01
-9.219627260862314766e-02 -1.160852499110657660e-01 4.623814387443377916e-01
-3.884333497376278588e-02 -1.143845883843472855e-01 4.814322761045175536e-01
-3.588920909977545010e-02 -1.086522594071628600e-01 4.716929029775842608e-01
-2.838368722822507545e-02 -1.068214605298265091e-01 4.683516366818217813e-01
-8.009027793354006608e-02 -1.174573289115350277e-01 4.739196455214697012e-01
-6.856049738388360348e-02 -1.221676619529440400e-01 5.106798070077526175e-01
-5.073803227888144113e-02 -1.182323173499933294e-01 4.903727710662581507e-01
-6.334902161661616626e-02 -7.963416641817526453e-02 4.433175359105039348e-01
-7.200401700703075447e-02 -1.127899648783515646e-01 5.279413231200408285e-01
-4.001363572486656833e-02 -8.126543031202018708e-02 4.475802772289649845e-01
-6.541959406750810779e-02 -1.220236448102652860e-01 5.050613682835294327e-01
-2.789544025725150533e-02 -1.215499558225069526e-01 4.973172728545687815e-01
-5.496500426974376685e-02 -1.083416031333571672e-01 4.686688077547268017e-01
-1.868247655979364194e-02 -1.258507537402251963e-01 5.137328574499161471e-01
-2.899510545037456422e-02 -1.236113986697546657e-01 5.122524312172719307e-01
-4.124241068141088623e-02 -1.202777363371813624e-01 4.979646077206062449e-01
-2.911844008432129885e-02 -9.226737077551312727e-02 4.544920352355167337e-01
-4.186763486153580877e-02 -1.111901971028268904e-01 5.411539534471285773e-01
-1.075276697480797572e-01 -1.037705015489018834e-01 4.571229170558271382e-01
-6.304623554923614870e-02 -1.012348933205765578e-01 4.578689864294373524e-01
-1.117250821361958080e-01 -1.157891593181860218e-01 5.017947111931537751e-01
-8.930069631744756709e-02 -7.316634113447037513e-02 4.462416695404296529e-01
-4.376400321655930098e-02 -8.599606270651617701e-02 4.499474806241576808e-01
-1.197226179112769878e-01 -1.062146786129731096e-01 4.736975683074765020e-01
-2.169500199187152437e-02 -1.158236271127325995e-01 4.799883479765664207e-01
-2.903564139553646561e-02 -1.153387141858440434e-01 4.827693906956033176e-01
-6.214745816989659943e-02 -1.207113506469693620e-01 5.206390204573900782e-01
-4.621204292963606436e-02 -6.220873135905991003e-02 4.407222864960584352e-01
-5.343266830623284031e-02 -1.211882633184377805e-01 5.216648624495847653e-01
-1.023024116424387925e-01 -1.235386941245636139e-01 4.966508778475222652e-01
-3.277191457962942006e-02 -1.181538907136220617e-01 4.892204787069611149e-01
-1.013560775500291361e-01 -1.237286971551279369e-01 4.956263131606165606e-01
-1.041266631507307694e-01 -1.130601388599834500e-01 5.083244562092589236e-01
-4.344323530789567095e-02 -1.010783966704926345e-01 4.619864652512351011e-01
-8.604360952778888905e-02 -1.191129340509315820e-01 5.159931549994151156e-01
-3.751494876761060637e-02 -1.096310271750851190e-01 4.730267719554976380e-01
-3.255760214557561205e-02 -1.157240383656179261e-01 5.454127394426461217e-01
-6.531896145845393631e-02 -1.079688891642466425e-01 4.651708881838211851e-01
-7.428697431466371737e-02 -1.201848771714672942e-01 4.859771522067226623e-01
-1.067185057930351566e-01 -1.190406175064227384e-01 5.028867509683520032e-01
-1.940302525593851080e-02 -1.134047156005493356e-01 4.747427613189536544e-01
-8.767815636702365467e-02 -1.221609993592296661e-01 4.868178615996553438e-01
-9.863006030383804357e-02 -1.236881624996779283e-01 4.959764914971980798e-01
-7.390830325674584145e-02 -1.215405126234953004e-01 4.933670787042722106e-01
-3.180606094451348537e-02 -1.227811028253097958e-01 5.080642350251386441e-01
-6.599057214871356658e-02 -7.212261552420888566e-02 4.403431979375957983e-01
-8.871272348507328043e-02 -9.286854735798373561e-02 4.487541022648895428e-01
-8.154249247499166520e-02 -8.097410988129083442e-02 4.422929657998309061e-01
-5.330638582930799507e-02 -1.075910934912400474e-01 4.680047301199323773e-01
-2.995830651038705258e-02 -8.783192793523947328e-02 4.511570217234944224e-01
-6.019644005514010465e-02 -5.919649384149255206e-02 4.389495803732139101e-01
-1.730799692280667740e-02 -1.258413862323302379e-01 5.300173523412629040e-01
-1.114838111635062592e-02 -1.110509314985995560e-01 5.625476834824444383e-01
-5.504927918135135018e-02 -1.169684475756016390e-01 4.859047028383233768e-01
-1.005176439091636648e-01 -8.609688143462029819e-02 4.539784151315763294e-01
-5.342820387688847206e-02 -1.217053504577089856e-01 5.160850198740342121e-01
-5.183079459727645000e-02 -6.796734688772652910e-02 4.419229095291906662e-01
-2.970220978287048050e-02 -1.233894703661148617e-01 5.285728823619242345e-01
-5.902410267565894042e-02 -1.210301618395486778e-01 5.010893682395071158e-01
-9.021482717791227957e-02 -1.235071960342065678e-01 4.979703304447352097e-01
-9.903540670526485290e-02 -1.155119839760514189e-01 4.641609832689263526e-01
-8.738893658862542657e-02 -1.035405414262142026e-01 4.555385857064191968e-01
-7.661771379689040484e-02 -7.969048559075281313e-02 4.411478709310429069e-01
-4.488381782145552806e-02 -7.197720554223954736e-02 4.437354509140142844e-01
-9.700500340722155446e-02 -1.130062570764269608e-01 4.613265890960506765e-01
-5.126119311703332404e-02 -1.142064619719861812e-01 4.804038413363944104e-01
-9.304466156847947256e-02 -1.236981127327230479e-01 4.721417101300133257e-01
-2.470687969260369765e-02 -1.212136975953012619e-01 5.439463976623003516e-01
-3.629578708710391732e-02 -7.556809831597924298e-02 4.449302797492372119e-01
-4.092428427008255182e-02 -7.987946710750133683e-02 4.469998800111831261e-01
-1.128319358911433617e-01 -1.221415801755035141e-01 4.868768412016291625e-01
-5.609603069079566878e-02 -6.635306181466854580e-02 4.408715023337505534e-01
-5.232910279746774695e-02 -1.093412141674878907e-01 5.370260833062752148e-01
-9.948355818094209435e-02 -8.629897920630587305e-02 4.521183799942312675e-01
-2.490081463016630484e-02 -1.241909313967954065e-01 5.102119077885771681e-01
-9.822584240505442821e-02 -9.848099428195802862e-02 4.523118710822941479e-01
-2.902544542786027019e-03 -1.244485274679726916e-01 5.362219047335974320e-01
-8.209668717566794005e-02 -1.145800210370635092e-01 4.681149502916560068e-01
-5.674291068761875417e-02 -5.894563337497787936e-02 4.393143004093187920e-01
-1.177629814903870392e-01 -1.052281532545728537e-01 4.699000719972170614e-01
-3.729211871090080260e-02 -1.226105373639086032e-01 5.210961656390256103e-01
-1.230608431175953844e-02 -1.257736783575381934e-01 5.017514022357645320e-01
-4.501984376199802407e-02 -1.169298397571663373e-01 4.868150137198273830e-01
-7.916750001717040575e-02 -1.068033054631939982e-01 4.600459961960035593e-01
-8.435927928690621636e-02 -1.184494669786071985e-01 4.713747226739526952e-01
-1.929272677804892699e-02 -1.252773142302083254e-01 5.312887450733736472e-01
