-3.000816426061063413e-02 -1.218411605491171029e-01 5.001430423665005343e-01
-5.853885703705806812e-03 -1.285307193191700947e-01 5.225049643267158928e-01
-1.929340011519054335e-02 -1.199297177749084481e-01 4.873486435689793339e-01
-5.076834510297022901e-02 -1.120552633113880842e-01 5.367726956747983502e-01
-8.414652854150016237e-02 -1.198339008105879788e-01 5.167417744417005521e-01
-1.103510360921467481e-01 -1.229459066159994118e-01 4.852984673318427866e-01
-1.052992879066876192e-01 -9.658518290820634900e-02 4.561126796087517365e-01
-2.440180108561713218e-02 -1.157510986039547024e-01 5.533393941499532565e-01
-3.479925239844584156e-02 -1.171803028599504581e-01 4.871428814704816812e-01
-3.903462534096031195e-02 -1.225395103185315943e-01 5.223959455827609233e-01
-2.716310511484610821e-02 -1.234890197759678648e-01 5.321374023034756151e-01
-3.047272757158064199e-02 -9.085155160633925919e-02 4.537876969703350527e-01
-5.118933845117052545e-02 -7.336929333465982972e-02 4.439497599762982083e-01
-6.793468794236291741e-02 -1.158538533743530830e-01 4.782720331638175004e-01
-5.700604076620905541e-02 -1.122479222474664085e-01 4.744480416485206131e-01
-5.312663940790451206e-02 -1.218373745812926096e-01 5.089647359335673915e-01
-3.270502351623093967e-02 -1.216469221836077447e-01 5.011684035572062657e-01
-6.120921085006555268e-02 -1.218527329208650839e-01 5.165560135319240409e-01
-1.136659100816770768e-01 -1.140362795595462608e-01 4.695673352292007441e-01
-5.310473173107685407e-02 -1.189654643323716926e-01 4.920833484299847460e-01
-3.622977214336334933e-02 -1.112640406601032167e-01 5.435339805602455998e-01
-7.059480512607832492e-02 -1.228527054765825993e-01 5.027089923763540247e-01
-6.354084854693689555e-02 -9.917207807611551351e-02 4.557533808585958468e-01
-2.404095759047080588e-02 -1.077741335914778886e-01 5.567737739884192072e-01
-7.089709204069598314e-02 -1.198998210627729710e-01 5.207739278847492992e-01
-8.932308399011469613e-02 -1.214765705199052359e-01 4.702084916354126176e-01
-3.980411808135461693e-02 -1.220375367110562992e-01 5.289261834055808409e-01
-1.009299810175953160e-01 -8.633619805279556247e-02 4.558820665280672868e-01
-1.105765351131360145e-02 -1.268707261214240267e-01 5.273141343997395092e-01
-5.880921182847861223e-02 -1.188325232723821540e-01 5.273641064799675648e-01
-2.903432292248322999e-02 -1.208167559638432670e-01 4.955379799831833854e-01
-8.584561131529759581e-02 -1.107570323691054737e-01 4.619786846317860962e-01
-2.863135194613554424e-02 -1.238262577789611546e-01 5.247258191837622654e-01
-8.019573268116211850e-02 -1.167901151033747947e-01 5.220205429194613167e-01
-5.150586385672596690e-03 -1.202499249737952747e-01 5.478558440831585719e-01
-3.459843871235411539e-02 -1.163689064451058214e-01 4.854171898908304916e-01
-1.007361112703731576e-01 -1.235972740669719627e-01 4.781540876370773407e-01
-9.242752072743287695e-02 -1.241954554991826082e-01 4.953133492950385075e-01
-1.098672325439531000e-01 -1.223149274756464705e-01 4.809237210493105263e-01
-6.086861474036821262e-02 -1.043228297355825729e-01 4.614349249301334388e-01
-1.681471422139869942e-02 -1.201888543300502488e-01 4.865740045488128884e-01
-6.875585016460526722e-02 -1.186579243302461895e-01 4.847297905505653093e-01
-7.756439444122360805e-03 -1.278486874460774692e-01 5.099876008163209962e-01
-1.045545121711083797e-01 -9.128213472099799830e-02 4.568948480314704019e-01
-7.140842596532068209e-02 -9.310627334720510129e-02 4.500629081849084612e-01
-6.281313824563662662e-02 -1.101096913214917039e-01 4.691465982775609445e-01
-2.771907034768568076e-02 -1.169310481317357708e-01 4.859173571692692040e-01
-7.813130316251708229e-02 -1.109767884067415916e-01 4.647486649773357459e-01
-9.883036647674217634e-02 -1.029434280111543587e-01 4.551691830414439921e-01
-4.066365646383782173e-02 -1.223573066502975926e-01 5.121389096458629497e-01
-6.742110918036320344e-02 -8.267794865483081568e-02 4.437502914285833544e-01
-4.859911930440654476e-02 -1.035048977919326707e-01 4.634788580486977616e-01
-3.187986593069695729e-02 -1.218850380240556475e-01 5.020183779644495914e-01
-4.737106084332848299e-02 -1.204545459946991248e-01 4.993009259598042981e-01
-6.041412100834847587e-02 -5.782836726997534621e-02 4.390061124097317524e-01
-5.213315950064095067e-02 -8.614281079175420408e-02 4.487936049563775454e-01
-1.004219220663381956e-01 -1.181474003151193330e-01 5.095082637994362562e-01
-1.489830375293471967e-02 -1.128455039013518679e-01 5.612399210626110024e-01
-9.158127536370447297e-02 -1.222352185516972084e-01 4.672123813180010243e-01
-3.931247403774226767e-02 -1.203974721414465682e-01 4.974496052527182521e-01
-1.821181414991838998e-02 -1.258136139790546060e-01 5.117572963777730077e-01
-2.539547221602422855e-02 -1.021257896982754321e-01 4.618514813175833011e-01
-5.226464202282095350e-02 -7.952493724068447623e-02 4.459232295673205004e-01
-8.309278357403493409e-02 -9.991146807467581048e-02 4.536238613818922571e-01
-5.092066550353149118e-02 -1.011021676289338284e-01 4.597843541831505010e-01
-3.781607488133000017e-02 -8.933570618154172693e-02 4.527301938782395396e-01
-6.965458756607161017e-02 -1.151165166624657649e-01 5.278545215559238279e-01
-1.185182206774193781e-01 -1.151037100598918395e-01 4.848389522350632919e-01
-2.263335472197757284e-02 -1.195195362633836300e-01 5.487778512329393177e-01
-1.010953320883313244e-01 -1.189499877108819020e-01 5.077315515461046092e-01
-6.144492539939327980e-02 -9.362997439218534446e-02 4.517362487956306238e-01
-3.954839465169670415e-02 -8.552343005792942265e-02 4.501726790524554489e-01
-5.290216301385056163e-02 -8.232664054482462246e-02 4.468613934417238198e-01
-8.448678154246355709e-02 -9.962037118796100710e-02 4.532175621529170306e-01
-3.883122436659890153e-02 -1.212848963836601485e-01 5.013536866517666057e-01
-5.206215284717490011e-02 -1.216610040370762202e-01 5.211466032231550916e-01
-1.926766611864695958e-02 -1.239364276355688355e-01 5.383616625188308857e-01
-8.750850742468854748e-02 -1.147309138739869561e-01 5.187557034009547818e-01
-9.596476565231690237e-02 -1.157228373709244945e-01 4.631536289871753254e-01
-2.257861374258240267e-02 -1.081014990668301562e-01 4.686393870144932028e-01
-2.381440450223448052e-02 -1.240448901150220107e-01 5.323528697606366711e-01
-3.962437032311579010e-02 -9.331431358825581501e-02 4.557738167633832438e-01
-1.898994290063877807e-02 -1.246961686842662509e-01 5.037051672366923416e-01
-9.512526010286123657e-02 -9.569196957298709005e-02 4.509268683535290756e-01
-9.030311196943094365e-02 -8.024071688734037144e-02 4.467476648866308686e-01
-2.198618624788978987e-02 -1.218676408673031036e-01 4.951600648976874908e-01
-7.221147134345413943e-02 -7.241501421933503602e-02 4.394860854094463365e-01
-5.793092784599451761e-02 -9.108045035126954847e-02 4.505953670753484186e-01
-7.702171647975628727e-03 -1.199074595714354208e-01 5.510442115991546208e-01
-7.286287095637038191e-02 -7.637651918935313422e-02 4.406060480647716049e-01
-1.739699638796517178e-02 -1.260070771469460615e-01 5.281082931611590370e-01
-9.261430401920109357e-02 -1.212354917778684094e-01 4.657014872644225090e-01
-6.989391317985949384e-03 -9.329669120284282691e-02 5.719031432026603357e-01
-4.137731517634796879e-02 -1.203267338512739731e-01 4.975696432208624453e-01
-3.884475760756089108e-02 -1.218523662969926702e-01 5.306831452040983166e-01
-6.972160222567977406e-02 -1.215307024370473749e-01 4.937564637936639467e-01
-1.076872270794971692e-01 -1.092755041382697107e-01 4.615629655479806526e-01
-4.793403942846558713e-02 -1.182207428806979488e-01 5.334486301761069971e-01
-7.783056896519369161e-02 -8.975313028574699592e-02 4.472451479249874851e-01
-6.454487057857129229e-02 -1.222351491208322483e-01 5.041185567386321509e-01
-9.447686275056469199e-03 -1.256116339546953786e-01 5.339676688601833199e-01
-4.949734821982051947e-02 -1.170577990829950038e-01 4.861970487757458215e-01
-3.733615074711075371e-02 -1.123161293275335565e-01 5.431263415018063867e-01
-1.473894228721975286e-02 -1.253977559880319892e-01 5.030370252799442055e-01
-4.266045536851338638e-02 -9.812870113921919046e-02 4.593312231817425761e-01
-7.351229224578027799e-02 -1.229318130067658804e-01 5.088151829974905116e-01
-2.855073920952696034e-02 -1.215865743766770396e-01 5.396218965770241960e-01
-4.691219118554308676e-02 -1.211812472020575154e-01 5.038090032182814815e-01
-1.070012542538463646e-01 -1.198835097750130807e-01 5.028193113922622137e-01
-7.216077047084426196e-03 -1.273736319069309064e-01 5.066144278813541346e-01
-9.840005468103311947e-03 -1.271504115502663790e-01 5.072982271298067669e-01
-5.456670939105144613e-03 -1.215258672643794585e-01 5.438959596678586417e-01
-5.188232142370218652e-02 -1.023353633713534744e-01 4.609639014975190907e-01
-2.085827566033291239e-02 -9.690736974119554259e-02 5.609659206147498134e-01
-5.512681047243882942e-02 -1.166946463339121193e-01 5.321681446629631385e-01
-7.741343330954836288e-02 -1.216800607243559984e-01 5.158654687670028993e-01
-7.058539015762414770e-02 -1.123307156744660779e-01 5.288739190566317250e-01
-7.167236051416520093e-02 -1.010265159897590498e-01 4.563078073396918399e-01
-9.026168831032949091e-02 -1.240509042079826624e-01 4.954822323995492495e-01
-5.275857238877752764e-02 -8.082270896742292654e-02 4.463099138742467886e-01
-8.586446106749234808e-02 -1.109946361700056006e-01 5.212521229459141647e-01
-6.861159713660307247e-02 -5.522147448105708262e-02 4.402388136956839615e-01
-4.366766669206210288e-02 -1.200373940653965132e-01 4.966972809827089885e-01
-8.479200513659541916e-02 -1.228805755966431851e-01 5.093268033324273025e-01
-4.929423331430891203e-02 -5.747581982612625512e-02 4.398859361550610525e-01
-4.974379324055284296e-02 -1.192844868226346916e-01 5.309681743251410957e-01
-9.089156445601190293e-02 -1.006246888342776785e-01 4.532662127555256992e-01
-7.995699392279989604e-02 -9.099949225963618882e-02 4.479796500149489935e-01
-8.829767340430068334e-02 -9.522264871907053230e-02 4.502247182129327507e-01
-7.152164847558302452e-02 -1.219213127494650634e-01 5.157652452771703810e-01
-9.926827258286965994e-02 -1.240377528975458582e-01 4.730928941987131431e-01
-1.123051077506520556e-01 -1.223890599153538983e-01 4.843327953323438573e-01
-2.067146293975715560e-02 -1.240927460085161499e-01 5.023884049258732221e-01
-1.029846786127120058e-02 -1.241573333188512873e-01 5.388387493726701782e-01
-1.130212906540727785e-01 -1.137186963582042243e-01 4.686473101210503200e-01
-9.651356133019543815e-02 -1.235604603251400924e-01 4.788660610556670916e-01
-5.109992612285089650e-03 -1.279981004347890694e-01 5.273973167605437995e-01
-2.786929589636822149e-02 -1.061480096949414809e-01 5.520569211058128367e-01
-3.531222651316615058e-02 -1.171281735486875419e-01 4.870530591406678211e-01
-8.771088856386580201e-02 -1.235184673229866997e-01 4.917079752569649131e-01
-9.630293004243142829e-02 -1.106613142646771936e-01 4.602173359064235525e-01
-8.328710074038146727e-03 -1.240122483222122207e-01 4.936967369818347495e-01
-2.796425071531930331e-02 -8.979714346062661612e-02 4.523364984532153854e-01
-1.002991598748082386e-01 -1.168370458307700088e-01 5.107992125239801950e-01
-3.561368432962441766e-02 -1.108368255656332624e-01 4.747985621197038930e-01
-5.685764316454991821e-03 -1.248658052586134187e-01 5.352101600838171658e-01
-3.578701248971993820e-02 -1.175249971744883604e-01 4.879096227633335503e-01
-2.932623078270270647e-02 -9.009416158189874346e-02 4.529299721768951237e-01
-7.708216685742914909e-02 -9.139519531393787422e-02 4.483892475614130735e-01
-4.885903951913386084e-02 -1.194860171748856198e-01 4.948716733779723320e-01
-1.035071979989615337e-01 -1.173350513801647149e-01 5.064518132166365705e-01
-7.499782701427201714e-02 -1.144073387064286768e-01 4.715641588221987091e-01
-6.870003810941072153e-02 -8.188303696338772308e-02 4.430345345568519333e-01
-4.133355401727821510e-02 -1.188935104963234485e-01 5.372157859222689291e-01
-2.192454569273677781e-02 -1.239128079034216429e-01 5.361165710761746084e-01
-4.344413995498386943e-02 -1.205731556154861633e-01 4.991917226987007683e-01
-4.180039689510929232e-03 -1.245878741996648692e-01 4.944933221848237248e-01
-6.625811816879796645e-02 -7.162452719998450845e-02 4.404226292728459224e-01
-8.339456379917929707e-02 -1.029618962037980728e-01 4.557634811805227337e-01
-1.108060574492449046e-01 -1.230566234125496095e-01 4.908769575682304653e-01
-9.985517445321362429e-03 -1.194977078058609005e-01 4.830166023423906885e-01
-6.583822740048037025e-02 -1.210559171851970511e-01 4.945044759371189369e-01
-7.669254870580244354e-02 -1.215399964804258909e-01 4.896218197398236605e-01
-2.336276997626419299e-02 -1.232341581527714586e-01 5.009823630604909317e-01
-6.065180339905480722e-02 -1.156238577734733514e-01 4.806695689042548292e-01
-1.131617947154388015e-01 -1.093066493951948825e-01 4.648825022809009444e-01
-5.588729697569981558e-02 -1.184842959395938505e-01 5.291994472370835645e-01
-9.199769371090937842e-02 -1.225442077205158020e-01 4.669396033711434302e-01
-3.395285883884042837e-03 -1.286969783094410458e-01 5.252875303161977927e-01
-1.886609485636330311e-02 -1.153276425242014402e-01 4.777736170221029699e-01
-7.574245336166465781e-02 -1.128892315506163785e-01 4.685032130876157774e-01
-2.825703726840456467e-02 -1.062233211661157833e-01 4.676486496912599100e-01
-4.476262553077980932e-02 -1.137406291153572058e-01 5.383249716677438457e-01
-9.739654297270859337e-03 -1.220740457166030885e-01 5.464160911909782259e-01
-9.605867614893313922e-02 -1.209208886208513190e-01 5.111591059059411579e-01
-3.712551429274099646e-02 -1.227843849818424926e-01 5.166087622861731399e-01
-3.326845490050875376e-02 -1.105696837343157768e-01 4.742224176467691454e-01
-5.933836402158599449e-02 -1.218872324470442609e-01 5.040926979891361404e-01
-7.068802312412185429e-02 -7.516808615532255544e-02 4.405503639366152857e-01
-7.857294112767923555e-02 -7.059671297482075780e-02 4.390183852030506428e-01
-5.447164544192084623e-02 -7.787544353625534821e-02 4.449304168065237319e-01
-4.862682939663301451e-02 -1.218065248908031944e-01 5.089280240169784530e-01
-6.939615486817744816e-02 -7.957350277816746531e-02 4.421161535906557027e-01
-2.160781874487599855e-02 -1.145222133221779626e-01 4.780624989054996776e-01
-8.909645679355385206e-02 -1.236629609140597330e-01 4.909582279507137548e-01
-2.676030373352895897e-02 -1.198022863983696784e-01 4.915497202553520406e-01
-5.579567495051043075e-02 -1.218003179126452007e-01 5.166414049851236756e-01
-6.681084608333839880e-02 -8.707861875652204986e-02 4.465628602165794825e-01
-2.016556921772416980e-02 -1.153091001383932251e-01 4.784807483436205877e-01
-7.783279231872124171e-02 -1.234371422971126259e-01 5.048532123771448665e-01
-4.551921420999640450e-02 -1.203697409131561646e-01 4.986642591516335932e-01
-9.608391531216187165e-02 -1.237709645148252352e-01 4.994861744632459466e-01
-1.060156375511441679e-01 -1.238203046267319085e-01 4.952196931035323102e-01
-6.915608653735474953e-02 -1.191475865777148341e-01 4.859276051952362008e-01
-7.914119373413611158e-02 -1.219232690981515987e-01 4.913310907237585790e-01
-6.848318274935810690e-02 -5.651383603167950409e-02 4.397302144465652929e-01
-9.140568191952398377e-03 -1.279299610222470185e-01 5.236019698612489615e-01
-5.321766860710477193e-02 -9.207070919398670228e-02 4.520332798120149653e-01
-5.772292020898857345e-02 -1.129289039027412123e-01 4.755815095891061661e-01
-5.155819800419298576e-02 -1.208568830649690007e-01 5.009126709026460178e-01
-8.655095474434969238e-02 -1.060603845348962460e-01 4.576176265909169816e-01
-1.113448347318837794e-01 -1.156859341683662973e-01 5.024691308490009112e-01
-3.508568484378653957e-02 -1.223597371120689753e-01 5.075282630954811580e-01
-8.820138980562430842e-02 -1.236370657871611045e-01 4.927100549220329029e-01
-8.986506605292725325e-02 -1.150807200473682873e-01 4.630076997372932768e-01
-3.167834396309027190e-02 -1.228462176013905283e-01 5.306917805690355427e-01
-1.286757560865455993e-02 -1.234377768014591759e-01 4.936840448778250234e-01
-4.893388168126214938e-02 -7.517065137456806212e-02 4.448260251611592109e-01
-1.082959440189801628e-02 -1.186602293812738518e-01 4.813933827676374344e-01
-5.160346015155957422e-02 -1.217357008252097639e-01 5.075890737836692423e-01
-1.026093568569114295e-01 -1.191874559354020036e-01 5.058413843639846252e-01
-6.532807660423321783e-02 -5.908471286673921963e-02 4.385287833657087742e-01
-5.395043907098731606e-02 -8.366094736607586346e-02 4.471724066560647803e-01
-5.636048989027511030e-02 -9.632989386402263099e-02 4.546595199960759004e-01
-3.399689140006294935e-02 -1.231069308481224922e-01 5.214315515232794684e-01
-1.329372932719973671e-02 -1.056934318826917296e-01 5.654309962590059468e-01
-6.079356134571632653e-02 -1.055780333614626532e-01 4.628258582613291594e-01
-1.151303781695129369e-01 -1.193305064759337258e-01 4.792179270768145982e-01
-7.345668856306034403e-03 -1.236727521571851646e-01 5.392011523139097484e-01
-3.380868603852125315e-02 -1.082033087749178363e-01 4.708911117897922605e-01
-7.607973997275244149e-02 -1.212970171317691026e-01 4.886976513919528697e-01
-1.226042222706924534e-02 -1.101749599268547347e-01 5.633303936178708504e-01
-5.337225000973398747e-02 -1.169845504573813477e-01 4.856760453846993841e-01
-2.012676636996585389e-02 -1.255913363982171793e-01 5.242161866213143062e-01
-5.567076650865795950e-02 -5.972970321119131648e-02 4.398433023255475804e-01
-3.791788313372526642e-02 -1.166862439202017016e-01 4.861374944250318464e-01
-6.622964239761332250e-02 -1.114736846642320756e-01 5.299836123401060473e-01
-6.110364206986491215e-02 -8.495402630979008440e-02 4.463398379235890001e-01
-2.902197919617228311e-02 -1.103331079811640109e-01 4.735310309822450825e-01
-1.112310658002211607e-02 -1.090457860132884732e-01 5.643643683914539855e-01
-4.843844719809957400e-02 -6.997408136126126443e-02 4.430248290033159675e-01
-5.037316685016238194e-02 -1.133365778269566360e-01 4.784811726261796183e-01
-2.604615198271423293e-02 -1.243405673681297480e-01 5.234273296501384953e-01
-3.814250718345146146e-02 -9.302303493230112963e-02 4.556765031737829430e-01
-5.107625247198836760e-02 -1.035447084375474142e-01 4.628765830282575156e-01
-4.394427256901721479e-02 -8.044872751284497248e-02 4.473429121505489992e-01
-7.542261989337949168e-02 -1.223515546376977015e-01 4.945960162576895636e-01
-4.039670405144643595e-02 -1.224013446424032647e-01 5.226236059329755212e-01
-6.825082089226311433e-02 -1.184967999486247481e-01 4.846003898739760229e-01
-7.811767837558940275e-02 -1.176303759424399270e-01 4.751571621917754507e-01
-1.182905620123238105e-01 -1.147855332157744490e-01 4.836927846898861905e-01
-1.087418797408370649e-02 -1.238144259788098445e-01 4.938841492747551021e-01
-2.885176855876367061e-02 -1.237710305013342005e-01 5.256671098894154515e-01
-2.149768835307453926e-02 -1.159717549109525320e-01 5.552658113739262769e-01
-9.292948003761851428e-02 -1.213167969272639091e-01 5.112103006584469700e-01
-8.251415886681107148e-02 -6.762907641670601322e-02 4.412880674379923707e-01
-8.169305316239187931e-02 -7.268843466021993049e-02 4.402008871672249968e-01
-9.211213987564204064e-02 -9.508029409165137669e-02 4.503594179501389516e-01
-5.513603104896629137e-02 -1.219222019947778235e-01 5.100273571218474356e-01
-4.499665336285525036e-02 -1.205015334841501723e-01 5.321887442781546573e-01
-8.281040088124465293e-02 -1.147356776360302227e-01 5.217864249566850354e-01
-4.817219968231881144e-02 -9.520902533262683154e-02 4.555697101356753764e-01
-5.882006930101775499e-02 -1.159824879111875234e-01 4.820624029976411928e-01
-1.985578868750329656e-02 -1.255764212785145384e-01 5.271241422699393109e-01
-4.291401484720554910e-02 -1.209570596753664906e-01 5.329476882332466747e-01
-2.763993321204493911e-02 -1.105143177077102662e-01 4.737480609515291596e-01
-7.706038684131377714e-02 -7.090272423225052467e-02 4.391118679334486408e-01
-1.061479908674643341e-01 -9.513381741816441528e-02 4.573318062959034203e-01
-4.060730099816457772e-02 -1.219751569198612579e-01 5.288444677467403210e-01
-3.063896517599271063e-02 -1.048977701327348661e-01 4.665424250390703409e-01
-3.175145415483214550e-02 -1.213905743666893744e-01 4.994981009780854464e-01
-1.078853198389427975e-01 -1.162862640361179978e-01 5.046234373083381408e-01
-3.201548439450776357e-02 -1.223789472838105602e-01 5.341403756062385044e-01
-8.805443023324348306e-02 -1.212145077251345765e-01 4.715954323320982744e-01
-1.741772015180296021e-02 -9.869634597659215913e-02 5.652085495880203592e-01
-7.044493887479012784e-02 -1.116546498189511932e-01 4.689740292404431243e-01
-8.730483334244493188e-02 -9.471611653180811441e-02 4.499709269824774815e-01
-2.578148508431597763e-02 -1.072614984718371772e-01 5.552024541850533179e-01
-3.261789119177745111e-02 -1.098616294374749752e-01 4.731581086614041753e-01
-5.903224617214732073e-02 -1.214064919875327969e-01 5.191342249949375542e-01
-8.406039094381922983e-02 -1.134984589142471051e-01 5.214932183551009848e-01
-9.825106665671343165e-02 -1.240326039387537882e-01 4.814786850933920892e-01
-4.844380712641644521e-02 -1.148871253292966382e-01 4.817615427034349085e-01
-2.735196071642418542e-02 -9.155134851605910284e-02 4.535875239539768899e-01
-2.218311855909129229e-02 -1.039435357249176295e-01 5.601597019537095656e-01
-6.575087001398041697e-02 -1.068915579016973816e-01 4.633942773496399492e-01
-7.881115576050454208e-02 -1.228069311560675420e-01 5.105391387686191162e-01
-1.555394090330596869e-02 -1.264767057797464012e-01 5.266146278688089710e-01
-1.039597113647312970e-01 -1.184975814029476937e-01 5.054979592278621148e-01
-8.576328670242613916e-02 -1.171388011009722452e-01 4.658916357128754515e-01
-7.364180275012016663e-02 -6.773151936416223207e-02 4.381510072697665792e-01
-9.272788640821139072e-02 -1.033652921489554982e-01 4.551356147328792789e-01
-1.145571277054908965e-01 -1.186669170591111155e-01 4.772988184968429692e-01
-4.749772285128022950e-03 -1.236715617157081032e-01 5.379605443184264368e-01
-2.820334555638436685e-02 -1.094116633952314788e-01 5.508432289304926455e-01
-1.917105021019228916e-02 -1.212256196025250921e-01 5.472552713478663344e-01
-1.042797640743387405e-01 -1.138783823895077318e-01 5.080981051424322548e-01
-3.441577470212433404e-02 -1.225780357542719939e-01 5.292617301429377585e-01
-4.022961467202446073e-02 -1.222329873271901096e-01 5.263013065845377758e-01
-9.885131371775621179e-02 -1.241414496122510702e-01 4.797826267639041520e-01
-8.594056091018954791e-02 -8.011216356591900623e-02 4.437925418937811450e-01
-8.165613696736558069e-02 -7.647539667789593487e-02 4.407880660369263848e-01
-1.022356935960085089e-02 -1.216707191507559044e-01 5.480702798628511729e-01
-7.686960768922779241e-02 -9.039146327524485991e-02 4.477383574837546787e-01
-8.290835735931811890e-02 -1.230001364002232117e-01 5.085918346620396102e-01
-1.082489830025546995e-01 -1.237091077875483724e-01 4.879656781052177372e-01
-6.961008030944243474e-02 -5.668190621535923457e-02 4.398226856516347927e-01
-3.675966049255583595e-02 -1.174352254407850654e-01 4.877577512285535821e-01
-4.216343017748921257e-02 -1.066253598949022247e-01 4.686052021152108948e-01
-9.329638483182718656e-02 -1.233355147533174573e-01 5.023716188598679189e-01
-6.146049269883179650e-02 -1.058208809226790920e-01 4.629726785913420573e-01
-2.604268095446836406e-02 -1.198463150320905751e-01 5.459637991711309146e-01
-3.350906640151493643e-02 -1.099905218194871109e-01 5.454598497929619150e-01
-5.385975028896156785e-02 -9.049078902633546362e-02 4.509559222381118726e-01
-5.051909146121834338e-02 -1.214018651750926464e-01 5.047490758111475850e-01
-3.150934285632889242e-02 -1.201660138748058132e-01 4.942979512142026688e-01
-1.139923904902901824e-01 -1.204296706511793491e-01 4.791671659861693744e-01
-1.198115227332118699e-01 -1.129330530699214352e-01 4.820886232952916739e-01
-7.039264148079853178e-02 -1.221841510733109454e-01 4.967462932217365790e-01
-1.039933833104279004e-01 -1.092455610021554058e-01 4.605740383571593211e-01
-6.445786407936497653e-02 -1.194303189674725679e-01 5.237157564311609725e-01
-8.988359167378465187e-02 -1.091499456648879623e-01 4.594571422792821935e-01
-6.948386355250535384e-02 -1.187774263040818623e-01 5.230382858656386080e-01
-1.705396486967923619e-02 -1.231005461526681610e-01 5.436139616434826349e-01
-8.781987740201400994e-02 -1.072853136210427244e-01 4.584042110138692450e-01
-2.068215246718062283e-02 -1.048068805637850237e-01 5.623252441412375235e-01
-3.010187684622131141e-02 -1.206550374083398547e-01 5.411391598266699354e-01
-3.237434692245824697e-02 -1.217633681911006599e-01 5.016583924253429361e-01
-3.232879481386089632e-02 -1.231768342178281156e-01 5.140266982456551670e-01
-1.079915539551608294e-01 -1.085212351052955715e-01 4.609648083108973116e-01
-5.376598511012519593e-02 -1.185427871208240697e-01 4.903523349246999286e-01
-9.473290273298387576e-02 -1.251406896272079794e-01 4.730632187677868972e-01
-7.651685521888464125e-02 -1.171756861805592770e-01 4.757946939119955809e-01
-8.074825710570680826e-02 -7.317615163228727293e-02 4.399167004908822731e-01
-2.085820651536235068e-02 -1.250582574999492269e-01 5.089978999901891843e-01
-2.775472501984001944e-02 -1.167037836983144949e-01 5.487624801600956559e-01
-6.110450143354293623e-02 -8.192353225656721916e-02 4.450338071637977011e-01
-6.698900598029655651e-02 -1.113711523128963904e-01 5.298455939976590701e-01
-3.145179115148515753e-02 -1.057079048451315673e-01 4.675262137282195085e-01
-2.379712259367770116e-02 -1.194739108937180605e-01 5.481473408132251368e-01
-5.093318173727042625e-02 -1.207748215614342646e-01 5.004591939631433117e-01
-6.406555281236846200e-02 -1.138696415967820202e-01 5.300725433293023148e-01
-3.676380613586837948e-03 -1.253340093702399183e-01 5.345469619966629615e-01
-4.331975004767184972e-02 -9.827899244048712846e-02 4.593094456346005217e-01
-4.332966190403884227e-02 -1.129655393585864420e-01 5.394311856231484015e-01
-1.391664633916646007e-02 -1.199548201475624104e-01 5.512841702653445974e-01
-4.496035478755913695e-02 -6.132697641856142690e-02 4.408115748032837011e-01
-3.578771895777554252e-02 -1.184726690330041438e-01 4.903274613668892057e-01
-1.060288533049928428e-01 -1.222315596645772301e-01 4.999960769259913507e-01
-2.399756812062008374e-02 -1.246654184662733394e-01 5.256825811013213778e-01
-4.457949916297843096e-02 -1.089672531989305387e-01 5.408732715344175546e-01
-1.490725375250218435e-02 -1.233422778066149555e-01 5.431165946785824206e-01
-2.494117263059793255e-02 -9.441466569190647140e-02 4.551627954865729575e-01
-8.890084791208523185e-02 -1.228707968114305382e-01 4.798693685890048077e-01
-7.625234626398454119e-02 -1.167487060676822286e-01 4.750463672015057814e-01
-4.516034859480372310e-02 -1.002309983618613343e-01 4.605685246800462762e-01
-8.135601525977226300e-02 -9.065722007157327178e-02 4.477517418951804107e-01
-8.510285197978327554e-02 -1.231462565326035818e-01 5.066144786202979589e-01
-6.849140222127726718e-02 -5.390445652812083516e-02 4.407222950331853295e-01
-5.678467793380206907e-02 -1.218127124847802611e-01 5.157503196727047934e-01
-5.008319901642957483e-02 -1.006447260827729451e-01 4.596378937397598285e-01
-2.527013719435108538e-02 -1.062936464079293347e-01 5.559239044698743859e-01
-2.336347530362883548e-02 -1.035417422565983459e-01 4.627684254550277765e-01
-6.488827389656132150e-02 -1.187253097430997356e-01 5.248323717460933180e-01
-1.186446565304566519e-01 -1.147287471473303760e-01 4.804948802102047556e-01
-5.360656683875097278e-02 -1.125355200023554492e-01 5.351339401953613129e-01
-2.156124516288745845e-03 -1.265618106515633001e-01 5.327752673355744539e-01
-5.830471682678635414e-02 -1.204662022230682389e-01 4.969541055470901303e-01
-8.322133703703013530e-02 -8.720275067598495800e-02 4.455873545775716482e-01
-1.164616522060029774e-01 -1.076067067085640511e-01 4.682544026420222827e-01
-2.728484384844311050e-02 -1.219235915291306260e-01 4.982326847297068872e-01
-3.461348006696578911e-02 -7.917352244208418488e-02 4.464866413254869326e-01
-7.283821309681644263e-02 -1.120972899379103216e-01 4.686465393739616681e-01
-5.519310305839532360e-02 -1.216798584000870764e-01 5.185770810501094674e-01
-8.706221394760668697e-02 -1.188285054121250156e-01 4.670408591777100438e-01
-4.095273304237714851e-02 -1.155897756554200989e-01 4.836642109985150317e-01
-6.528374197699036985e-02 -8.620677980328263212e-02 4.462827323028825677e-01
-6.887000173451451879e-02 -8.216700106707640339e-02 4.431880506214275206e-01
-3.228171743681782641e-02 -1.208493774265566312e-01 5.387990411531973223e-01
-7.116397832922742583e-02 -8.445659112286790782e-02 4.442618503329970325e-01
-1.048621284474367532e-01 -9.590970948058075152e-02 4.557064097783374290e-01
-8.482581286946812293e-02 -7.744640882938742810e-02 4.422983391297672373e-01
-1.129337656572658166e-01 -1.186553788662617070e-01 4.996779573510055084e-01
-7.789562470748172263e-02 -1.133830688682565951e-01 5.267355266842049799e-01
-1.081724602666648757e-02 -1.013004356269059519e-01 5.674858465353540549e-01
-7.366454225248103560e-02 -6.777876247577846458e-02 4.381600001720916127e-01
-1.147974452411367613e-02 -1.195725305718770837e-01 5.523160823026472821e-01
-2.732057916116640423e-02 -1.241171929725114614e-01 5.217274339831577956e-01
-3.969601762436968106e-02 -1.184352136999142213e-01 4.906467557357867548e-01
-8.011545606527414876e-02 -7.128253454299897374e-02 4.395618496674197906e-01
-6.687016484594567045e-02 -1.048778599002512524e-01 4.609344578674324233e-01
-5.422621293363068251e-02 -7.291984190114420006e-02 4.433890381536984004e-01
-2.693337860899961897e-02 -1.182477771747092593e-01 4.885504433272488956e-01
-1.074912811954510314e-02 -1.276600956701457179e-01 5.175809507016637667e-01
-2.510425396268789813e-02 -1.245127256527089193e-01 5.167030874364868520e-01
-9.430234078239994877e-02 -1.195499293634733062e-01 4.651839295573205746e-01
-9.407382655319661974e-03 -1.277172530734352329e-01 5.118159784620451846e-01
-2.102858546918970339e-02 -1.091617797828581676e-01 4.692722410078659090e-01
-1.151601825813824004e-01 -1.018185622165187904e-01 4.671627651518910351e-01
-3.160893228829571300e-02 -1.233849484324651274e-01 5.247991983753131917e-01
-1.541339436025169866e-02 -1.266307502984156397e-01 5.167451943381307089e-01
-9.191093281664248354e-03 -1.096611111064696720e-01 5.639979845174114548e-01
-1.148547286877731610e-01 -1.079059277948591911e-01 4.662727067619138466e-01
-6.519720535677205053e-02 -7.275065494288865398e-02 4.409577720990947025e-01
-1.700039459820882476e-02 -1.255903921817443925e-01 5.320193844140195250e-01
-1.504604661574460850e-02 -1.267857069198288222e-01 5.209733905574833734e-01
-1.023676007152806572e-01 -1.193103633879892544e-01 4.702125754982418027e-01
-8.098091959567245424e-02 -1.210164058540190296e-01 4.792136851826849786e-01
-6.755753532913047477e-02 -1.125591503507958058e-01 4.716886567334034330e-01
-7.375534509560201235e-02 -1.230619428026647894e-01 5.076514309956078330e-01
-6.102986687170329494e-02 -1.221898350223590002e-01 5.064067739792131873e-01
-7.776431826712883189e-02 -1.061672789565267921e-01 4.597295426073887414e-01
-7.506741765688210166e-02 -1.211442243583389228e-01 5.174411413073997101e-01
-8.200450448728224817e-02 -1.212999718366402219e-01 4.870221486451475346e-01
-8.880110463880219740e-02 -9.380379284831592834e-02 4.494918619830586271e-01
-7.476076265829094403e-02 -1.141279179344841105e-01 4.711951187421831166e-01
-8.362747203872243629e-02 -1.229325848459913717e-01 4.916336471548659048e-01
-1.159111176934730786e-01 -1.069649991038253284e-01 4.671037024209102051e-01
-6.589004729771885671e-02 -1.225237514477593020e-01 5.106226652242387143e-01
-3.389586052574864589e-02 -1.199427900281823806e-01 5.405023721320851848e-01
-9.558956722146520757e-02 -1.051449024706289231e-01 4.563921565460940521e-01
-9.380249983895942723e-02 -1.077926472003426644e-01 4.580430646585480492e-01
-1.686365084308816958e-02 -1.115324813265457793e-01 4.707472456500926827e-01
-6.632560992268984879e-02 -9.361204619282743888e-02 4.509692580292259945e-01
-6.533160383329333909e-02 -1.206316972418237515e-01 4.929557906716446336e-01
-5.182655923647988550e-02 -1.215208159089722767e-01 5.053452414600554388e-01
-1.010444758059329678e-01 -9.631892866378151397e-02 4.523997488328613814e-01
-9.036840752535556243e-02 -7.813742096742098964e-02 4.470563537909149621e-01
-6.886360600958124634e-02 -6.295159615688540600e-02 4.383198706687344570e-01
2.195442280481745608e-03 -1.287632864156847690e-01 5.132442844233420232e-01
-9.402415193336793875e-02 -1.142500496088491163e-01 4.622658278803462029e-01
-1.117749597409306433e-01 -1.082633619704260752e-01 4.625993724874782331e-01
-1.116107654652541276e-01 -1.199975725282188405e-01 5.002056549270879060e-01
-8.949008259817024802e-02 -9.277981750046017384e-02 4.489835127550987903e-01
-4.458138306762006453e-02 -1.033106800856596896e-01 4.641825072170533417e-01
-2.161033933594686332e-02 -1.057608561068049263e-01 5.605968748001839419e-01
-9.026001812343294184e-02 -1.231235293806667019e-01 5.055025287268465339e-01
-9.911759879600967604e-02 -1.223863926974540911e-01 4.704635043502974900e-01
-7.662416331123378388e-02 -1.214468169495902250e-01 4.891837935977936258e-01
-3.932847542740276758e-02 -9.857508755797686484e-02 4.601669926092543661e-01
-9.535943928173482020e-02 -1.234205435861368411e-01 4.817455470061104417e-01
-4.543829951219780991e-03 -1.287706829898778715e-01 5.218900747466074241e-01
-5.317384560084634920e-02 -1.198327200219425903e-01 5.268914228175742842e-01
-3.987318347057295514e-02 -1.175337992798165115e-01 4.879562563086589089e-01
-1.040828341098952725e-01 -1.225180557742702597e-01 4.781776333255085554e-01
-1.116058618313370970e-01 -1.229839221774435831e-01 4.874502488830644853e-01
-2.097135181381891769e-02 -1.210626290598311727e-01 5.464798827929367997e-01
-5.851467279190234252e-03 -1.253884997523312117e-01 5.339328944556811507e-01
-9.156370451102593955e-02 -9.608985002759824756e-02 4.508740805219847991e-01
-1.138862249968357471e-01 -1.176616516482518610e-01 4.990616141073780376e-01
-2.571529881283530702e-02 -1.162683351641951440e-01 4.834181469924286323e-01
-5.060052828946687981e-02 -6.224057597713578138e-02 4.407285676365840787e-01
-5.882437647724537977e-02 -1.165132557690947979e-01 4.834317831495105189e-01
-4.102802762816456367e-02 -1.200154093136964889e-01 4.960078778751543793e-01
-8.313230563696208386e-02 -1.047457901733048896e-01 4.570994489081562362e-01
-6.908142405520359408e-02 -5.601912078071447088e-02 4.400010624887373822e-01
-1.157798855831295159e-01 -1.168855952182304980e-01 4.760303220199629815e-01
-4.479025058668217874e-02 -1.217373726811517148e-01 5.251824336033058538e-01
-2.149071233654322940e-02 -1.012739332672133036e-01 5.614771161103355723e-01
-1.019203603712610928e-01 -1.183904869662661258e-01 5.069506226031814666e-01
-8.463923873647412333e-02 -1.231630031678250803e-01 5.066083870236681719e-01
-8.155058584970235197e-03 -9.421959329909231073e-02 5.712590342642879238e-01
-1.121776380798669565e-01 -1.190686488433706780e-01 5.002161793298753878e-01
-1.001498551351973632e-01 -1.148159893468266995e-01 4.645260107489696533e-01
-7.235240349162012918e-02 -1.051377819738164576e-01 4.601692902787404837e-01
-8.697867427401988205e-02 -1.205575227848355163e-01 4.714494165068471854e-01
-8.660263695612131774e-02 -1.200316566164488785e-01 4.708147155515882698e-01
-4.371607609206653450e-02 -1.150157767680802662e-01 4.824336476574944133e-01
-8.709355915625380251e-02 -1.180886302718780062e-01 5.169251197009907539e-01
-4.533758783784296725e-02 -1.029359305682100711e-01 4.635676852015961913e-01
-4.247777939906730721e-02 -8.640946062460586052e-02 4.504967624518282920e-01
-4.563686078771074517e-02 -1.159851413684992866e-01 4.842584442472580020e-01
-1.168231597344012232e-02 -1.085100740700010447e-01 5.645318619217424283e-01
-4.713132965133731700e-02 -6.709232324946430570e-02 4.422635366371209797e-01
-6.136390568595363748e-02 -7.568026935168276070e-02 4.427621483191147012e-01
-5.870187226991323975e-02 -1.218548909661004015e-01 5.044511737534455031e-01
-2.028448855578444260e-02 -1.189164298459029767e-01 4.851826754435002442e-01
-4.693683882318412659e-02 -1.110373764071371089e-01 4.750166821670009920e-01
-9.398515823799112601e-02 -1.236945030616261598e-01 5.002640395324184919e-01
-7.521150051160543915e-02 -9.165361080579485786e-02 4.486932353598038770e-01
-4.134408284224969088e-02 -1.129973364985087242e-01 4.787545159181036403e-01
-1.116885327629189711e-01 -1.002408415502581973e-01 4.605582478016025383e-01
-3.165579341809592745e-02 -1.232400596598214743e-01 5.125610608322009876e-01
-4.949113491657467639e-02 -9.370908972591267261e-02 4.540083259486751288e-01
-7.076924326721535652e-02 -1.127862622802096454e-01 5.286684738066397271e-01
-1.096266980980196287e-01 -1.203266094979820455e-01 4.755510793892124832e-01
-1.102550608947241856e-01 -1.153108740126499027e-01 4.689105555245147716e-01
-2.321859814077723017e-02 -1.089394055424030838e-01 4.701583350605265110e-01
-2.543718128633935815e-02 -9.758436894178795784e-02 4.576971561158224566e-01
-4.138682694129917905e-02 -9.620411888558570712e-02 4.578860016850472836e-01
-5.960395090084228548e-02 -1.222709901622500844e-01 5.120053588703508129e-01
-9.122832492626795076e-02 -8.395917811030825795e-02 4.469642830023460300e-01
-8.285105286398096458e-02 -8.994385212609905256e-02 4.472924816676214221e-01
-9.767970442864683245e-03 -1.278070275431393010e-01 5.155208561350745899e-01
-1.191087319963428370e-01 -1.157026118079797355e-01 4.884642626900644324e-01
-2.025875245060236324e-05 -1.290602675723603598e-01 5.209007498922049173e-01
-6.673943739784057860e-02 -1.203812702803902374e-01 5.204184507247759939e-01
-2.302851792741173256e-02 -1.042798124126347870e-01 4.635128107643541884e-01
-2.195605048770100237e-02 -1.231939021529367267e-01 5.392475799919674850e-01
-4.933224289660870926e-02 -1.035277501078230439e-01 4.633395403854633221e-01
-2.106534894512087849e-02 -1.159593362341014150e-01 5.555224445538834432e-01
-2.019437110716102574e-02 -1.243461351981624413e-01 5.358186643801355897e-01
-2.296374469799686638e-02 -1.166291774784216917e-01 5.535201748051318260e-01
-4.073480644003305007e-02 -1.216127033154348475e-01 5.315294144088447137e-01
-9.862350919840275065e-02 -1.204266826032387994e-01 5.081730609172248059e-01
-1.023971477487642806e-01 -8.926215082956100166e-02 4.555740081926218932e-01
-3.216623731821222076e-02 -8.350309965494452646e-02 4.486353134730154402e-01
-4.736426466943130520e-02 -9.797782292200091225e-02 4.580868533139991761e-01
-1.298338946156886442e-02 -1.264077988777241035e-01 5.302774569490493750e-01
-8.501772745848028279e-02 -1.237319082630907313e-01 5.008127206446515434e-01
