-1.030742719696058490e-01 -9.751288111575713569e-02 4.538083602846463838e-01
-6.903969696345467477e-02 -8.732447943411733582e-02 4.466395084737452836e-01
-5.558317379939814451e-02 -6.579518645856867465e-02 4.409770016537518100e-01
-8.333071738683175966e-02 -1.220770757370216036e-01 5.095303142885648784e-01
-1.463547608771819568e-03 -1.289953092136746637e-01 5.155526120767170983e-01
-2.481976204101426012e-02 -1.029324193759087042e-01 4.626490556045100844e-01
-4.076845127329180307e-02 -1.164884987968527047e-01 4.864142272012537682e-01
-1.085653610782376099e-01 -1.185009865443253235e-01 4.733286986384108719e-01
-6.859277698774435272e-02 -1.101235984855746114e-01 4.685575566714411666e-01
-1.123258508254026955e-01 -1.163765442098371738e-01 4.723872402207641152e-01
-2.914986301294036561e-02 -1.077417857208125135e-01 4.701453451611902756e-01
-2.710424521579273601e-03 -1.205429300798099151e-01 5.412314798009283390e-01
-3.382653526921406556e-02 -1.134333983766745713e-01 4.799094230430088759e-01
-5.131766569316967980e-02 -1.049935191246504085e-01 5.386304576446392378e-01
-4.784986399390300793e-02 -1.072190229495209868e-01 4.693153801311821804e-01
-7.697865992975452820e-02 -1.187049352928818968e-01 5.206191344911473839e-01
-7.387810698663227482e-02 -1.178153861288109561e-01 5.228558789912097771e-01
-9.113805284576338706e-02 -1.204799662955658296e-01 5.115817741554008480e-01
-5.848003493033383099e-02 -1.165914143203682224e-01 5.304096645586009462e-01
-7.166050527546609372e-02 -1.222288100268947852e-01 5.034625070328763163e-01
-1.111641796546583294e-01 -1.214024426590372130e-01 4.837795674834359794e-01
-6.287267806204940856e-02 -1.216583040978249791e-01 5.132846253854921326e-01
-5.689938634197968387e-02 -1.088631871948763929e-01 5.345221347057410588e-01
-5.739325877762548739e-02 -1.118242231688836158e-01 4.747112731442557632e-01
-6.084472707239695771e-02 -6.619935147434653777e-02 4.401941630613496748e-01
-3.065945054175297710e-02 -9.487410523220884961e-02 4.571296431543953043e-01
-3.186841499249760956e-02 -1.123391045306414426e-01 5.470300971195446449e-01
-4.123031397509883955e-02 -1.215342966784326018e-01 5.067323248297717075e-01
-1.141758243905931641e-01 -1.184363472615716506e-01 4.775550139151944484e-01
-1.014558882357829289e-01 -1.232582873387408628e-01 4.850618278963857999e-01
-5.078224779838576286e-02 -6.678692770820969515e-02 4.418735621512916989e-01
-1.195648338849146786e-01 -1.130006270367515803e-01 4.866004619078814764e-01
-2.246107736124326043e-02 -9.962523675553890123e-02 5.595725720627395816e-01
-9.506815133816629709e-03 -1.154770753999303373e-01 5.583491518694908562e-01
-1.173810899287370535e-01 -1.036421327346621346e-01 4.705870904596112791e-01
-5.534212144406896322e-02 -9.361300357114359094e-02 4.530043177261373066e-01
-1.630733815492138236e-02 -1.211415580232227396e-01 4.890996572851400992e-01
-8.935641645531020374e-03 -1.279728534941234896e-01 5.223443298418274372e-01
-1.016015183977116154e-01 -1.234403880446050955e-01 4.898335491502340266e-01
-5.033091420485100165e-02 -1.100294169912319486e-01 4.734726485902431836e-01
-6.349412184144413718e-02 -8.684601603923314261e-02 4.471969553750823057e-01
-4.362085020934750729e-02 -1.192678892921662931e-01 4.948357238431982386e-01
-1.062436118142295605e-01 -1.044570727658644671e-01 4.579398326448693712e-01
-9.054706704973601583e-02 -1.223584251280361024e-01 4.878083526454620178e-01
-3.349916378182605375e-02 -1.124915907893938027e-01 4.780165062553480282e-01
-8.083742804942456450e-02 -1.185883601781792529e-01 4.764402754192600398e-01
-4.799942673913500102e-02 -1.091597396585637092e-01 4.725131039385271348e-01
-6.961911401345463601e-02 -1.218066191996679953e-01 4.997246172752766169e-01
-5.765306031513738744e-02 -1.205294428526635930e-01 5.218803607814763712e-01
-4.729158892018855281e-02 -1.177777133717179958e-01 4.897901580918351816e-01
-2.739528959902335758e-03 -1.273512889961159744e-01 5.306212201262413553e-01
-9.726419784528823886e-02 -1.164256405210172401e-01 5.128056738113835333e-01
-1.652926825720892751e-02 -1.200786368359763046e-01 4.862827130791442243e-01
-8.200950065695175595e-02 -1.189988656474380568e-01 5.178441677872924753e-01
-1.186619199418233322e-01 -1.163673081844059792e-01 4.916761236630887155e-01
-9.992699187306933184e-02 -1.213998505497341784e-01 4.707318340689188862e-01
-3.709907041734899352e-02 -9.820975122253493284e-02 4.603905579531210601e-01
-8.568348574190040590e-02 -1.185062478919523682e-01 5.168101454721611976e-01
-7.851780813145245452e-02 -1.133252304936336052e-01 4.692168213236659335e-01
-2.336550250047648644e-02 -1.177418245471002628e-01 5.515354360654277643e-01
-9.719256868490279422e-02 -9.360489576415118029e-02 4.512672413995232334e-01
-6.864038181301637676e-02 -7.086571419715141651e-02 4.397270010548314234e-01
-2.234020168013122962e-02 -1.140491558007085682e-01 4.777586615075090637e-01
-1.184797578783545677e-02 -1.260690637495991140e-01 5.033565645150887002e-01
-9.856683300694610295e-02 -9.380817683031575371e-02 4.514998668534312976e-01
-1.190917555426785346e-01 -1.157785912043693549e-01 4.876991234312564316e-01
-6.766506570931585252e-02 -1.099175108305033011e-01 4.685108975287591848e-01
-6.890922684487767180e-02 -1.209299647901665581e-01 5.173257165389388845e-01
-1.157407740524359213e-01 -1.135755939535116332e-01 4.719430461761440765e-01
-1.008274369324440589e-01 -1.098346741988947134e-01 4.611570691326586369e-01
-3.095598244478772396e-02 -1.175787329101235235e-01 5.458465762064820259e-01
-9.767584464706219327e-02 -1.211812642974649246e-01 4.686082834965326627e-01
-3.184552080707793442e-02 -1.135257125514646109e-01 4.800304635039284729e-01
-2.171506734644907191e-02 -1.252071704600694613e-01 5.208906912420241397e-01
-8.784475393859836334e-02 -9.206508151685144359e-02 4.488454857296785283e-01
-9.454108733002428155e-02 -1.238311050736934371e-01 4.723502853774926291e-01
-9.086595036905800726e-02 -1.224446953518301962e-01 5.032062606169785957e-01
-7.946783357805164982e-02 -8.856395515369785976e-02 4.467223721168494532e-01
-8.525376285172027446e-02 -9.431113214174660642e-02 4.501338832600256246e-01
-9.463948830526808242e-02 -1.234465845016760321e-01 4.901544035145943279e-01
-4.133171111714303153e-02 -8.608002174271049689e-02 4.504894533558252423e-01
-2.691405059204062672e-02 -1.170425336314898090e-01 5.494342326075855043e-01
-9.419989824712662885e-03 -1.146876155301404104e-01 5.591982141100979575e-01
-8.535281512826703443e-02 -1.032582744673926911e-01 4.562509649993740646e-01
-1.188991657450516048e-01 -1.033981048124645585e-01 4.745279676285143466e-01
-2.402233235686173501e-02 -1.146890298937194713e-01 4.798867618441935989e-01
-1.028528156650032055e-01 -1.161281786529359539e-01 4.678044923883592499e-01
-8.371686164772434990e-02 -1.155775312865951199e-01 5.202507166906362723e-01
-1.139551405344568502e-01 -1.095784012798064755e-01 4.660798234313880961e-01
-9.589652173234552296e-03 -1.204038594234995152e-01 4.850986433978000112e-01
-1.824602732655012868e-02 -1.258077082540279001e-01 5.277888147790671391e-01
-1.073207900238308948e-01 -1.227860231721927958e-01 4.892777242996538267e-01
-4.879610851035753871e-02 -1.122744883847798386e-01 5.374520444192903978e-01
-2.134119047237637359e-02 -1.194734321814062139e-01 5.496361016356020590e-01
-1.142009479978992048e-02 -1.271696617462728662e-01 5.248953486225629295e-01
-6.935466807594131700e-02 -1.133203280285484116e-01 4.737872800991114741e-01
-9.233886352468910486e-02 -1.079200839511131466e-01 4.587852938482848697e-01
-2.168485939029059922e-02 -1.020888490145200611e-01 4.603764630786498224e-01
-5.003844991985736956e-02 -1.116390075115402253e-01 4.763079561659023242e-01
-4.987275133617874445e-02 -1.173790497060366173e-01 4.881616260264818319e-01
-2.127762414558044546e-02 -1.252064661892710873e-01 5.152203648441903150e-01
-2.180205506234889415e-02 -1.141022962206627162e-01 5.567571746249341258e-01
-7.957179479025390523e-02 -1.124212516909569026e-01 5.260642623667576290e-01
-7.134962236569648841e-02 -8.187585666015113894e-02 4.428634156233743346e-01
-5.583086760512864094e-02 -8.160068150760940719e-02 4.461170758812024739e-01
-9.490171798470002640e-02 -1.171568490148615638e-01 5.135865545368406559e-01
-1.154657116098896374e-01 -1.169616408990722251e-01 4.772287354682334670e-01
-2.355528005321670670e-02 -1.229912850031728982e-01 5.005142904274519911e-01
-5.154218835416886357e-02 -8.135408711933254933e-02 4.467962643972360759e-01
-4.749037555805622757e-02 -7.883918918917751095e-02 4.463159746937850336e-01
-6.468328790230587488e-02 -1.215407947637133224e-01 5.036962148663468586e-01
-1.034979385130905677e-01 -1.227579765089662212e-01 4.975394872456398998e-01
-3.593097588951249532e-02 -1.166133710306753168e-01 5.418767805447683994e-01
-3.085458103597868082e-02 -1.151329218924063286e-01 5.473033783742707881e-01
-8.306658168062133751e-02 -9.966214560544535417e-02 4.539661525357334693e-01
-1.792583386984784866e-02 -1.234920353462485854e-01 5.409290218320400578e-01
-2.102502846029135133e-02 -9.687817512743494841e-02 5.616364213720346221e-01
-8.130338312386886646e-02 -1.222987018074120635e-01 5.078660143161651819e-01
-6.141509719096792386e-02 -9.039819617285334286e-02 4.497542716967657395e-01
-8.470288643969706155e-02 -9.539060905840694715e-02 4.507605935784168016e-01
-3.767777553410593672e-02 -1.221493783866129390e-01 5.097192872952980292e-01
-3.268550194728952855e-03 -1.224315006534268530e-01 5.393045292682775438e-01
-2.384865044590106509e-02 -1.243547175514015668e-01 5.107501395081821549e-01
-6.492954549585272517e-02 -1.213370566133210871e-01 5.012523849240022589e-01
-4.687643105978884367e-02 -1.037732302548921987e-01 4.647608513242976747e-01
-6.262313514580883367e-02 -6.740122223496133880e-02 4.402410029275257153e-01
-1.105524635519193194e-01 -1.114161589084498166e-01 4.657557181053320616e-01
-3.386065960575314338e-02 -8.741353659443569513e-02 4.516547141616754635e-01
-1.289831180530945191e-02 -1.260879066787855274e-01 5.310250855973409623e-01
-4.424325897445495308e-03 -1.279357712557330495e-01 5.078087782065920930e-01
-1.633255854177216235e-02 -1.059650505034994000e-01 5.647887561190881867e-01
-6.575299641826025387e-02 -1.217201379916835885e-01 5.049138316683805527e-01
-7.716393966222344358e-02 -1.215642059092660737e-01 4.938451349873125840e-01
-6.323221997619300760e-02 -1.203178356162846463e-01 4.966419682496244214e-01
-1.076317553434558288e-01 -1.165573846946946629e-01 4.702240506001555964e-01
-7.271191670033748389e-02 -1.208081985169109085e-01 4.923364498189619076e-01
-6.907131468337671110e-02 -6.023431260998046710e-02 4.381202944967946267e-01
-9.170032551268300636e-02 -1.021681204454205211e-01 4.548313616137812376e-01
-6.596780456287323902e-02 -1.186669352204590966e-01 5.235450713558116309e-01
-6.121796884267211025e-02 -1.161815546201075688e-01 4.835362520884879389e-01
-6.364455049264207409e-02 -1.009221467905655756e-01 4.579966658180337213e-01
-1.116487725561300798e-01 -1.171107133524113275e-01 4.728914744096480716e-01
-5.174362851464308494e-02 -9.851915597250694712e-02 4.578169050646275773e-01
-8.673064095685785457e-02 -1.172091656580219327e-01 4.671830304578056814e-01
-5.972267866938917730e-02 -1.161087557692344757e-01 5.301150543804568072e-01
-9.873320408008209870e-02 -1.228151531075563768e-01 4.804503756674163295e-01
-9.606885552418951979e-02 -1.215703035033613433e-01 4.678737172985277804e-01
-9.184299079989792502e-02 -1.221518540700304023e-01 4.789810941326228533e-01
-7.221023632000489467e-02 -7.640962035780476946e-02 4.406645414141331374e-01
-2.319187788134565928e-02 -1.228022941854226696e-01 5.394039820708138588e-01
-8.037667143654089741e-02 -7.883477016182867392e-02 4.415429270771987214e-01
-9.411314376305655871e-02 -1.215836402047626580e-01 5.074934366044457912e-01
-4.711375699113568016e-02 -1.218034719314270153e-01 5.150174892580106079e-01
-9.384529485587182751e-02 -1.233764227632777460e-01 4.913143213914235585e-01
-6.991774297130247395e-02 -9.866855024662203599e-02 4.550021403758890970e-01
-1.016289788481128803e-01 -1.234327901220218099e-01 4.891089396524543886e-01
-2.486715714433049979e-02 -1.244320508325712921e-01 5.158961864836318911e-01
-2.150311138951208761e-02 -1.112215420523085113e-01 5.593504297839532180e-01
-6.613917057711381220e-02 -1.122243248146581746e-01 5.296334645916866979e-01
-3.809788604859193351e-02 -9.172432065496775866e-02 4.548005274399554709e-01
-7.557626418734865459e-02 -1.205542093377931917e-01 4.895878709615941182e-01
-3.223009647788199761e-02 -1.179094852771729596e-01 5.440934076983054979e-01
-5.184803752502207402e-02 -1.167843779013808259e-01 5.329471134516621245e-01
-6.510298627827297568e-02 -1.153792064636844916e-01 4.799694326406495626e-01
-5.791167564064556017e-02 -7.426707497166006033e-02 4.432547290069627777e-01
-1.744592505672827587e-02 -1.258837519268810046e-01 5.111103804655391381e-01
-1.321114738963882589e-02 -1.229221447364591685e-01 4.923129341117091773e-01
-1.716284048436301710e-02 -1.262884148514627214e-01 5.219724174882995893e-01
-7.239102784631974707e-02 -1.222693489560556929e-01 5.031565610179558057e-01
-9.219928704531918373e-02 -1.231862980786507383e-01 4.954750603995273228e-01
-5.170582450059732493e-02 -1.015102524327995415e-01 4.605769471717971464e-01
-7.082475652203797101e-02 -1.213775795293131760e-01 5.154734926836612718e-01
-3.479647735855405377e-02 -7.707132935859467571e-02 4.455395395295282945e-01
-4.672176758804504060e-02 -1.203898885410753100e-01 5.011415445822323678e-01
-6.961418471925494289e-02 -7.972435608055311596e-02 4.421771408083431942e-01
-1.092343156314057873e-01 -1.223402362309904123e-01 4.894389869552954742e-01
-8.095033690063328791e-02 -1.189410610175928584e-01 4.770531455010350030e-01
-9.260025400643222271e-02 -1.222066977002958105e-01 5.040586987298047994e-01
-9.231343596055981149e-02 -1.155713683945965020e-01 5.156325367315803820e-01
-2.143271455141952317e-02 -1.224103178660296276e-01 5.427539650817985173e-01
-9.332739507658154715e-03 -1.254746081417808801e-01 4.992790951385632225e-01
-3.419958691017954688e-02 -8.735008280583655971e-02 4.515983962422771558e-01
-6.036257486170455711e-02 -1.012932792719691139e-01 4.588623046731554744e-01
-6.432427730780466979e-02 -1.160427926583359748e-01 4.818055725785706511e-01
-3.037326751608887196e-02 -1.228656196591723648e-01 5.309469387646073013e-01
-4.494846258104529674e-02 -1.206958446534361629e-01 5.299926238027357073e-01
-4.159503854543359844e-03 -1.284010094596960139e-01 5.102915949948509944e-01
-5.948276798900342666e-02 -1.161590789831692949e-01 5.302196371687837306e-01
-1.152408105805312055e-01 -1.171627144590100256e-01 4.968257287483873741e-01
-5.395835488128698787e-02 -8.019191321766475089e-02 4.459104174974506951e-01
-5.090499274382691980e-02 -8.643064005506435887e-02 4.493195957335647805e-01
-2.570808400242493436e-02 -1.142912755065903369e-01 5.533011198979003176e-01
-5.989692258840816769e-02 -8.284945192340818776e-02 4.458560476563173669e-01
-9.262918090892727219e-02 -8.778246053099626744e-02 4.474303451420361122e-01
-9.582703674554178541e-02 -1.239074993665767593e-01 4.726539150040683923e-01
-5.636685786186653585e-02 -9.128845397924946481e-02 4.512796827392689947e-01
-3.825001817393030440e-02 -1.167895712313798962e-01 4.870798532874340281e-01
-5.817087046130560435e-02 -1.170179214386071753e-01 5.300014312198296773e-01
-5.885716038818637752e-02 -1.210279715681892715e-01 5.177401066234765814e-01
-1.768951022224867289e-02 -1.184503819507815303e-01 4.831308920841388410e-01
-2.754760993053837273e-02 -1.093702747414547483e-01 5.528045783444180961e-01
-8.505835456849807075e-02 -1.212566565930791179e-01 5.112780960492112614e-01
-8.649072252902069435e-02 -6.864150095200265145e-02 4.432417196065747134e-01
-3.023654669762027708e-02 -1.181369153141549472e-01 4.893751805224154650e-01
-2.117842862136567680e-02 -1.220049969300392861e-01 5.442917882921076700e-01
-1.129844370879315163e-01 -1.212951741594213984e-01 4.940210059281135435e-01
-8.522635959911992187e-02 -1.224806718083189111e-01 5.047408097834756857e-01
-6.832615687213632050e-02 -1.184102177512805359e-01 4.865028709212516622e-01
-6.599545494032585391e-02 -1.208133392756445268e-01 4.973181668626423524e-01
-8.386100440142262025e-02 -9.408452320116422740e-02 4.500324041519794815e-01
-4.188394012120803811e-02 -9.126189433419691632e-02 4.540931799553394321e-01
-6.133423296959956972e-02 -1.061291408963013494e-01 4.643540753006744626e-01
-4.806645465057339528e-02 -1.166241321710175805e-01 5.350803300701901799e-01
-7.029821737183937491e-03 -1.209800643121447944e-01 5.465417588347475375e-01
-4.362044663222140045e-02 -1.154231380953425617e-01 4.840458425465342662e-01
-3.052478033693005466e-02 -1.177786107632952245e-01 4.886952655867115025e-01
-1.092070428010378375e-01 -1.092826485070848702e-01 4.629443708584320416e-01
-8.593668720639592584e-02 -1.139860222635301068e-01 5.198994821036186931e-01
-2.337183301281076098e-02 -1.055165055876209901e-01 4.653200787421942763e-01
-1.553873311766180987e-02 -1.004140599846851112e-01 5.657153061514051950e-01
-5.236138687643110412e-02 -6.807259691129065315e-02 4.420865634745559380e-01
-6.091827698285725429e-02 -8.071074023804340747e-02 4.446501553613365632e-01
-7.028417530227203114e-02 -1.213792154564308778e-01 5.155579544074291309e-01
-9.540490074655695596e-02 -9.169326286716604490e-02 4.497402257992278440e-01
-6.698955480858154177e-02 -1.015053322511857009e-01 4.580503210823144711e-01
-8.265239928681029913e-02 -1.127248545341244801e-01 5.221978375370536218e-01
-1.022022454337400549e-02 -1.212610707777952712e-01 4.871675286129653060e-01
-9.447402714506366109e-03 -1.128229246363830485e-01 5.612024009921945389e-01
-8.345392356507456977e-02 -9.678749504697885253e-02 4.518793412130197584e-01
-1.085155888986570200e-01 -1.202409489021519784e-01 4.771537506599541345e-01
-1.046521399817926593e-02 -1.235415527332282826e-01 4.930379106754743113e-01
-6.805782386777364801e-02 -5.350777812283092488e-02 4.403564862982992656e-01
-3.779567630855738131e-02 -1.067893957464765842e-01 4.693093344573598391e-01
-1.999912396158117639e-02 -1.251163716529697656e-01 5.078882179735032532e-01
-4.646721925719498464e-02 -9.881837309695024052e-02 4.593894313472016711e-01
-2.182323058420812534e-02 -1.011474417445720059e-01 5.616274533145018122e-01
-7.089000046563248558e-02 -1.044130381229002730e-01 4.604128526606415805e-01
-6.807175490337287471e-02 -1.185488566405903804e-01 4.870278958286101689e-01
-1.863771128501005500e-02 -1.228394621683341764e-01 5.433851722931388739e-01
-9.549397775898516016e-02 -1.199892238076638862e-01 4.660759849335725513e-01
-2.479443515826940808e-02 -9.706351944914866359e-02 4.570784620342597249e-01
-8.930096637249225477e-02 -7.707492598379871163e-02 4.454992206248751807e-01
-8.067089325201456940e-02 -1.117415946345462485e-01 4.653565606184791870e-01
-9.516742835592778560e-02 -1.213707854666280228e-01 4.671869703571591703e-01
-8.911790743692009353e-02 -1.060849510620834601e-01 4.579081115226769083e-01
-3.763788375953975446e-02 -1.203293741544584489e-01 5.370139811693263043e-01
-5.096411463523897734e-02 -1.111113928337668783e-01 4.752934513934657934e-01
-2.284160886733952942e-02 -1.249357005333619208e-01 5.205996985688339240e-01
-8.061503038623119011e-02 -1.197628792868514758e-01 4.791373223827309347e-01
-3.668816348022185814e-02 -1.225134014459790949e-01 5.217091047446623664e-01
-7.394801008287059385e-02 -6.673801266232566587e-02 4.378172300647784621e-01
-7.187926387926048266e-02 -1.102374268845101729e-01 4.673937454594789820e-01
-5.539640274316948165e-02 -1.065354702267763548e-01 4.665473564106112359e-01
-1.196733355162237500e-01 -1.084560704321861080e-01 4.730977746772089265e-01
-4.357084729397561751e-02 -1.157383111644605389e-01 4.847630355118830447e-01
-6.619493402674121209e-03 -9.745563622375311152e-02 5.699309561234932042e-01
-5.923959375334274940e-02 -1.214238525463422064e-01 5.142218143575647549e-01
-1.008482027168221273e-01 -9.617650531318938656e-02 4.524988458479707321e-01
-9.791378755880089657e-02 -1.205502291506113655e-01 5.070525760694846173e-01
-9.192138601138857834e-02 -1.230848848756972147e-01 4.910343135746852439e-01
-8.811520178999058400e-03 -1.193466325007425805e-01 5.520341810229519863e-01
-1.125825579954257971e-02 -1.271796206554701714e-01 5.250137414429841831e-01
-1.952788377400588651e-02 -9.600523484055815959e-02 5.632110689195517494e-01
-3.902393025809203220e-02 -1.210079653820739926e-01 5.338728652307181965e-01
-5.167619997295034434e-02 -1.108087177683916846e-01 4.744946163353173096e-01
-3.692034767672421058e-02 -1.162379870957081646e-01 4.858834313582613418e-01
-8.135023156468790262e-02 -1.220742390163856994e-01 5.100364701740179862e-01
-5.590240603966591115e-02 -6.688045177004321717e-02 4.412775056246245331e-01
-4.381733259546041759e-02 -1.208151715247330199e-01 5.313295316507000710e-01
-8.275978435351666329e-02 -1.202844443205126485e-01 4.786315574548311580e-01
-4.565059812494534630e-02 -1.214901570658082353e-01 5.229111674933293319e-01
-4.123267996502268107e-02 -9.528936909371332753e-02 4.573976405010511392e-01
-9.112393536728066734e-02 -1.230836344536714311e-01 4.975344331972160750e-01
-1.568934971642578155e-02 -1.144426654478542249e-01 5.592840757656062367e-01
-8.777679985875795621e-02 -7.005511739178199582e-02 4.456538408829837095e-01
-1.722425290318207319e-02 -1.108640714467036131e-01 5.619719706202798148e-01
-7.028706642964767382e-02 -1.191699232187357071e-01 4.877279651173331843e-01
-4.704245090482350733e-02 -1.216554452948565013e-01 5.180014535674032361e-01
-8.578503616368897411e-02 -1.210336578522334117e-01 4.854048601321853118e-01
-1.000959599122685784e-01 -9.864919297299570844e-02 4.533560763555207207e-01
-5.529000812991981956e-02 -7.505024273592036943e-02 4.439155120661590903e-01
-5.965037962876208050e-02 -1.160713572133355298e-01 5.302050742468498168e-01
-3.930899810086938354e-03 -1.276777516421055969e-01 5.059851905763236291e-01
-2.581312928942766649e-02 -1.242220135084450700e-01 5.160685240431728271e-01
-9.106577329252624198e-02 -1.064274706642673318e-01 4.578419832862876682e-01
-8.014191980922297232e-02 -1.055259610705362033e-01 4.591867645159482536e-01
-2.208355135820017079e-02 -1.240438030764632465e-01 5.350508407185607940e-01
-1.134205642011808929e-01 -1.185290184640857558e-01 4.765536860250410567e-01
-6.508164212205416743e-02 -9.329902925853583717e-02 4.512933935178355394e-01
-3.794054199749316569e-02 -9.351175226274215102e-02 4.562925529078898923e-01
-6.513240655032694060e-02 -1.216893306971362082e-01 5.129070700474306355e-01
-6.809420618666242597e-02 -7.932064609825148493e-02 4.423679510049615682e-01
-3.066825301234498216e-02 -8.826747692292465086e-02 4.517846039042586748e-01
-1.582994128037461257e-02 -1.184517256188591522e-01 5.534297764339538572e-01
-1.423936645730349178e-02 -1.150049448395092516e-01 4.750580076481477065e-01
-2.557172325982166872e-02 -1.240000440810391374e-01 5.111797855450387340e-01
-5.902214765100498306e-02 -6.274222405575270722e-02 4.398943040054306697e-01
-5.482089467831231799e-02 -1.120163142346022461e-01 4.758896425414895770e-01
-7.223340331210323373e-02 -1.036112926378285060e-01 4.593367902594446828e-01
-3.223990282049901679e-02 -9.177796406971891474e-02 4.547589207145021351e-01
-3.030497455023881820e-02 -1.174172800825222379e-01 5.465641545648626254e-01
-5.741184692078203644e-02 -1.086255018852424620e-01 4.692001357753446955e-01
-4.582438494104077581e-02 -1.214917174629648600e-01 5.225413263272506992e-01
-8.394065853315979542e-02 -1.149356725477144736e-01 5.205625340786105282e-01
-1.088558876478373655e-01 -1.210773774837226036e-01 4.791968535755670722e-01
-1.171054987927812735e-01 -1.121790633506432044e-01 4.726535461656452553e-01
-5.191563872479464797e-02 -1.112770441398071991e-01 4.752940154129648986e-01
-2.116708283895357354e-02 -1.230516982659283637e-01 5.403997576105787903e-01
-6.791762325912199805e-02 -8.921770546505392030e-02 4.479270505878055197e-01
-8.441314671976911377e-02 -1.227649286363795000e-01 4.999857362939850169e-01
-1.037537423538882619e-02 -1.114969577987691141e-01 5.622868564414214010e-01
-9.441727669343723262e-02 -8.210413994311269170e-02 4.487899221741924460e-01
-4.424109072755760819e-02 -8.259803017319770901e-02 4.482998958308110904e-01
-5.731868560364272724e-02 -1.193956809739306762e-01 5.260649169224788091e-01
-3.347174465420958006e-02 -1.224665410377674818e-01 5.093863585276371397e-01
-7.448813849500504625e-02 -1.158758696871104582e-01 5.255965781917186774e-01
-7.128324831292597030e-02 -1.171368098399668406e-01 5.244495951945649104e-01
-2.393787940984065318e-02 -9.690956534517260190e-02 4.566935179953984791e-01
-7.161797058104024671e-02 -1.217842673559572098e-01 5.122541361344159494e-01
-1.060731686486744707e-01 -1.136401657035808338e-01 5.065906616675649454e-01
-4.509238896855982670e-02 -1.217251094098664443e-01 5.187806424117942239e-01
-4.893387477610623704e-02 -1.198929984537276811e-01 5.283410377156516624e-01
-1.860398871178318980e-02 -1.211520132161753999e-01 4.905698709609364050e-01
-2.768636090451888007e-02 -1.072482476295068543e-01 5.529981097688871916e-01
-5.671960656546026769e-02 -1.214636545601924938e-01 5.140274110300210308e-01
-6.859793178867826247e-02 -1.197374483371751314e-01 4.903571063883389591e-01
-7.265725974782492880e-02 -9.376397772306749312e-02 4.508291617210903879e-01
-2.987435539663179859e-02 -1.222528523974296677e-01 5.029113824166265845e-01
-7.348428774677079334e-02 -8.296096681840524345e-02 4.432311959713494676e-01
-6.511770190763195576e-02 -8.357055208446868833e-02 4.449789835759465073e-01
-1.854452289365858542e-02 -1.104322203541891340e-01 4.698980763569820529e-01
-3.626974679214738095e-02 -1.137026669554202785e-01 4.805504895902798501e-01
-1.608589771296199677e-02 -1.217178264032141161e-01 5.470400592839783638e-01
-4.198501242839962344e-02 -8.458686969796969102e-02 4.495881696432219021e-01
-1.060113513493776416e-01 -9.674145226397501407e-02 4.561285527372463955e-01
-1.031006259716426288e-01 -1.096568052859345083e-01 4.615031269923715596e-01
-2.663028119561790252e-02 -1.208419882383327815e-01 4.949008722231666435e-01
-1.180804140689800247e-01 -1.021812111168398929e-01 4.732856890748010081e-01
-8.886900024618923921e-02 -8.068685823071826413e-02 4.449364482105557239e-01
-9.006730172090356146e-02 -1.075438652765492442e-01 4.588830941287833087e-01
-5.421555623196682577e-02 -1.006450049043581402e-01 4.591511473624159678e-01
-1.060756308102201867e-01 -9.803340459054847578e-02 4.559776327606801516e-01
-6.593084419864617129e-02 -1.106960148966086299e-01 5.301436085895097072e-01
-9.635310198484330069e-02 -1.229378877448080859e-01 4.763240350967854475e-01
-3.437071159491868200e-02 -1.227597721792475505e-01 5.261262705527142147e-01
-5.678809907006776569e-02 -6.510425583104320624e-02 4.405757167229411020e-01
-8.067731193613388030e-02 -1.191115526378412476e-01 4.777086222720854924e-01
-2.780001764156925931e-02 -1.128308673480840629e-01 4.778334194531656531e-01
-8.062498083936188442e-02 -1.221365911281400013e-01 5.095355458984611730e-01
-6.179325093929319279e-02 -7.283099794253077020e-02 4.418648828774688897e-01
-3.368240722954590066e-02 -1.187747523251374976e-01 4.917160882268680200e-01
-5.063209047812382291e-02 -1.089440585265412653e-01 5.382573640111552038e-01
-3.651741081628465113e-02 -8.353826066847187815e-02 4.491774465947779293e-01
-1.007217926639056294e-02 -1.277986456817276906e-01 5.186791389721749912e-01
-8.562103435139491181e-02 -7.329448837891497370e-02 4.419474375801232813e-01
-2.244363453045788298e-02 -9.824004729443487627e-02 5.589368894848888436e-01
-1.547586916149169302e-02 -1.228637194472129435e-01 5.443268056316012959e-01
-3.145549278714741825e-02 -1.217855491251112060e-01 5.357873512642294944e-01
-7.909621742041447745e-02 -6.414432791155225133e-02 4.390563200381061293e-01
-3.213169002465975782e-02 -1.075630868979036703e-01 4.701557545759497136e-01
-1.184000913361565877e-01 -1.152521323227727323e-01 4.930522239528140060e-01
-7.711693032329808295e-02 -1.187744373966797273e-01 4.807405204247414132e-01
-7.284376611878481955e-02 -5.468523371037833924e-02 4.405306998455729151e-01
-8.443834694813664998e-02 -1.192900776618996267e-01 5.162868199958194904e-01
-1.204160615732710743e-01 -1.111631840257679277e-01 4.819103723862886990e-01
-7.671837405481375660e-02 -1.153183859776772541e-01 4.738482298483313593e-01
-7.267196566363785803e-02 -1.198476967046105679e-01 4.876892053898975177e-01
-6.433265655593069232e-02 -8.682036864176241597e-02 4.470339084393122886e-01
-8.376470125796757482e-02 -6.651297409048796683e-02 4.415572280979909170e-01
-1.032368373668280659e-01 -1.212582156748361895e-01 4.764164764010597741e-01
-3.219990911102095510e-02 -1.222356394035241656e-01 5.052836381898475615e-01
-1.001324129675107560e-01 -1.044222088115969727e-01 4.567940507169989117e-01
-6.250538247712633666e-02 -9.603586007232225996e-02 4.537179556592391139e-01
-7.555190876940605371e-02 -1.033723475648491430e-01 4.583706245343669439e-01
-7.510166476598795562e-03 -1.231982892374739735e-01 5.400862049814387778e-01
-1.118027872588478744e-01 -1.164624781623558869e-01 5.013440882618618311e-01
-8.679347138752274704e-02 -1.228205364394462790e-01 4.988327736355793740e-01
-6.832622019720324680e-02 -1.088081779934562399e-01 4.663804376915918759e-01
-7.676664328916411872e-02 -1.202338149447493704e-01 4.874444721596669639e-01
-6.092046386974778183e-02 -7.870629088073335944e-02 4.439020651007244966e-01
-4.670984218663426502e-02 -1.156597008532875837e-01 5.363666955258893365e-01
-2.360740301395304608e-02 -9.710378165412150708e-02 4.567352078133453674e-01
-6.448432145266846938e-02 -1.192802194011658712e-01 4.911363866098620301e-01
-5.403885739131737698e-02 -1.082821120855747415e-01 4.694277968035213688e-01
-5.854629328060371313e-02 -5.989832021920057925e-02 4.394710746980318716e-01
-4.279588185220455088e-02 -1.009918426098068145e-01 4.624100630120667188e-01
-9.439831249250470180e-03 -1.094773076237755410e-01 5.640503759771173797e-01
-5.359049510877413741e-02 -9.957760029838287619e-02 4.582831013374621398e-01
-1.103257647408722869e-01 -1.220324903484853174e-01 4.863894002585578136e-01
-7.852046205760218611e-02 -1.214659222152969509e-01 5.137579259229375639e-01
-8.674282077419021020e-02 -1.097773567701468139e-01 4.615786237560548511e-01
-6.992968428865897756e-02 -1.220124259293180052e-01 5.098574270021075661e-01
-9.819071224300607303e-02 -1.234637121007257365e-01 4.904297426266535642e-01
-3.295026205092254495e-02 -1.114818150736513191e-01 4.761552102016783916e-01
-8.140159171396757487e-02 -1.180355042200027793e-01 5.192358399059230356e-01
-8.583473893332120574e-02 -1.162170848224740871e-01 4.661933391667712479e-01
-1.172443681605823546e-01 -1.049311492971657239e-01 4.693595425334189941e-01
-9.527421849925107877e-02 -1.222814992773174625e-01 5.024020884753067628e-01
-3.892719647668729799e-02 -1.021720800101956900e-01 4.639269442752783079e-01
-8.805904951006478243e-03 -1.186791420509064748e-01 4.810622647341394331e-01
-7.765866347252728397e-02 -6.549935877873173939e-02 4.378757240989776811e-01
-1.128866454489129909e-02 -9.973347665496781755e-02 5.680988757496800989e-01
-1.125297491854500981e-01 -1.146198477390165255e-01 5.014525553216634401e-01
-8.769839295629253476e-03 -1.266453124178298084e-01 5.038277716501465830e-01
-9.291792855860168954e-02 -1.144404982995551878e-01 5.160718856632685592e-01
-4.506372044939579991e-02 -9.949393164673048240e-02 4.602871650034122131e-01
-1.475428278656890080e-02 -1.144387481344256718e-01 5.595097306955498784e-01
-3.059696351490966137e-02 -1.081970227030364523e-01 4.709152011750556421e-01
-4.532826448829802013e-02 -8.512471499636860284e-02 4.494786619666817362e-01
-7.802329411825237315e-02 -6.702357273233661150e-02 4.380018754806129233e-01
-5.168112642578657351e-02 -1.112480515227729505e-01 4.753160453398094787e-01
-4.198094904068556260e-02 -1.220679370933610425e-01 5.171847264115129184e-01
-2.129812721160083758e-02 -1.234859703088180688e-01 5.004648877981814348e-01
-3.770757640450157332e-03 -1.289014447096947513e-01 5.223715578196186371e-01
-2.621080212209104393e-02 -1.240492896540241197e-01 5.137761135363206888e-01
-6.625530606098767317e-02 -1.175473428171987245e-01 4.849658731823613955e-01
-4.810172755990314852e-02 -1.186449557890620760e-01 4.928551434308566792e-01
-5.574153894093444167e-02 -1.210411805107260014e-01 5.203436968957650954e-01
-8.878174390574272712e-02 -1.056543427087719422e-01 4.576134888001463508e-01
-8.254105352790050421e-02 -9.657772538672780571e-02 4.518557344814969623e-01
-8.611381772155771164e-02 -8.614936534322806261e-02 4.458461980308461303e-01
-6.392860157038680879e-02 -6.289856117888449616e-02 4.390702445142220522e-01
-9.914230727952531852e-02 -1.233341087236978217e-01 4.947043308677248619e-01
-2.256281794181683523e-02 -1.061291858214853112e-01 4.658596220562463697e-01
-9.155949408906874365e-02 -1.223206892411313057e-01 5.038210545389877337e-01
-9.399813543909008029e-02 -9.154598766806693044e-02 4.488889773007951334e-01
-1.198250562311735726e-02 -1.089077316319488065e-01 5.642924549077156238e-01
-1.050262240378177642e-01 -1.169306947269281721e-01 5.051961714514959789e-01
-4.518056147032441933e-02 -1.217889017013505382e-01 5.173237191913160338e-01
-7.645894955381216107e-02 -7.290431217190190827e-02 4.395598569856838389e-01
-3.993640045657306792e-02 -1.064435450572372710e-01 4.687605581709108904e-01
-1.672944871197795669e-02 -1.234330737581322140e-01 5.420413243969406381e-01
-3.219663860946527650e-02 -1.008178218581793628e-01 4.625717998149034282e-01
-2.929874743281034657e-02 -1.126567229878796816e-01 5.497048281893255339e-01
-8.392541304462168561e-02 -1.224291826838177777e-01 4.953220206597578334e-01
-8.873870168621085519e-02 -1.225628993873323774e-01 4.909139789367672480e-01
-5.612494875021011020e-02 -1.214728696947267039e-01 5.144380576825193785e-01
-3.649962482821296483e-02 -1.222259381920521026e-01 5.097015803277602508e-01
-2.502848486612622644e-02 -1.243838894769821735e-01 5.245365744009919950e-01
-4.300462422234275356e-02 -1.212241909051742228e-01 5.304986476828376096e-01
-1.069775992451963698e-01 -1.226297595865352696e-01 4.941848488794275407e-01
-1.010057824442708169e-01 -1.227962968407156075e-01 4.992351882328196488e-01
-7.891693098076958679e-02 -1.223144228336259104e-01 4.980537348565832190e-01
-1.137434407768360412e-01 -1.030559460425716223e-01 4.631504404590671142e-01
-9.843775673017716998e-02 -1.149164788657729974e-01 5.126719384943242419e-01
-1.744953691156032188e-02 -1.112841572482287517e-01 4.706762749653848332e-01
-4.175732282667218853e-02 -1.163680602740956860e-01 4.861522677476272092e-01
-2.964849092836719172e-02 -1.225315800963768520e-01 5.346932724736311870e-01
-8.691164813853608992e-03 -1.280585610772612681e-01 5.202895716669841963e-01
-8.473390135082575769e-02 -6.799912014328649001e-02 4.416812762499409684e-01
-4.479254674313901813e-02 -1.183587255932483789e-01 4.918499493819623591e-01
-3.222247419124937839e-02 -1.204936243692093650e-01 4.967041612836497477e-01
-6.873847742141607486e-02 -8.609705221145073917e-02 4.459557885301674296e-01
-3.199005175222793124e-02 -8.515785800826085328e-02 4.498165645762363662e-01
-8.197473681517079835e-02 -1.092143144141424771e-01 5.241093892391716080e-01
-1.239308711083836508e-02 -9.848390168544532419e-02 5.679811689647078499e-01
-7.610031399655632633e-02 -8.428496372850799445e-02 4.440094046308076248e-01
-6.019755369382549098e-02 -1.215949930586593120e-01 5.129775515435046618e-01
-5.555453736892252553e-02 -1.157285215664921457e-01 5.322973742299725863e-01
-1.055220213171132182e-01 -1.231045565985687124e-01 4.908049402774579129e-01
-3.474666294808972933e-02 -1.079932737481473365e-01 4.710191497892742829e-01
-3.597169250147747022e-02 -1.157447025550348424e-01 5.425339550527640275e-01
-2.795040156269320425e-02 -1.231628945774513872e-01 5.064235006649664417e-01
-4.344934020968586885e-02 -1.166854255547287444e-01 4.868450904135980251e-01
-8.698889361358971839e-02 -9.521452389830825647e-02 4.506095042721910415e-01
-3.868060348262256087e-02 -1.156115391743224030e-01 5.410241421187959032e-01
-7.357295961042907562e-02 -9.482421111959492277e-02 4.515667790629440126e-01
-1.091507741361599365e-01 -1.168469780303485472e-01 4.712808839643047865e-01
-6.930239620192084338e-02 -1.221766062133498587e-01 5.062087289453455208e-01
-6.233691903390458505e-02 -9.199581320502256410e-02 4.507533823642175808e-01
-1.825378498328820293e-02 -1.129369631668385582e-01 5.595455301006014848e-01
-1.510089853392196368e-02 -1.228844966945564499e-01 5.443197897746027136e-01
-5.889452331952636788e-02 -9.575156141360000039e-02 4.540947552265133802e-01
-3.940145582536402902e-02 -1.222565728298814491e-01 5.206604636535746566e-01
-9.393035158911106075e-02 -1.233113875156495454e-01 4.897581913222768257e-01
-1.721810506161295870e-02 -1.241462093636890723e-01 5.383502048988113575e-01
-1.062310982949286331e-01 -1.213107575903800001e-01 4.994585215016916213e-01
-9.933816777728490810e-02 -8.318397144365019535e-02 4.548132015206168277e-01
-4.234668253066675714e-02 -9.313417625569102298e-02 4.555537675978899581e-01
-8.507978603010536711e-02 -1.226477368630968789e-01 5.030359345994649400e-01
-7.868674009167336836e-02 -8.236941638442531188e-02 4.430315056430003118e-01
-9.057622283297085686e-02 -1.224433776974487298e-01 5.034540951812906950e-01
-6.463628884089861470e-02 -1.215811284945460813e-01 5.141248315448346817e-01
-1.144619072776976026e-01 -1.163619244576970246e-01 4.986046427817276694e-01
-7.069887587458857647e-02 -8.465102430180310167e-02 4.447773346745971801e-01
-6.499523390282901936e-02 -6.432299258302111300e-02 4.389989111924967324e-01
-2.778058506624897853e-02 -1.186355783155468024e-01 4.899583055115220298e-01
-3.812002728420796349e-02 -1.152712011980755874e-01 5.415804556930536862e-01
-6.158407231366003903e-02 -1.211244666034962392e-01 5.018257534791000785e-01
-9.677777838927775766e-02 -1.210807008165980109e-01 5.081241556959560368e-01
-1.123355278794186674e-01 -1.189095870532305699e-01 4.764978346322697456e-01
-6.543210312990695166e-02 -7.654963809898784888e-02 4.420665661953675496e-01
-3.162687838984048344e-02 -1.232668243769770577e-01 5.210501898749131389e-01
-9.349767890502741485e-02 -1.221206618034145347e-01 5.041471737819888110e-01
-1.057090275352577935e-01 -9.831031929269506975e-02 4.554983750828394129e-01
-1.794113848392017707e-02 -1.210680595507400842e-01 4.899103640853263442e-01
-7.203643013613365842e-02 -1.181795074469486201e-01 5.226769535195449068e-01
-9.421161105374348255e-02 -1.165544615527357164e-01 5.142438166588698678e-01
-6.073563341635006274e-02 -1.146531601615487089e-01 5.307821093478072294e-01
-2.885858158359338316e-02 -1.213147056111534144e-01 4.976314340787696411e-01
