-8.435102399067559431e-02 -1.008454924878172815e-01 4.539568840496328583e-01
-6.387392286281287634e-02 -6.811301705579041188e-02 4.395340598285605305e-01
-8.717955947231674496e-02 -1.008978568653059460e-01 4.536099590732792231e-01
-2.777064317554658532e-02 -1.047167473872223226e-01 5.525664326164579920e-01
-7.926748398199659484e-02 -1.158567951214062586e-01 5.224310442546613587e-01
-2.290784275980929305e-02 -1.190670704661106749e-01 5.495524090923462612e-01
-9.774798938030596074e-02 -1.227483835546542973e-01 4.688367237688923495e-01
-9.247205887801625279e-02 -8.894726048653796291e-02 4.469538962908172208e-01
-3.569025026723356836e-02 -8.745820452822308799e-02 4.512593211304351537e-01
-8.824954610778774911e-02 -1.223540980549883278e-01 4.896535439305884641e-01
-7.389097054704388268e-02 -1.146521996342843019e-01 5.261334409079914121e-01
-5.104165743180050230e-02 -1.215517249165783825e-01 5.112048877431445426e-01
-7.379062226015242754e-02 -6.636901289553208405e-02 4.371851822544849941e-01
-7.142196382259552445e-02 -1.065539716224782052e-01 4.619507063986708073e-01
-9.514002540905398819e-02 -8.327155403630699670e-02 4.480533425513655299e-01
-4.922683519039929012e-02 -5.827088020569157201e-02 4.395331590276474465e-01
-7.499435758209668790e-02 -1.009556739298847622e-01 4.555796114395560537e-01
-8.232248795136001829e-02 -1.136868704492688675e-01 4.667690138462114446e-01
-2.882135474247750351e-02 -1.224843920873724956e-01 5.027185599171470898e-01
-1.127582375384804242e-01 -1.161928748997802380e-01 4.714654752416481132e-01
-3.761413211442775351e-02 -8.966138392107923794e-02 4.528433224885607400e-01
-4.924003909216748132e-02 -1.216733883001513694e-01 5.127747409834844117e-01
-4.773116942478190100e-02 -9.971080830161574426e-02 4.594610138949577482e-01
-9.663131396689278452e-02 -8.893216746729626365e-02 4.493756318535789829e-01
-4.450679286041156479e-02 -7.875556562582974873e-02 4.461922615251716073e-01
-8.261598151147707403e-02 -8.770933781323447809e-02 4.456555066199986426e-01
-6.480169973170895464e-03 -1.283157144323694154e-01 5.132121299722093299e-01
-2.203761097213156883e-02 -1.052505435735244799e-01 4.640731731761953416e-01
-1.944005643538591899e-02 -1.222273881536734830e-01 4.941586120948907590e-01
-3.578608864553818603e-02 -8.894494119564064216e-02 4.524068849785009561e-01
-1.053796742708633244e-01 -1.141635876145014744e-01 4.655125294718374662e-01
-4.080837367779902025e-02 -9.704337135515936352e-02 4.585426543147110845e-01
-7.449115177565954204e-02 -1.217075535059789493e-01 5.129231254954437214e-01
-6.211528405021029403e-02 -1.195987591028628144e-01 4.936573149831754437e-01
-9.484731497245045551e-02 -1.115479251234769847e-01 4.601422916593776447e-01
-1.137570720166358323e-01 -1.113758807786189575e-01 4.665767476734847818e-01
-2.718790200002831059e-02 -9.463468409702754935e-02 4.557157974096383568e-01
-9.525950660984557061e-02 -8.729279502346326547e-02 4.479973141561836569e-01
-4.042457514869585156e-02 -1.113325743734157186e-01 4.761340683791569495e-01
-2.899742258133480508e-02 -1.209688856424271097e-01 5.410627140857591222e-01
-1.108357020426694109e-02 -1.269621557011845203e-01 5.071129635870207375e-01
-5.027335568614074712e-02 -7.862178003701866813e-02 4.455542899196744955e-01
-1.189960619127149039e-01 -1.170806780580843504e-01 4.859403115120051742e-01
-7.268230141107093201e-02 -5.777421379385960093e-02 4.386972287173482310e-01
-6.847316728767706417e-02 -1.114129715458338915e-01 4.701551782787402600e-01
-4.462384100179719176e-02 -1.218989535647675704e-01 5.157837670128507801e-01
-5.760053557089706705e-02 -1.118582187437701658e-01 4.742766077338362307e-01
-4.132750775429043510e-02 -1.171834329920353607e-01 4.877438935458845437e-01
-1.161907407559986394e-01 -1.068895316037454107e-01 4.666679556531398987e-01
-6.171596947945363204e-02 -1.095933608918560481e-01 4.692228957210691775e-01
-1.361797090821079137e-02 -1.164391639064021600e-01 4.771281724060817409e-01
-9.617689531532107317e-02 -1.223884559927433252e-01 4.768441061307519546e-01
-4.941890296104662489e-03 -1.209605982354778619e-01 5.430590362300097285e-01
-7.979483934908948584e-02 -1.199987581867703601e-01 4.861671722140369911e-01
-2.754260568162224601e-02 -1.062991200836440331e-01 4.675365759360713969e-01
-3.655788742724439683e-02 -1.073680061171515265e-01 4.698700820622360164e-01
-7.795569674471429511e-02 -9.636486141114933290e-02 4.516351041343393269e-01
-6.486780320414931023e-02 -6.464503231410179129e-02 4.385182382765463460e-01
-3.740276809901876831e-02 -1.192756916615447804e-01 5.387596725554266719e-01
-3.939377523092151001e-02 -1.223333625552641829e-01 5.168673161582539866e-01
-1.922482364947307454e-02 -1.258285192189721180e-01 5.240531046482741484e-01
-4.979340187758650449e-02 -6.602996515320322390e-02 4.413260189451095328e-01
-2.505411535215168461e-02 -1.063646209988329816e-01 4.670326354061201668e-01
-5.088487763428489047e-02 -1.208279173777687121e-01 5.228661991387785202e-01
-1.018563474566928639e-01 -8.556319152477731560e-02 4.553237466987695159e-01
-1.021753245065926685e-01 -8.970220176052616512e-02 4.522405168625017180e-01
-1.020435690474705281e-01 -1.220017234956774499e-01 4.764176714688133640e-01
-5.870856165662103471e-02 -9.877267207257608983e-02 4.562461572296367951e-01
-8.271266302501255330e-02 -1.066089011630285271e-01 4.588697976060424621e-01
-1.078849724299413976e-01 -9.989210473866140527e-02 4.558576551651226105e-01
-8.726011144416759291e-02 -1.227264667406035153e-01 4.959408215727913460e-01
-2.120293426675481929e-02 -1.212279392535428602e-01 4.922358727016564184e-01
-6.173802654197594469e-02 -1.205703268382964932e-01 5.199618481341055087e-01
-6.253979089610561815e-02 -1.198882260592950555e-01 4.945006283001079361e-01
-6.783451605863496936e-02 -1.051987182690005823e-01 4.612176441799212823e-01
1.580910848453664789e-03 -1.287676167433665919e-01 5.144284140056317733e-01
-5.093377599653169108e-02 -1.190536508186720160e-01 4.945493289046666852e-01
-1.898911722061103272e-02 -1.220396359510808326e-01 5.454120802379793798e-01
-6.944493524337354284e-02 -1.105481247588796095e-01 4.683611419846658297e-01
-6.105671025563595006e-02 -1.113876982987390407e-01 4.723345664301044633e-01
-7.921372700842174708e-02 -8.934018673404499344e-02 4.466698803144661389e-01
-7.446792020584905997e-03 -1.283963102556840152e-01 5.173925998975206220e-01
-6.353080265873552179e-02 -1.210780802784526683e-01 5.002956033059902108e-01
-8.379423828881492342e-02 -1.219318283018221288e-01 5.098166216038744203e-01
-9.936271344702614361e-02 -8.463703247890015657e-02 4.525333280945029180e-01
-2.689213137372075541e-02 -1.133966706832946342e-01 4.782510953878251203e-01
-9.328743784504488212e-02 -1.230569109260653826e-01 4.976222588517240086e-01
-3.971182578400342389e-02 -7.825950050415672599e-02 4.460620292600848136e-01
-6.555370291715853504e-02 -1.188025871715604892e-01 4.884319093559982283e-01
-8.536261248132899493e-02 -7.305629799257144785e-02 4.411455353494230236e-01
-6.608883204065199579e-02 -1.069762193502854786e-01 4.638011326629389308e-01
-8.883626377100689586e-02 -1.226416731276201849e-01 4.913975657875342407e-01
-1.083508343764356605e-02 -1.273230397066662800e-01 5.093331846464717039e-01
-1.165951298135451120e-01 -1.008925710807036108e-01 4.683432189597357409e-01
-3.102374967826167229e-02 -1.194574673090030292e-01 4.922886661214859738e-01
-6.920466398230017135e-02 -1.189627174384119274e-01 4.873054424368308823e-01
-2.161922231204227440e-02 -1.078386213332434701e-01 5.608400380806121133e-01
-8.789499355378710410e-02 -8.672124314544636670e-02 4.459469570060677346e-01
-2.700209969371722765e-02 -1.145524414722602358e-01 5.517986800442279405e-01
-8.237817279035468399e-02 -1.200483626884984584e-01 4.785656061768214231e-01
-5.753353969893174741e-02 -1.124437051991721698e-01 4.755076219462731624e-01
-1.018206623339778377e-01 -1.050682913094681398e-01 4.565941663923909766e-01
-1.450979166279885331e-02 -1.142958668975308512e-01 4.737454843321008968e-01
-5.702575807402290170e-02 -6.436270222078659120e-02 4.399396021680906377e-01
-2.377679978865563162e-02 -1.127407263193613979e-01 4.761521298754063936e-01
-5.614457355887343681e-02 -1.156015151362892734e-01 4.826097081911478459e-01
-1.057174505238060586e-01 -1.094557184205388889e-01 4.611304889421982689e-01
-6.478019768711448800e-02 -1.216163331970853412e-01 5.132344931937424803e-01
-2.189671428499563935e-02 -1.022483282129071497e-01 5.618310305160578721e-01
-3.778361894770487783e-02 -1.163370228323579447e-01 4.857854280436876282e-01
-5.537164358784850415e-02 -8.483325905717262194e-02 4.471347470268752788e-01
-6.804491099067293269e-02 -7.657889391935591983e-02 4.409609328101279924e-01
-9.346658777622955661e-02 -1.032861671188043673e-01 4.549365501532369183e-01
-5.349285278156176021e-02 -7.355967486592215887e-02 4.432349733254775104e-01
-1.357935752341334935e-02 -1.215745559089025374e-01 4.885347458509501917e-01
-8.292767090450210710e-02 -1.003478473148719241e-01 4.537992363080799452e-01
-8.464149446102274543e-02 -1.228616359772160133e-01 5.004860299699188664e-01
-2.152242771137025806e-02 -9.610245008054506266e-02 5.607490288738626871e-01
-4.855267254770379709e-02 -1.190659961430564767e-01 4.945591154774242604e-01
-6.913284917118703299e-02 -1.127316803764042280e-01 4.721749591743413244e-01
-1.648981211322923454e-02 -1.210532167607130533e-01 5.481957498925855710e-01
-7.034871108011725438e-02 -1.211844455235673718e-01 4.953530055032769885e-01
-9.579741017351678378e-02 -1.219499093675142226e-01 5.039722324119393360e-01
-2.368292098824112055e-02 -1.128866290310126391e-01 5.563880145559745305e-01
-4.412099976968104215e-02 -8.962905161217005201e-02 4.520507269867178879e-01
-2.567174757697695056e-02 -1.231823253103928595e-01 5.035667698079914212e-01
-7.696920470400768488e-02 -7.522082809550444116e-02 4.394739252668509177e-01
-1.979199151255012223e-02 -1.201794051426079701e-01 5.489236417414895541e-01
-1.035315018613986032e-01 -9.619655158775851367e-02 4.525578633498844039e-01
-3.339468728957879773e-02 -1.130426818755669166e-01 4.787982113082647762e-01
-3.166306769318356223e-02 -1.157111224990296644e-01 5.462635904410397814e-01
-3.533660762768245367e-02 -1.183055785004280963e-01 4.902997789335891698e-01
-5.436784915983908922e-02 -1.154701637178018603e-01 4.825924331188674032e-01
-8.304774121882023408e-02 -1.200685140124474054e-01 4.840446651103025300e-01
-3.865222916247078311e-02 -7.655788845338584725e-02 4.452668608720192212e-01
-6.537325421073637843e-02 -6.302703440958022651e-02 4.382565612184467496e-01
-4.652936309814972166e-02 -1.186312583564255035e-01 4.922775679057024290e-01
-4.158883513994634379e-02 -9.318145388978610333e-02 4.553080581096762280e-01
-6.614499370417446789e-02 -1.100758295427928801e-01 4.687840182386944776e-01
-9.008496958910659769e-02 -1.214555263615096914e-01 4.827059002833606893e-01
-6.262996543030159569e-02 -1.216293277232892434e-01 5.056994889872574728e-01
-1.102500760099363042e-01 -1.014362591014573572e-01 4.576101220198680597e-01
-1.921476449224673172e-02 -1.257736661420638946e-01 5.265794275153052872e-01
-6.023439073427874768e-02 -5.908188591183648891e-02 4.386279448071206954e-01
-1.143373783026362667e-01 -1.111967820330054396e-01 4.668445121779993268e-01
-5.388936533453185518e-02 -9.302363608016836483e-02 4.523165884157772654e-01
-9.198919512628234152e-02 -8.633396293030413948e-02 4.462068767907957367e-01
-6.654797812684180858e-02 -1.076095208860101543e-01 4.645282662406864382e-01
-5.322346240432321296e-02 -7.460969881669125836e-02 4.436106723522942885e-01
-1.126018313749148070e-01 -1.164696250071350914e-01 4.716905495435483320e-01
-5.588141947896417550e-02 -1.213347738393208558e-01 5.161630300012213235e-01
-3.354160758615981619e-02 -1.219807907822322846e-01 5.043690705630884397e-01
-2.636678712055939497e-02 -1.201858250877031048e-01 5.449530357705885120e-01
-6.614035849947291767e-02 -9.690776149406371553e-02 4.534184840234964931e-01
-1.081380402119809514e-01 -1.225052879141003415e-01 4.933629793760068161e-01
-7.805909637051866752e-03 -1.237623759879150492e-01 5.381516318894267181e-01
-8.675378361962246543e-02 -9.058249222177650051e-02 4.473698656922978079e-01
-8.715668969632482665e-02 -7.438643699362126882e-02 4.428240429749901175e-01
-6.851149067542597337e-02 -9.758100202852569571e-02 4.536965223356882460e-01
-3.553559652411621833e-02 -1.115675297744722072e-01 4.762007306105683346e-01
-2.963755270607999759e-02 -1.225093430535808964e-01 5.348280450476565751e-01
-4.758051528213728953e-02 -1.191308647928119302e-01 4.947089006354893348e-01
-4.164906310267671441e-02 -1.211145127901946672e-01 5.032544392948378187e-01
-2.690639335906957336e-02 -1.142779298345875938e-01 5.521112304094674128e-01
-1.043838189030423386e-01 -1.233228546092165895e-01 4.908949439900912037e-01
-8.484084430632565788e-02 -1.188189250942613684e-01 4.720065772743827770e-01
-1.916251932566765195e-02 -1.017495126415933898e-01 5.640203542898032385e-01
-1.029887788830679690e-01 -8.948394560481016946e-02 4.535066158500924427e-01
-2.258000375770891424e-02 -1.154330804238783703e-01 5.552061854981334976e-01
-1.177096821566230994e-01 -1.024948872341859413e-01 4.706799224851911934e-01
-2.546963713931940654e-02 -1.155292451860388536e-01 5.529459154839226898e-01
-1.125911857272554432e-02 -1.266986098280467321e-01 5.279023731237157957e-01
-3.120670957571496443e-02 -1.137577433092967633e-01 4.801783770814911367e-01
-1.402125966712152762e-02 -1.052231541240509355e-01 5.654324282848161021e-01
-1.128270553145322708e-01 -1.216639629113345777e-01 4.872519937354838904e-01
-2.501351160659079712e-02 -1.153689404186240830e-01 4.813103434107795509e-01
-1.111082726479955818e-01 -1.220347201737306264e-01 4.866002691448497730e-01
-5.136335439227607269e-02 -1.193181306176489265e-01 5.282265483894722502e-01
-6.669088279287573029e-02 -9.229218148641621378e-02 4.497773910259902919e-01
-2.907004674186505419e-02 -1.236176435495785902e-01 5.159025159319309273e-01
-6.113437719214487309e-02 -1.205920454899065825e-01 5.199551327678532120e-01
-8.073665280732836291e-02 -1.222686362244717051e-01 5.077150982035317783e-01
-1.120953148208613491e-02 -1.107370020308450637e-01 5.627303033709262214e-01
-8.130045734495340570e-02 -9.724541904532255088e-02 4.518338562328198527e-01
-6.064620493011270430e-02 -1.149024694286778503e-01 4.801044133743354037e-01
-6.737447527261893054e-02 -8.057574109791347527e-02 4.423984691214663534e-01
-5.721995213660067275e-02 -7.741596020938125433e-02 4.439346898101495520e-01
-6.302856972259425483e-02 -1.202343702461199926e-01 4.960373059079423719e-01
-7.295944086732439327e-02 -8.169479472521956609e-02 4.419332457779563406e-01
-4.591509229931541036e-02 -1.217733495751662648e-01 5.165991232602040739e-01
-8.629861595305278466e-02 -8.707979460956373485e-02 4.456920660698163172e-01
-5.600731260121853683e-02 -1.093389102358405807e-01 4.702897850893903442e-01
-1.041075496019487068e-01 -1.191639088948733827e-01 5.036396125073799857e-01
-6.246014608614761099e-02 -6.719368860152112599e-02 4.397107430325193911e-01
-8.690491318071040527e-02 -1.210119166843969529e-01 4.835554308334292228e-01
-7.630636399928861224e-02 -1.178974845253341480e-01 4.788570556684678681e-01
-1.152912432698759010e-01 -1.041675014137471572e-01 4.642705853863766108e-01
-2.732604579514454068e-02 -1.196925459530663594e-01 5.452428376372573382e-01
-1.113680605634908283e-01 -1.111706817803243680e-01 4.649993102598515837e-01
-9.304049165044220304e-02 -1.229459106619765207e-01 4.984018013731948415e-01
-5.438053816586433525e-02 -1.022353379268421819e-01 4.604221988475192262e-01
-5.362624603423563757e-02 -1.163858046635647403e-01 5.324156410723411836e-01
-6.892138215633657194e-02 -1.220083186423978894e-01 5.090188474431955878e-01
-2.330264961185832956e-02 -9.985764265497018566e-02 4.587219500088764446e-01
-1.109720155398413038e-01 -9.823216960181389845e-02 4.573986899550854246e-01
-4.448942059775898294e-02 -9.440919345945730790e-02 4.556837676035644380e-01
-7.726973812252969920e-02 -1.087939388398336121e-01 4.629571078552159324e-01
-1.044343945700260540e-01 -1.102481978671213253e-01 4.614508103580420850e-01
-9.842110220665564735e-02 -8.169473622131238899e-02 4.534656993561271832e-01
-4.603888242887012316e-02 -1.214671167850355366e-01 5.078729578257230592e-01
-6.067575088199311101e-02 -1.164659897061340044e-01 4.841064382619323370e-01
-4.970920804715913549e-02 -1.137474976171317098e-01 4.798972335212906559e-01
-4.104386493816396947e-02 -8.955743907377045065e-02 4.524868908234160325e-01
-9.806167723415057380e-02 -1.167631934043658476e-01 4.644174122752853795e-01
-7.322735981580952291e-02 -1.080869727786207823e-01 4.633684194242336796e-01
-3.498326008511552787e-02 -1.134144121130068877e-01 4.795977506213860431e-01
-8.849730379404827096e-02 -1.215820537460433753e-01 4.851092221416494765e-01
-9.059667221003903093e-02 -1.227515235445408720e-01 4.893750583883034189e-01
-5.041227889295741421e-02 -8.712309662094992746e-02 4.493448047970590720e-01
-9.226937548745167694e-02 -1.226653070240899673e-01 4.713139247901685924e-01
-5.591581819567856965e-02 -1.166174748503379793e-01 5.312346661538542847e-01
-7.681729216894990497e-02 -1.043697575531752075e-01 4.584303179539058748e-01
-4.850425225311912752e-02 -1.106593524664494510e-01 5.382350065701604347e-01
-9.356499307950388866e-02 -7.906598289525697265e-02 4.484538804807065016e-01
-5.901178112399018891e-03 -1.232678908465910661e-01 5.387573080292691330e-01
-6.022423026859644035e-02 -1.067922570300330887e-01 5.333260112018893828e-01
-8.363955524675062425e-02 -1.201445853419012416e-01 4.842746683240283789e-01
-1.510637859068004324e-02 -1.069358870322455052e-01 5.644703962560585486e-01
-1.131829195089379403e-01 -1.201971555978742501e-01 4.961927439263373874e-01
-4.131974376502743629e-02 -1.217410676631409533e-01 5.273495003101626999e-01
-2.786578738955998794e-02 -1.215256419517620479e-01 4.973926715938626897e-01
-1.200414110935011103e-01 -1.121862631648878617e-01 4.857633308889671153e-01
-3.909156053584011276e-02 -1.220238890024037265e-01 5.090158253166404689e-01
-1.087565039003249440e-01 -1.179735974614062183e-01 4.714991115667142019e-01
-5.217401081348074093e-02 -6.799470833132478798e-02 4.416607532053227203e-01
-7.564606172928778349e-02 -7.687881988290165558e-02 4.400090781306953414e-01
-4.926148639697527920e-02 -7.084917817044587840e-02 4.428643474801393642e-01
-4.233519827567756855e-02 -1.218967242693617947e-01 5.239975386513813227e-01
-8.580394912773696425e-02 -7.653880996483812538e-02 4.421571889415971679e-01
-4.058750564179822162e-02 -1.201577292163962807e-01 4.978822786440880166e-01
-5.868218858482614209e-02 -1.158970230957578756e-01 4.829653270254166131e-01
-1.064445321030590141e-01 -9.439946148769243206e-02 4.560612646416800642e-01
-8.287902517026939087e-02 -1.228090119848025963e-01 5.007759728296643509e-01
-8.678049478953385465e-02 -1.224196103082705461e-01 4.915324958877362871e-01
-1.596385246451811901e-02 -1.187856705599064921e-01 4.829760163054538924e-01
-1.558863133823970397e-02 -1.266124340150166228e-01 5.163363811106939094e-01
-5.821318448752599295e-02 -1.188892791488443818e-01 5.264494413616460644e-01
-5.601972407139130250e-02 -1.092956237894162075e-01 4.702156763719211874e-01
-2.541760016921810333e-02 -1.155659950307495881e-01 4.818581915486013223e-01
-4.799698360447191003e-02 -1.003083321859964960e-01 4.599382193465849644e-01
-1.666667704960774626e-02 -1.189961640008784932e-01 4.836716997362563997e-01
-6.499015844047305313e-02 -1.048198999353530253e-01 4.613330677577027750e-01
-9.902427098548820250e-02 -1.010123476437920637e-01 4.537000408014096875e-01
-1.056143252715022324e-01 -1.118263062590435508e-01 4.632763983897921212e-01
-3.758385936538180538e-02 -1.083401288393840006e-01 4.712044056885633103e-01
-2.240927644896537063e-02 -1.181935448362669422e-01 5.514555283842919042e-01
-5.788308570895619315e-02 -1.148363427999247038e-01 5.314928634528189866e-01
-5.403990425814077930e-02 -9.385192275376733062e-02 4.529545175322005623e-01
-9.030762225062501092e-02 -1.126372536769004729e-01 4.613487015680765024e-01
-4.625230688752799552e-02 -1.217288745151009904e-01 5.171378339850769557e-01
-4.046341054848380525e-02 -1.220481798175031135e-01 5.112713574934277805e-01
-1.150089483104345112e-01 -1.201567787973264467e-01 4.804057987599717472e-01
-9.920000480857302239e-02 -1.221261765444200259e-01 5.022376457583554998e-01
-5.992097673525931256e-02 -1.149717359895502111e-01 4.804395632109656478e-01
-3.874729778536377400e-02 -1.223774920926096882e-01 5.191123811662506915e-01
-4.617356788807638196e-02 -8.478195723157122554e-02 4.487562561921709658e-01
-6.106979078584000992e-02 -1.213818458872482353e-01 5.038285727258862146e-01
-1.032464352501292759e-01 -1.010828695262151744e-01 4.545616158340896606e-01
-7.368924363794085441e-02 -6.511836527177483624e-02 4.371884129172217692e-01
-5.376125211059487596e-02 -7.257829565047684006e-02 4.428858759410892465e-01
-2.642880611523445306e-02 -1.240147827251028290e-01 5.126606563688826945e-01
-6.848958073175913375e-02 -7.037019310236089509e-02 4.390690240273811829e-01
-9.870927329209339129e-02 -1.234679362950049653e-01 4.917362163800003128e-01
-5.021329947198327481e-02 -1.213965793141370403e-01 5.196793877008047957e-01
-1.118010532946894509e-01 -1.188504045763951605e-01 4.994217387339073277e-01
-9.437783219873849272e-02 -7.886827912903705828e-02 4.489927738600351659e-01
-8.076303318980453116e-02 -1.009137940016046897e-01 4.545351064467916813e-01
-4.205721823386877889e-02 -1.093877135479329188e-01 4.729202048697907501e-01
-6.500990251036913026e-02 -1.219577664231301373e-01 5.080218693691598286e-01
-6.592375496018075542e-02 -1.024388191673066828e-01 4.586462320046176822e-01
-1.187496435781657672e-02 -1.195534016193241234e-01 4.835464460566152867e-01
-2.542605307908440970e-02 -1.117910451029573426e-01 5.553915265327453721e-01
-9.458090905468281850e-02 -1.088835418898204954e-01 4.583301606390456362e-01
-7.136156691697058407e-02 -1.216315403442295717e-01 5.129304762485781266e-01
-5.989885613748299753e-02 -1.101478081657069757e-01 5.324206366974192361e-01
-1.121274870967542692e-01 -1.202804893016418963e-01 4.983475655105462088e-01
-4.719168020167900657e-02 -1.100448517080679506e-01 5.390013581694269584e-01
-1.011921356878706935e-01 -1.221387114780993349e-01 5.002329043881618142e-01
-8.271210443204131402e-02 -1.206518049546343174e-01 4.874065629136361544e-01
-9.596506446416247504e-02 -1.208636434009087296e-01 5.088370012204359583e-01
-8.295555071711736839e-02 -1.158879237763963399e-01 5.201408133304572523e-01
-6.174929910508632214e-02 -1.000589237958587202e-01 4.569227127999165305e-01
-4.694442845405775999e-02 -9.255674726304782829e-02 4.535961846878743264e-01
-7.695902384755433367e-02 -5.804271993390565376e-02 4.390868878351615878e-01
3.745460806065400126e-04 -1.288072210222983849e-01 5.133444823096013909e-01
-8.678312372259536223e-02 -1.174495131161920891e-01 4.676679388446677854e-01
-7.635583281044848458e-02 -6.905201869755893396e-02 4.379011194487269498e-01
-5.452834870687557796e-03 -1.232834072272842030e-01 5.384778541165553545e-01
-7.757471028417521619e-02 -7.300694380267783168e-02 4.390365097240394032e-01
-8.937289670596848534e-02 -1.215932234824006336e-01 4.765043041661345957e-01
-2.842410612998352674e-03 -1.290360145036969497e-01 5.162946875862837182e-01
-4.466029246375182588e-02 -1.218049104360488938e-01 5.178553782241168690e-01
-1.197832270300959456e-02 -1.176557921388019790e-01 4.794190726449340523e-01
-7.009290494592647358e-02 -1.122845613574819518e-01 4.709182840004569326e-01
-1.144072644178125431e-01 -1.079729023177400382e-01 4.647406317103368045e-01
-3.608580867928230795e-02 -1.223931939822179848e-01 5.267688913316648236e-01
-1.048103394343490730e-02 -1.216143209449586232e-01 4.877786211689999485e-01
-4.651674181781707829e-02 -1.217449985986892858e-01 5.165938016125978249e-01
-2.127575635567187894e-03 -1.287992358681922245e-01 5.253496802930093246e-01
-8.924846929478248703e-02 -1.217124661693769205e-01 4.850379670399974641e-01
-8.325969196091750901e-02 -1.202387594290616618e-01 4.783588806516277936e-01
-1.105888766419079877e-01 -9.892564462208164322e-02 4.571458737967100117e-01
-7.488063855954103787e-02 -1.167227767637013386e-01 4.772936106962250014e-01
-7.480304820754067607e-02 -1.014763481963560920e-01 4.560677681363417557e-01
-4.647868937687063551e-02 -1.186199304876333904e-01 5.335112858167723182e-01
-5.513398055536665454e-02 -9.926096264566797167e-02 4.573097224286728490e-01
-1.190684326174244467e-01 -1.166432984390508854e-01 4.880217683222427549e-01
-1.188952876049169938e-01 -1.168180247618718914e-01 4.852250321671391919e-01
-3.713298797157611915e-03 -1.264983795587111548e-01 5.004456935630795522e-01
-2.452036647549727527e-02 -1.195884452559752148e-01 4.899437888029378740e-01
-4.933544273136999947e-02 -9.389738384959363249e-02 4.541172749183880475e-01
-5.579514020232257537e-02 -1.200616581693145085e-01 5.239276458916963808e-01
-4.631951614339012424e-02 -1.028711819151214291e-01 4.633714765824573090e-01
-7.045445137872155539e-02 -1.091535765109762496e-01 4.657067409248658030e-01
-4.958846216993364336e-02 -1.148948059467069377e-01 5.352500061487620586e-01
-5.978318137462245579e-02 -8.768205156998754024e-02 4.479117631409981204e-01
-1.002503821202499479e-01 -9.944794453961149083e-02 4.529463013454925746e-01
-6.221734836545378400e-02 -8.874718129563666236e-02 4.480592176899887980e-01
-8.338630159638581174e-02 -1.019843564944974551e-01 4.548988242494314549e-01
-1.065037556388249707e-01 -1.230837787942371531e-01 4.864814700242910961e-01
-6.181168666804039841e-02 -1.075937364841434568e-01 4.658278709304959353e-01
-8.800033877566061646e-02 -7.677902535370796644e-02 4.434750568096908485e-01
-2.365024621210877823e-02 -9.690099465742499363e-02 4.563343841106317078e-01
-1.618640310518965758e-02 -1.235824355424097465e-01 4.963685006118989107e-01
-8.717996875725443628e-02 -7.577271169045086963e-02 4.430692983410673969e-01
-2.152803016910491418e-02 -1.252453045344875948e-01 5.170007366966717921e-01
-4.260087718364539283e-02 -9.077300094164923727e-02 4.532957851007699546e-01
-6.792190469349063120e-02 -1.143622042633908598e-01 4.763402716770931411e-01
-5.224685744802829573e-02 -1.058838404658764137e-01 4.660440841631356412e-01
-2.562914846091834606e-02 -1.085448057049790693e-01 4.702475261072157631e-01
-4.733916886192324897e-02 -6.581686845079268156e-02 4.414480713161423320e-01
-7.280673254107701553e-02 -6.799678550735539784e-02 4.376762169724513485e-01
-2.160318493147609861e-02 -1.226211880119172926e-01 4.972648071243226942e-01
-6.995976000124154437e-02 -1.002912709910584871e-01 4.558628651228103790e-01
-7.143974333425001655e-02 -1.161250795632897126e-01 4.780904598903518155e-01
-8.048263211167752673e-02 -7.919623439680785471e-02 4.411295380977411362e-01
-1.145150405215679540e-01 -1.125712129873276818e-01 4.686148515790088398e-01
-3.091327364700052066e-02 -1.102136072236048620e-01 4.735104898243806537e-01
-7.805650620302950760e-02 -1.224050074289492196e-01 5.062452493668964104e-01
-2.705139835150963817e-02 -1.058929763366861926e-01 4.669420138163589695e-01
-6.836489737195534933e-02 -1.111827773274345621e-01 4.698346163455805469e-01
-6.495898616694731342e-02 -1.118937186544735896e-01 4.723048138546571129e-01
-5.602232974624722639e-02 -1.009491104616985491e-01 4.587215272371342745e-01
-6.075971992242412689e-02 -7.182081270053961020e-02 4.413502147467061043e-01
-8.215558940901455942e-02 -1.210389761310096818e-01 5.142499527009428695e-01
-6.844572963584186209e-02 -6.622821028965983348e-02 4.380803986456988652e-01
-1.186842627658206556e-01 -1.139892165559239223e-01 4.821904082075514908e-01
-1.170170627113476143e-02 -1.182312777809632481e-01 4.806137550963709981e-01
-1.736246117046687243e-02 -1.228476331990268067e-01 5.438641088020389480e-01
-8.644299678001128584e-02 -1.120070500588288276e-01 5.200160906328252786e-01
-1.628830113688671880e-02 -1.165972211435494926e-01 5.565120334694723114e-01
-1.466495124371803259e-02 -1.134501042914824037e-01 5.603772928520158736e-01
-5.074387228762157476e-02 -7.178482438966121704e-02 4.430546104006420904e-01
-4.574720321315099009e-02 -1.159135397810596713e-01 5.365455964286333090e-01
-6.559968565641205451e-02 -1.177529627943919854e-01 4.853404637514924236e-01
-8.492185057080113564e-02 -1.156330580185330609e-01 4.658394144158496952e-01
-4.356337185650176191e-02 -1.014305155978419970e-01 4.623663148682265467e-01
-4.165023458790448330e-02 -8.145087722277163933e-02 4.475783167204600010e-01
-8.789478909932216255e-02 -7.430775663785527119e-02 4.437725596429064612e-01
-1.984271221761270410e-02 -1.194522683636681099e-01 4.862856220038210275e-01
-8.766829866067504806e-02 -1.216974478883294242e-01 4.866208196325406687e-01
-4.781770903904464937e-02 -8.420619846764042238e-02 4.481703990445812802e-01
-7.510436482065985242e-02 -8.772050245939715107e-02 4.458822747225845706e-01
-3.845691508282696180e-02 -7.448719245869389605e-02 4.443713746617756755e-01
-5.777164660070950586e-02 -8.427867413638605310e-02 4.463147043877528364e-01
-5.790237864509527321e-02 -1.130406667017514605e-01 4.766782164879450612e-01
-1.172628886907479684e-01 -1.065582781142553753e-01 4.678323325733788063e-01
-6.609367933172871634e-02 -7.899751650217014254e-02 4.421864419531673640e-01
-4.343043294713237745e-03 -1.287252761153527270e-01 5.140911029468578919e-01
-1.189787197916656741e-01 -1.166961371009939685e-01 4.897486974041239671e-01
-2.178310629885701552e-02 -1.214876661255348822e-01 4.936111664588426762e-01
-7.850975929626910488e-02 -1.183687751710072039e-01 4.780170663387132701e-01
-5.686626974588358113e-02 -6.965733238828120122e-02 4.415451527455353520e-01
-3.326957683092461593e-02 -8.682636880741935459e-02 4.509483426596423428e-01
-9.459373213543786907e-02 -8.293239681251682316e-02 4.478130498643437818e-01
-5.510847584772820412e-02 -1.009625864397187128e-01 4.588560437366711042e-01
-9.323692141547647305e-02 -9.411284458348229132e-02 4.495655898899861835e-01
-9.265979497002201082e-02 -8.423237789337145731e-02 4.462545371463429444e-01
-2.534769527156862171e-02 -1.158088665867238465e-01 5.528578332358805580e-01
-8.323558952843070069e-02 -1.102758930163880990e-01 4.621682116269135721e-01
-5.851496057198836420e-02 -9.640623563075244318e-02 4.541991832657367723e-01
-7.644826096647630576e-02 -8.217739547535111988e-02 4.421387336732126028e-01
-1.076011917128268103e-01 -9.707771887559303592e-02 4.559793008498024269e-01
-1.106105202678445004e-01 -1.180671790598262078e-01 5.005325519103082099e-01
-4.192646755351513155e-02 -1.220688431120939277e-01 5.173831249144456024e-01
-4.638501393074141027e-02 -1.217295329356727768e-01 5.169826885007193784e-01
-5.603732363246297088e-02 -1.209165306005546003e-01 5.205897763488687158e-01
-3.689236505048398146e-02 -1.094260214447372315e-01 4.728013582560436912e-01
-6.314012757515062579e-02 -8.364297760562144912e-02 4.449986725204839177e-01
-4.883760539677355073e-02 -1.216829587177895716e-01 5.161020441394437164e-01
-1.188477555179958123e-01 -1.174133019226027419e-01 4.862190249451892599e-01
-1.000288003130363895e-01 -1.200975409572674346e-01 4.685773364478397207e-01
-6.266352624836081520e-02 -1.176121286221158413e-01 5.261911189589929538e-01
-2.261063784654717551e-02 -1.200411644103692443e-01 5.476138966954511300e-01
-4.112933275883531165e-02 -1.219640591855420120e-01 5.105120473887517774e-01
-5.495860928649946159e-02 -1.085062608926967848e-01 5.356196366326290148e-01
-9.892398437606485934e-03 -1.278662120511014078e-01 5.219740252847273609e-01
-1.114062771925972556e-01 -1.184475700268430992e-01 4.739437036951933413e-01
-1.816501953639412109e-02 -1.260454792311156147e-01 5.177690869744914215e-01
-7.443506030156897546e-02 -6.788914284014253842e-02 4.374830745332678461e-01
-3.812292586623779178e-02 -1.210441266793299830e-01 5.341647096969680542e-01
-6.871195270277710709e-02 -1.118309073125045433e-01 4.707412939929018214e-01
-7.361337645945406627e-02 -1.215702381611546423e-01 5.136638550989515162e-01
-7.511211396777074667e-02 -1.191233569440866835e-01 4.828277918772900801e-01
-6.970273619497746598e-02 -7.893734134203413133e-02 4.413358592497438337e-01
-9.240115444489459262e-02 -9.982511534030556744e-02 4.524424080877936793e-01
-1.190724512120107798e-01 -1.043994688086045952e-01 4.727101244508656319e-01
-6.200544322046000478e-02 -1.172609327347806374e-01 5.270328123677662235e-01
-4.567276801841387013e-02 -1.201685582626624976e-01 4.991924787420634613e-01
-1.541704517064021798e-02 -1.240973758061109933e-01 5.384541614864221115e-01
-9.375389201225271807e-02 -1.208116258553825900e-01 5.093384759266668116e-01
-6.419203304738542448e-02 -9.161777654370055479e-02 4.496906557901583223e-01
-3.887454288358655613e-02 -7.613164944690554992e-02 4.450888495663507527e-01
-2.627379615151295006e-02 -1.193353464904356037e-01 4.903761098119823747e-01
-8.926203225476715686e-02 -1.215337388026328791e-01 4.774916397967201576e-01
-7.525654816905773259e-02 -9.085653025446144282e-02 4.479424942889543293e-01
-3.528616067405190848e-02 -1.172103591836856640e-01 5.417098488227578557e-01
-1.085978020632154817e-01 -9.929207778333749845e-02 4.561287901704226821e-01
-5.369792317634534962e-02 -1.038235600522321722e-01 4.628046940017087607e-01
-1.797642519385754534e-02 -1.219529624513676497e-01 5.459065529628566171e-01
-2.525017931895229620e-02 -1.241489466156676519e-01 5.291089206350815255e-01
-4.757847178089562312e-02 -1.205497811643624212e-01 5.020939250331709625e-01
-8.258946400591374304e-02 -1.200986650036073439e-01 4.782141921991620581e-01
-2.197055406322508120e-02 -1.095769852628340896e-01 4.701508417095846548e-01
-7.320833656571319736e-02 -1.134474284781910730e-01 5.269489597783356682e-01
-9.536983232355049356e-02 -1.234902672418080327e-01 4.884945522213346436e-01
-6.876526981232256031e-02 -1.215736972388791332e-01 4.988370708646427398e-01
-5.077461900583365995e-02 -8.755836410626141597e-02 4.495220308765499051e-01
-2.160798158805835728e-02 -1.091993785229532360e-01 4.693925261086125955e-01
-2.455568897115915569e-02 -1.245120598545000207e-01 5.265853110226830225e-01
-9.224974330753338281e-02 -1.070263111282719198e-01 4.573242251315803308e-01
-8.090793332756937573e-02 -1.072521027864295207e-01 4.600455040455809219e-01
-7.070484691953217438e-02 -6.444524186560572632e-02 4.374102141439557001e-01
-1.566656040673784084e-02 -1.256369608202569099e-01 5.050370276625398835e-01
-4.567938061576384823e-02 -1.045542142728281831e-01 4.656843939828189671e-01
-1.191162998701309345e-01 -1.166456708633871325e-01 4.868344898156979350e-01
-1.012615741194713426e-01 -8.435471458357524099e-02 4.554887142765699504e-01
-5.104127054367644384e-02 -1.194461097849169734e-01 4.961641780858401241e-01
-5.037438974502545484e-03 -1.287351888153949464e-01 5.225674834474635100e-01
-1.111696281666419289e-01 -1.210667268092990578e-01 4.806118063256665240e-01
-5.453367232154007760e-02 -7.806941299028374859e-02 4.445640404173766824e-01
-7.734675538768560898e-02 -8.074200525712185716e-02 4.415024510706749838e-01
-2.281211763215828386e-02 -1.242064371609296752e-01 5.331287422550303745e-01
-1.770271176512977149e-02 -1.231084030678298163e-01 5.429535785447986429e-01
-1.066586466574518527e-01 -1.214502570957083638e-01 4.780753813868830471e-01
-9.144233450466275614e-02 -1.178951686292287887e-01 5.140048134525587731e-01
-7.898326048948131617e-02 -1.223143178978697149e-01 5.071758639930161738e-01
-7.009755695979480450e-02 -1.189193495160980607e-01 5.207835144914201297e-01
-8.046658506744852613e-02 -1.224274982488225416e-01 5.061590552968082690e-01
-6.518633907527079940e-02 -1.119728600452658124e-01 5.296528603534494950e-01
-8.177456428643750663e-02 -9.504132270926911319e-02 4.502004818752573523e-01
-4.410143551872250378e-02 -1.189975974611209714e-01 5.353805644729318081e-01
-2.438120857187994067e-02 -1.241550309845544237e-01 5.087939926913842559e-01
-8.806147187929554143e-03 -1.261099248420456398e-01 5.009788360392501971e-01
-1.102848270888089621e-01 -1.182268679659676663e-01 5.005996322378547525e-01
-8.462288123700079101e-02 -1.200170497086966298e-01 5.141952691233634409e-01
-1.544129427047465780e-02 -1.175930006650290627e-01 4.802323293406550175e-01
-1.172946131627955191e-01 -1.163661317291092429e-01 4.789551383726455280e-01
-5.769552401808904912e-02 -9.859502009235095177e-02 4.562934515965446636e-01
-4.967832470450982835e-02 -1.193080414899426456e-01 4.957667050046222768e-01
-2.262055438628559831e-02 -9.811918951908735198e-02 5.592122553915228611e-01
-1.041613205382875135e-01 -8.919571673830486991e-02 4.553926820146144139e-01
-3.560412183818789655e-02 -1.226621051956930941e-01 5.230990443093428421e-01
-1.155799057677924999e-02 -1.275622944231604439e-01 5.190661988820497452e-01
-4.046512360547541154e-02 -9.517480113746458470e-02 4.570269151808360464e-01
-1.500962625665481359e-02 -9.932264559209673382e-02 5.661184827840002320e-01
-6.671427864106369010e-02 -1.191001356786781790e-01 5.220473030458214758e-01
-1.830781415257563133e-02 -1.206174538312962813e-01 5.485047932953382999e-01
-1.614467667722659094e-02 -1.246017331860593130e-01 5.003154143755849104e-01
-8.366850936051518917e-02 -9.356410079808503977e-02 4.490780157831281705e-01
-4.482126753374596900e-02 -6.569109369332407078e-02 4.415741985686250093e-01
-3.955940395760912387e-02 -1.206752355627208895e-01 4.998625547559160665e-01
-1.010252727788308810e-02 -1.247909284807021818e-01 5.360425153289364308e-01
-4.380649269647996641e-02 -1.213917591184163342e-01 5.278719258291181271e-01
-7.022828301706042498e-02 -9.152117226617843826e-02 4.488074767547389765e-01
-6.188511691476467763e-02 -8.334098469798099929e-02 4.451643824360128066e-01
-3.375363072787980478e-02 -1.226589271805646059e-01 5.108713001969188428e-01
-7.115151861117002818e-02 -8.997440745912139992e-02 4.476289139959789276e-01
-3.954082191130683932e-02 -1.181487765956780595e-01 4.905135283135181323e-01
-9.679520120574612585e-02 -1.228171503196062025e-01 4.751834731440035542e-01
-4.851792295845948344e-02 -7.117580646848402359e-02 4.430343495896842398e-01
-1.045406262748818094e-01 -9.802710436596302757e-02 4.537242565346607526e-01
-7.780799447615702191e-02 -9.945582550590179038e-02 4.539070910442786211e-01
-4.475714269312133786e-02 -7.793089300961909827e-02 4.458215034947378697e-01
-9.583676254601694589e-02 -1.171624684745647266e-01 4.632277055013472311e-01
-2.526501622310138584e-02 -1.086960397214677410e-01 5.558968537609402238e-01
-7.592171373850357952e-02 -1.225035067756300028e-01 5.023356430390287786e-01
-3.218704292391868366e-02 -1.231553597324846067e-01 5.244000185084537469e-01
-7.629681128917914501e-02 -9.867340575228686350e-02 4.535340555667753959e-01
-7.624241847733138899e-02 -6.720955823688733177e-02 4.372046892266147067e-01
