-6.522475879809032373e-02 -7.635254901939796113e-02 4.415061316517200907e-01
-8.301235042356301663e-02 -1.222260514729574254e-01 5.112738839193736728e-01
-1.338964526162977203e-02 -1.270725557404829842e-01 5.149778668360245337e-01
-3.136720490844363551e-02 -9.063608470864413513e-02 4.534975685459021189e-01
-9.228408527873815936e-02 -1.087534771946059298e-01 4.582004827493564303e-01
-1.012292152597690509e-01 -1.236996607286866556e-01 4.977312948511733448e-01
-5.687460059170867249e-02 -9.236837066496311754e-02 4.512404164050011213e-01
-1.055864293018718009e-01 -1.239153087890135785e-01 4.900760763714462342e-01
-7.961239863691162155e-02 -1.209503041894743058e-01 5.167235971401940020e-01
-4.563136872287592433e-02 -7.811461859732236890e-02 4.458238303514565071e-01
-2.309153542337165702e-02 -1.018047354477422950e-01 5.587561580250975934e-01
-7.394998121633705734e-02 -5.872527800492332445e-02 4.388782094024201719e-01
-3.192646404982205088e-02 -8.730727004181303152e-02 4.511168467769278156e-01
-9.719725293519304588e-02 -9.351912804693021664e-02 4.507637123844823734e-01
-4.449303192204612928e-02 -1.219910454992747390e-01 5.195051471319606096e-01
-5.275176537714519609e-02 -1.197988345448751518e-01 4.959266676854923728e-01
-3.743674723738968368e-02 -1.225667398647876244e-01 5.124345622346160312e-01
-6.574585506509222910e-02 -8.764402601901956358e-02 4.466412921264211744e-01
-7.460121295943590927e-03 -1.246553229289399933e-01 4.953257935626608210e-01
-3.294512920652934579e-02 -1.202406085626637616e-01 5.400036596449938608e-01
-3.704968542691670225e-02 -1.216907721165915168e-01 5.330970877349039405e-01
-6.486617141452047375e-02 -1.223066654624931360e-01 5.106279426824438250e-01
-3.832340971950606162e-02 -8.031456227865169106e-02 4.469548700322280577e-01
-2.377761222918250983e-02 -1.177205258432560547e-01 5.513021066679586468e-01
-3.048206475815172858e-02 -1.225855434161940705e-01 5.341243089632787822e-01
-9.461926150626148724e-02 -9.083779196938471245e-02 4.485784558464595562e-01
-7.660609806386332876e-02 -8.371296661337354617e-02 4.428664045779395209e-01
-2.101209145648776436e-02 -9.696144883664270520e-02 5.614782475764676928e-01
-2.310383742396553489e-02 -1.247522182124195383e-01 5.120760195980325058e-01
-2.214075338085508618e-02 -1.205442183041243731e-01 5.468375487408506652e-01
-6.604138342998967792e-02 -6.903988798648820480e-02 4.392866330222938154e-01
-3.933453106133028010e-02 -1.186010246885370878e-01 4.911623148104969361e-01
-4.611357337766020664e-02 -6.139526820984530370e-02 4.403959506709153593e-01
-2.993448589339544469e-02 -1.015285735183046600e-01 4.624355200548848077e-01
-3.269194781964844879e-03 -1.280314462020261113e-01 5.286078182877465004e-01
-9.854376420659233249e-02 -1.235224518290693463e-01 4.761579605429253625e-01
-6.435744018172288861e-02 -1.181108318261896578e-01 4.854942906474576381e-01
-5.106963917828634403e-02 -7.053699264414824144e-02 4.426432701501568090e-01
-2.671341633507541211e-02 -9.868290926237591187e-02 4.588749855499411612e-01
-7.168120219344116528e-02 -1.175323785050504805e-01 4.796521963677795597e-01
-8.515925597378221079e-02 -1.234137281992439272e-01 5.011879961965014507e-01
-1.274797174077491393e-02 -1.180413331823324113e-01 4.803820991368875082e-01
-8.496661554960406593e-02 -1.029134212111218194e-01 4.550158216564396674e-01
-7.168486047044594911e-02 -8.729196540015420058e-02 4.456629067108179854e-01
-6.808559600344991219e-04 -1.290516987723081543e-01 5.141959506004348812e-01
-6.235650903657966038e-02 -1.223641887259183936e-01 5.098805447954843917e-01
-1.017874218034611929e-02 -1.178931814830028457e-01 4.793539931047509639e-01
-5.930352680677726529e-02 -6.958864213667365073e-02 4.411701937240363192e-01
-2.037488945689646183e-02 -1.237815444033114748e-01 5.002598434111340531e-01
-6.265381554499191430e-02 -9.385960595047661281e-02 4.513322417325498770e-01
-6.529778196391429479e-02 -1.207925934177251498e-01 4.944062542798356996e-01
-7.845069917170112428e-02 -1.199576076982604850e-01 4.821611199744371690e-01
-1.444591493389539225e-02 -1.144738219580779259e-01 4.740232413046931437e-01
-3.799737130897487547e-02 -1.224636461240176111e-01 5.107454873805157280e-01
-4.471305152833578156e-02 -6.715124428915600352e-02 4.420547150090120003e-01
-2.505685829157945632e-02 -1.046191314892708224e-01 5.560001573889341575e-01
-9.801524728450672352e-02 -1.048480317508179160e-01 4.558163397702480468e-01
-1.490265691179153834e-02 -1.140767337980309049e-01 4.735575207749916915e-01
-4.283502426645708488e-02 -1.166025701348909621e-01 4.857496537390271762e-01
-4.999938635728023301e-02 -1.103974562850251889e-01 5.378765560523190992e-01
-6.815415238989427915e-02 -1.194555743280192178e-01 4.876654126804951805e-01
-2.349693636369109065e-02 -1.184590399178913067e-01 4.863400257052964415e-01
-4.099133663113882498e-02 -1.153001459145997637e-01 4.829480358816103935e-01
-8.553599713729537202e-02 -9.136255412314364666e-02 4.476547494035918451e-01
-3.243754837470565200e-02 -1.230984868014972505e-01 5.132531970819410594e-01
-3.837720059452644217e-02 -1.181604777282356800e-01 5.390982808507114310e-01
-2.983405362430164784e-02 -8.378673733603814178e-02 4.482249173223448180e-01
-3.222790405506085337e-02 -1.202529231179894770e-01 5.403204196195957598e-01
-7.725673171156796637e-02 -1.209522636969993792e-01 4.875898582326831376e-01
-8.918931178683912886e-02 -1.206493070701595421e-01 5.123838526054553810e-01
-3.383686079704198435e-02 -1.127053975809431119e-01 5.450750974008653493e-01
-2.417386745197232928e-02 -1.247338657224545677e-01 5.194814727513461516e-01
-1.060699873631407303e-01 -1.237318773979511760e-01 4.918977481984148636e-01
-6.944849037963433946e-02 -8.775745615321414728e-02 4.461329718654618581e-01
-3.365045333520998161e-02 -1.147696655312260283e-01 4.818957062888621912e-01
-5.063560406949648568e-02 -1.179409305613929038e-01 5.320587486748097339e-01
-6.709954875562827714e-02 -1.023760508294911387e-01 4.579385435852763586e-01
-1.056327088329832714e-01 -9.829895862502162351e-02 4.551812618669406341e-01
-8.523382295091364025e-02 -7.113372009247249939e-02 4.412395702456333724e-01
-1.771707501569401780e-02 -1.163472504492808757e-01 4.785489687989019081e-01
-5.744286269908083220e-02 -5.852859043356044982e-02 4.390209434569896652e-01
-6.897932765659253729e-02 -9.608102750683883420e-02 4.522080166726166195e-01
-5.123197400216385200e-02 -1.216094165153794454e-01 5.075238418724730138e-01
-1.024997622817475501e-01 -1.200395805717011100e-01 5.045209326531432392e-01
-7.237550734138577246e-02 -1.102590018025803170e-01 4.656824706563332805e-01
-8.385966495319413516e-02 -9.920734998088744094e-02 4.525442105527760495e-01
-4.614568144169318292e-02 -1.089613994651896095e-01 4.715772149938368130e-01
-8.354765483743599452e-02 -8.450108023333721685e-02 4.439136100251012684e-01
-1.933152898480339915e-02 -1.232502755243961301e-01 5.413642614111466855e-01
-5.742471337074243898e-02 -9.388663782989044304e-02 4.521802687529728471e-01
-4.936846546861865109e-02 -9.861158551148556384e-02 4.578268379710470071e-01
-7.515689421657729963e-02 -1.224200532696967936e-01 4.958920076893709727e-01
-5.861037473962721345e-02 -1.213105971809294858e-01 5.185518415423999716e-01
-1.041563254352681211e-01 -1.177125643649653414e-01 5.050118923505105828e-01
-6.024062915135343366e-02 -1.208000122099408963e-01 4.981209779152647732e-01
-4.104906796964463700e-02 -1.201028867383396453e-01 4.966046354350148184e-01
-2.522465036131054175e-02 -1.015944017051032405e-01 4.609631764628347450e-01
-4.819938433547440310e-02 -9.848382322648402409e-02 4.580329868438045571e-01
-6.545837995697187384e-02 -9.485451996696123156e-02 4.516350631566551366e-01
-6.639920966331486207e-02 -1.030379297518807663e-01 4.587609600886751182e-01
-2.106963369621749418e-02 -1.253661942993105072e-01 5.159599439219918482e-01
-3.147336886341548651e-02 -1.197174195493441867e-01 4.928134831894078749e-01
-2.526001567423624000e-02 -1.245255906777233273e-01 5.195886386570508497e-01
-9.539991500595677854e-02 -1.234048225317266323e-01 4.994408065016275877e-01
-2.494080354833926733e-02 -1.164923254789816398e-01 4.833570187359766956e-01
-4.774722329615285754e-02 -6.852695982370003713e-02 4.422410770174222128e-01
-6.535910220799216741e-02 -8.667594661970046133e-02 4.461332499704749877e-01
-7.387570959901816614e-02 -1.205689921983397056e-01 5.183401480708815789e-01
-2.728986240395862850e-02 -1.235295976950590846e-01 5.314832852617072945e-01
-9.709007850265281847e-02 -1.130438023784904322e-01 4.609723738431836804e-01
-8.945533267806238253e-02 -8.275723963453764098e-02 4.449246390823127784e-01
-4.534254268997948978e-02 -8.973868533908054002e-02 4.517387969943855719e-01
-1.040517635245874623e-01 -1.207608966141915374e-01 4.723759553374633491e-01
-3.073579942608850243e-02 -1.001699900160299556e-01 4.613016064908813663e-01
-7.386955568171305053e-02 -7.602116300020110573e-02 4.399140091776068129e-01
-1.033341505828115625e-01 -1.029689016549965447e-01 4.553430679211560861e-01
-4.347136486550844114e-02 -8.691002838189991475e-02 4.503024161223019850e-01
-7.250786368744223387e-02 -5.582133048789024443e-02 4.398717334349976915e-01
-2.757277558345234275e-02 -1.197021437043604419e-01 5.449651016336444220e-01
-9.499415030011222616e-02 -9.457377212141046541e-02 4.497715470527240966e-01
-3.582660524725667529e-03 -1.289848139918786107e-01 5.216669274493066499e-01
-8.345133411585725636e-02 -1.208541170286431682e-01 5.144130700367486320e-01
-1.827202395444743610e-02 -1.259834999084606943e-01 5.148608876281431934e-01
-3.609307658969333060e-02 -1.204255978363709123e-01 4.967063954563009087e-01
-7.008938763304171926e-02 -1.227975257485813404e-01 5.066252023771818935e-01
-3.002855803533479098e-02 -1.231049728448391778e-01 5.305456401127052191e-01
-1.063753989265166927e-02 -1.171589504749124266e-01 5.558629354321101834e-01
-4.347220604248219766e-02 -5.795170860348626551e-02 4.399093671341254286e-01
-1.225534132380469779e-02 -1.251104079307484573e-01 5.346008235867429903e-01
-6.895920254753949707e-02 -1.217379500582876639e-01 5.157515927519815691e-01
-4.419939146944831115e-02 -1.102299842063650809e-01 4.738723627081886103e-01
-1.125427770291363150e-01 -1.171506787815898426e-01 4.718810649622577902e-01
-7.578723987321671351e-02 -8.222751394187807761e-02 4.420341674593538106e-01
-4.512298085549781845e-02 -7.597420050008663051e-02 4.450696668876216178e-01
-3.607701373772049386e-02 -1.227700552422896357e-01 5.218773983837134978e-01
-8.070495203604245715e-02 -9.855742826896518594e-02 4.525446903266693854e-01
-7.864238132224837807e-02 -1.227984720587262102e-01 4.965996572255687580e-01
-5.476416988722894452e-02 -1.206688860277690817e-01 5.000076431695534840e-01
-6.894576950286593342e-02 -1.138645451875632403e-01 4.734117465759274390e-01
-1.372821984156868264e-02 -1.017313624302042807e-01 5.660619070915666740e-01
-4.503668823981597964e-03 -1.286617072147417939e-01 5.244154359886834538e-01
-6.749881745659313051e-03 -1.237628079499509676e-01 4.925117649244686868e-01
-8.392641391779497029e-02 -1.228141832250477933e-01 5.074949688551285698e-01
-9.282700838103342955e-02 -1.236587174214306972e-01 4.752418958962614237e-01
-9.157968375251003545e-02 -7.738800126182635020e-02 4.477776017135997599e-01
-4.546979357057254895e-02 -1.005467691376632916e-01 4.605501653270451801e-01
-7.436865893073520140e-02 -8.766510315349791693e-02 4.457056867608303330e-01
-1.009133438072731988e-02 -1.278549187784813745e-01 5.207846727381347796e-01
-7.948279188084478308e-02 -1.131905615500562734e-01 5.255318245101536778e-01
-5.196962209265216376e-02 -6.091957483822816460e-02 4.399913916423728866e-01
-1.086301919722690718e-01 -1.233726762550364231e-01 4.863652105367011202e-01
-4.667911798982249394e-02 -6.333953158058674981e-02 4.408687238502463912e-01
-6.555663682739300280e-02 -1.184983206651020471e-01 5.243296543734115023e-01
-3.576615956856636636e-02 -1.086445213969700341e-01 4.714621287861757160e-01
-1.022088980668850039e-01 -1.177054127196245498e-01 4.678345829958441837e-01
-7.194842094155240453e-02 -1.202246331837788090e-01 4.871040764331533990e-01
-7.100916972689373663e-02 -6.374190265424489743e-02 4.376013248669176625e-01
-8.800162041892511944e-02 -1.227241691590351819e-01 5.070902797661539507e-01
-6.036238920703064503e-02 -1.153799096614579883e-01 5.303887921873809974e-01
-4.195671975637744328e-02 -1.223048111841065766e-01 5.172007388388212279e-01
-6.243279001375189735e-02 -6.014918140681783931e-02 4.386127680216024838e-01
-2.911844397597848286e-02 -9.271850522042157650e-02 4.547364685276324425e-01
-7.202435089580387639e-02 -1.211111786449240585e-01 5.170622688233879050e-01
-1.602811121517186410e-02 -1.241740468981001738e-01 5.387077359206321470e-01
-9.759684363423143383e-02 -1.209889510072437169e-01 4.673921185388267840e-01
-6.935659565945062610e-02 -1.223521821927024411e-01 5.001270796313631584e-01
-3.338246427893754031e-02 -7.811929759592245448e-02 4.455678909851534808e-01
-2.280436641187475605e-02 -1.054304139390118272e-01 5.593984454350749980e-01
-7.185039110084029401e-02 -1.220520878748574678e-01 5.137903673720556341e-01
-2.053238674727425259e-02 -1.249984467916750441e-01 5.315232164372306611e-01
-1.143042452086723559e-01 -1.005562879540542465e-01 4.643409788264962756e-01
-2.357025969070714044e-02 -1.211772325907205794e-01 5.446398158918948074e-01
-1.071695563786658062e-01 -1.236676522863069810e-01 4.881691384799999867e-01
-5.656049854835126095e-02 -1.173182318212481479e-01 5.304126454299178395e-01
-8.822192842250285716e-02 -1.216753688339929917e-01 4.722687949848780042e-01
-8.100481753042904076e-02 -1.215510996640044999e-01 4.895539147544801795e-01
-1.072865343851971826e-01 -1.234975034976418390e-01 4.917194259988114657e-01
-6.885464202601505879e-02 -1.138274327489764981e-01 5.280357722299507950e-01
-2.020498703163897333e-02 -1.031788662226666986e-01 4.608464860905867044e-01
-9.278857882553355474e-02 -1.233959924488059606e-01 4.862210531788012657e-01
-1.831341513891057704e-02 -1.258252054798262576e-01 5.283607353794771422e-01
-5.668510782444138169e-02 -1.001381438971274129e-01 4.576071129266360282e-01
-6.708836806165446864e-02 -5.580547853516519552e-02 4.391792403833382208e-01
-7.475543837130523006e-02 -7.828393050672351194e-02 4.405217537564066199e-01
-8.654454559919801115e-02 -1.178315231780616562e-01 5.166412034609816351e-01
-1.964873566923982379e-02 -1.208520117383050929e-01 4.900012862611867193e-01
-4.718583610431351105e-02 -9.953413405745265008e-02 4.591972084422704103e-01
-8.671916723597612731e-02 -7.230486728078826253e-02 4.433849775012938532e-01
-8.357920794069428894e-02 -1.210114770387671762e-01 4.760607544126336799e-01
-8.420716185039855972e-02 -9.419193795477692754e-02 4.492528109333893682e-01
-1.159773911150805276e-01 -1.210352433556256962e-01 4.847321464465475516e-01
-1.533546367870244551e-02 -1.179999858046396760e-01 5.543833043715585829e-01
-1.535508846140253708e-02 -1.234285931239243184e-01 4.950921329137200622e-01
-6.491442998219526528e-02 -1.223590195848703183e-01 5.100770477735229180e-01
-1.183415108077023326e-01 -1.184960427643269032e-01 4.875913026505533376e-01
-2.273267948169805167e-02 -1.160687183656401306e-01 5.544849284167419068e-01
-1.642659250460686698e-02 -1.252636067351011184e-01 5.338523546853518598e-01
-4.116208560588378862e-02 -1.223098462935714031e-01 5.200932406807782238e-01
-8.321436179919214360e-02 -1.208220622283751045e-01 5.147143725312850471e-01
-4.792563771206383161e-02 -6.123323908632945234e-02 4.402678470123959076e-01
-7.948635698720697695e-02 -9.759611980686865029e-02 4.520018326369542594e-01
-4.536184306537750094e-02 -1.212164114569095619e-01 5.041263814304527413e-01
-9.805751346094773724e-02 -1.205377469076498592e-01 5.085478906826579326e-01
-4.141354454048726957e-02 -1.219242237986777888e-01 5.076000629053839530e-01
-1.061403393758944408e-01 -1.149294778054928273e-01 5.055974826343636597e-01
-6.807247372117014583e-02 -1.119214738083842142e-01 4.702505695237432781e-01
-5.924503234071614582e-02 -1.102490417325272670e-01 4.702451745654752102e-01
-6.472402081358277770e-02 -6.233488561096491715e-02 4.384728167404211008e-01
-2.230857743835852960e-02 -1.033375904378932564e-01 4.619041966813994815e-01
-2.174615891914951152e-02 -1.185452823519897170e-01 5.512639288887134503e-01
-7.061257423707016645e-02 -7.420607663785981634e-02 4.397670564975549312e-01
-6.819417838570319967e-02 -8.092358518915876431e-02 4.422840373304851580e-01
-7.061276130874536046e-03 -1.169002005873718414e-01 5.559437606738520943e-01
-6.828270042240408566e-02 -8.349105602054093800e-02 4.437194616166631467e-01
-9.819998550168268503e-02 -1.154864948178861150e-01 4.634846746022522335e-01
-9.569821291344147995e-02 -1.215153584919619889e-01 5.090384660351525703e-01
-9.389868478672255825e-02 -1.119535900521813065e-01 4.601367374202782745e-01
-1.451613598070366010e-02 -1.245878292411328331e-01 5.367171069159518693e-01
-5.594734207531423809e-02 -1.211414403271666856e-01 5.025306012207796380e-01
-6.591838663141959265e-02 -1.169477053153805818e-01 4.816746943524258251e-01
-8.474129295433878439e-02 -1.172713574772122208e-01 5.182102253674775172e-01
-7.711621552784272970e-02 -1.199062281190422796e-01 4.823046291948230313e-01
-1.063306419562126681e-01 -1.226913815965986476e-01 4.972067505253717767e-01
-7.152687153113988783e-02 -1.227516310067186533e-01 5.074690152195354687e-01
-5.629731558410872722e-02 -1.040588272226964789e-01 4.618829153682955657e-01
-5.313964304448719894e-02 -1.218128657279921728e-01 5.103200968763336176e-01
-8.374478767381544897e-03 -9.547395433985193802e-02 5.704850328907542512e-01
-7.137734852936206131e-02 -1.188133050645645145e-01 5.219590559848821254e-01
-6.411409206502961811e-02 -9.141421006711589192e-02 4.493438129868591591e-01
-5.100601445805657413e-02 -8.513964864187124892e-02 4.480682204421416182e-01
-1.128980825796857546e-01 -1.224298342811654533e-01 4.890867698153775756e-01
-4.510375811223369530e-02 -1.163479588602436970e-01 4.850625261572810154e-01
-8.552472348494698229e-02 -1.216126365660129688e-01 4.775927753319408331e-01
-2.555020762324501302e-02 -1.104981899360095859e-01 4.734961485706353224e-01
-4.176447564888794567e-02 -7.244790295699475580e-02 4.437440380757706193e-01
-9.672564823125494315e-02 -1.034477159992255729e-01 4.547270248793869318e-01
-8.679438043680741399e-02 -1.192102546319911416e-01 4.689540790932296144e-01
-6.460688297331435015e-02 -1.180961931640599344e-01 5.254061972025483307e-01
-4.189014745038233817e-02 -1.195189279197266946e-01 5.362531683486984058e-01
-8.982969971714190038e-02 -1.200786392440993805e-01 4.647137954432499773e-01
-2.928972906232384446e-02 -1.168947670454289212e-01 4.860522511141472379e-01
-7.620484527651637252e-02 -6.448271278877548696e-02 4.374268765744732113e-01
-3.785673319717482860e-02 -1.156376968920952292e-01 4.837982298068507769e-01
-1.049636344200223920e-01 -1.073407450244646816e-01 4.586437413720531597e-01
-8.977080782389008917e-02 -1.196151198162988122e-01 4.635103324268600167e-01
-9.145642102702161713e-02 -7.754109095221536907e-02 4.476237214539288134e-01
-8.716262821655670900e-02 -7.601247480154488256e-02 4.432952697656096230e-01
-5.004618557286751035e-02 -1.213523260534202369e-01 5.051855791721283628e-01
-6.411081280959277096e-02 -1.210872974533183655e-01 4.971808838914617001e-01
-5.946566629356209166e-02 -8.997313935340983670e-02 4.492035836564104989e-01
-3.526156803420091301e-02 -1.229282591729833202e-01 5.188749972099564456e-01
-3.726261261314001844e-02 -9.000875071544391093e-02 4.530539024683456484e-01
-9.690678147674114395e-02 -1.220483341541609840e-01 5.064611371876956980e-01
-1.041842625416361523e-02 -1.272269049585465772e-01 5.079806714965137138e-01
-4.829763677918523512e-02 -1.189516434774596926e-01 5.319742882226038416e-01
-4.602834217495599400e-02 -1.159699724810871468e-01 4.841299971946004810e-01
-9.462080007430317963e-02 -1.218256069627009636e-01 4.661353258168596803e-01
-4.127988653780798045e-02 -9.635291069320586765e-02 4.577472910096373471e-01
-2.366329956936820758e-02 -1.095219755093979480e-01 4.710285710240424972e-01
-3.241021034379066440e-02 -1.233325510287273802e-01 5.184282975690407413e-01
-6.910314696387018230e-02 -1.226248773738766312e-01 5.051713309056637957e-01
-5.566574872530016815e-02 -1.213099410636500064e-01 5.037665410798343180e-01
-9.356192873820749767e-02 -1.232222530409874395e-01 4.668708736505918777e-01
-2.148429192997221293e-02 -1.240264711526743446e-01 5.027231532029698968e-01
-6.106131143114674337e-02 -1.211553288938948397e-01 4.995570848160865718e-01
-6.315176337710709520e-02 -1.184915999786939483e-01 4.870942574430477956e-01
-1.775783547955352148e-02 -1.209789033393307844e-01 4.891595158915188479e-01
-4.438193323398503115e-02 -5.823678218281969077e-02 4.399004737633702145e-01
-1.176708197435415298e-01 -1.083176558820373309e-01 4.694398322818901792e-01
-9.167000430554039792e-02 -1.226118918550604397e-01 5.067034784581613271e-01
-2.336940736615736661e-02 -1.074989343005943454e-01 4.679349976518156207e-01
-5.666904186842502272e-02 -8.227215964893611067e-02 4.457008960518105689e-01
-3.095028738514253586e-02 -1.234847647947827642e-01 5.233059666820819578e-01
-4.718777753404350579e-03 -1.280709696188296332e-01 5.275820598630232006e-01
-6.867187852112290741e-03 -1.243803701110756249e-01 4.942968772759751550e-01
-3.301932412400791772e-02 -1.005406105484125401e-01 4.621077782858155625e-01
-1.599917824428934848e-02 -1.112028400600152123e-01 4.697207528601530235e-01
-5.975245979216456393e-02 -9.205828509182725772e-02 4.504960846994831569e-01
-9.689986411094217433e-02 -1.224832428352946589e-01 5.045252200795727893e-01
-6.569663355098857849e-02 -6.808281902433306609e-02 4.391337532425309553e-01
-8.273190491292253118e-03 -1.227847657602436221e-01 5.421720997716853452e-01
-1.118509837522991754e-02 -1.081170382657642981e-01 5.646336289736565428e-01
-5.356868908542240099e-02 -9.595594164710219420e-02 4.545940912357789299e-01
-2.467604298041737795e-02 -1.158659367845688570e-01 4.820327177136194408e-01
-3.659601759135917842e-02 -8.385391251705108517e-02 4.490051225907313315e-01
-6.592894590998650550e-02 -1.012623383683025208e-01 4.570968208305379865e-01
-2.097675234705735636e-02 -1.050185473117576512e-01 5.623530808532488656e-01
-9.108572902178599384e-02 -9.586380784890523310e-02 4.501489278931455340e-01
-9.111674953986372005e-02 -1.228712856505003309e-01 4.851166757790114636e-01
-6.208153658653070561e-02 -1.136837584604932228e-01 4.759434738121647301e-01
-8.248464867389077027e-02 -7.764947605937147501e-02 4.407200566295023658e-01
-7.925776740415046984e-02 -8.008264647693331961e-02 4.413483630108338551e-01
-6.652013255917349488e-02 -1.207679128849493688e-01 5.188946299174677090e-01
-4.565109470837266925e-02 -1.076696149874751818e-01 4.696628831648264613e-01
-6.508568324035745450e-03 -1.228381905620871128e-01 5.409978875613999927e-01
-6.850897087117727158e-02 -1.223181991674840985e-01 5.011747185282956485e-01
-9.809074012815328925e-02 -1.239912461306700020e-01 4.952119472599633143e-01
-1.173271876995505697e-01 -1.123417455232015166e-01 4.718558783951792290e-01
-7.779135254364204222e-02 -1.170575921947355769e-01 4.743244441968762493e-01
-5.517205351491782928e-02 -1.047772129776498445e-01 4.631756295194489614e-01
-2.902214531201179060e-02 -1.180656492658900963e-01 5.468420841859290560e-01
-9.246010670889866917e-03 -1.249237511880225276e-01 4.968352611296618648e-01
-2.945436152803342089e-02 -1.202648525026651649e-01 4.938299596253239443e-01
-1.062798658896557114e-01 -1.171386247001225678e-01 5.041514537332016932e-01
-9.405551505434135706e-02 -1.198445557608357470e-01 4.644079588986121387e-01
-8.620475498626256616e-02 -1.198348555095762047e-01 5.146323097690959081e-01
-5.908634833532216968e-02 -1.190429977316758287e-01 5.263675428607728080e-01
-4.114404179943831341e-02 -8.950718669727900090e-02 4.523479052229360531e-01
-6.513654791731753047e-02 -1.181810222516869457e-01 5.250592947432608515e-01
-9.854798665761943521e-02 -1.183361831410886800e-01 5.106940205323573512e-01
-4.422186561552620548e-02 -1.198702575170138007e-01 4.962222751133134602e-01
-1.061203907374221600e-01 -1.195544081672834241e-01 5.026598789665818190e-01
-6.763520434192182851e-02 -1.216972675941965093e-01 4.975806567054744667e-01
-1.114626539156180901e-01 -1.204807040881543112e-01 4.766207513617850555e-01
-1.485742178179254476e-02 -1.249393828034891518e-01 5.005178795044428197e-01
-8.627144202012276830e-02 -1.217918851280506698e-01 4.768587172602278823e-01
-4.982658485808461740e-02 -6.243088338548336003e-02 4.403994395979473619e-01
-1.663397687148766499e-02 -1.119015121272544516e-01 5.613090134474936210e-01
-1.926243893148664107e-02 -1.194435534230254697e-01 4.857992549524166037e-01
-1.100130267055045297e-01 -1.186938800750501066e-01 4.723944145511393966e-01
-3.059099871926377473e-02 -1.079376943721975235e-01 5.485939429919105548e-01
-7.089127581672677314e-02 -1.228519340755709899e-01 5.062167466334291932e-01
-3.502121621953877689e-02 -7.637817023706011677e-02 4.450226300972770499e-01
-3.640698275892297053e-02 -1.152271664345807106e-01 5.425943596515987455e-01
-9.983913552669933245e-02 -1.143010961203282383e-01 4.633311360738130436e-01
-4.591808570722075850e-02 -9.222875965802597442e-02 4.534138647450324799e-01
-2.525028169017067003e-02 -1.245338887689824703e-01 5.209295877595832014e-01
-4.732679673365589729e-02 -1.193874690731209498e-01 4.944914362151652254e-01
-1.108358861484284585e-01 -1.092779276010279327e-01 4.620643303889162556e-01
-4.466787841139609888e-02 -1.110547154433734612e-01 4.752081051265064637e-01
-6.437367852041701866e-02 -7.616986506765723031e-02 4.416550111095617903e-01
-8.127780025320448243e-02 -1.121593609846277956e-01 5.230270748281919957e-01
-3.398227452249946712e-02 -8.754090648727914925e-02 4.513739228831925021e-01
-6.197020853688450098e-02 -9.711692423013454367e-02 4.538579674419395138e-01
-3.557783567519644252e-02 -1.210009189058602330e-01 4.989348404365672729e-01
-1.145123889315877858e-01 -1.215197827011557374e-01 4.828196787695169245e-01
-6.250334997299005282e-03 -1.258261553699784319e-01 5.329531778356636496e-01
-8.650386321492178898e-02 -6.939016364264156966e-02 4.433193954963737249e-01
-2.917212627112516013e-02 -1.204456902564007975e-01 4.942683315555058687e-01
-6.069816684167995968e-02 -1.191633904468347299e-01 4.909149771694941156e-01
-2.718433205918892315e-02 -1.171295885837732587e-01 4.859553584518346847e-01
-6.973515597789252396e-02 -9.499108129581096405e-02 4.512727706748516088e-01
-2.183258396242792471e-02 -1.093031172907548421e-01 4.697029392052418095e-01
-5.031089054591202786e-02 -1.190433151978740473e-01 4.931534695229385368e-01
-9.278706943281825326e-02 -1.136149049047901621e-01 4.610945483354849661e-01
-1.093679019109870393e-01 -1.024307365436091660e-01 4.574191785097645457e-01
-9.589273902126235760e-02 -1.034397786582851725e-01 4.547155367631762757e-01
-2.116414306920171712e-02 -1.197345579217532346e-01 5.492276743000433781e-01
-8.851665937887882862e-02 -1.130124283445403527e-01 4.620832071812935316e-01
-2.697663720997007381e-02 -1.241912862374776605e-01 5.210416364975059000e-01
-6.195470507517900072e-02 -8.600453342883476737e-02 4.463561176974166766e-01
-7.607771128431009555e-02 -1.072305616960173846e-01 4.609091698893744149e-01
-6.357450125750778447e-02 -1.217107006675540171e-01 5.163603674342500671e-01
-7.478705091438277164e-02 -9.677649833504391175e-02 4.520787270485673304e-01
-3.086127444320130309e-02 -1.064487421759927332e-01 5.484852036612261061e-01
-3.277760177212171722e-02 -1.180130577877975401e-01 4.886958930671024826e-01
-2.509659924823871499e-02 -1.080837056803733293e-01 5.558691714032544251e-01
-3.544025578923917785e-02 -1.225185302247378261e-01 5.279005165681937006e-01
-3.457710868271748894e-03 -1.272548766462274494e-01 5.028351348360216022e-01
-9.613453033154355232e-02 -1.231714449845318221e-01 4.809185314867221450e-01
-1.114726526111751020e-01 -1.076984069990708920e-01 4.611348231813059417e-01
-3.907621376991188278e-02 -1.045810522308373153e-01 4.661018720904829271e-01
-9.955599028313247278e-02 -1.006636150062920620e-01 4.532887350350415789e-01
-2.840818411227525112e-02 -1.157755531684454553e-01 5.490181660574822153e-01
-4.562498816584667494e-02 -1.203689539170575556e-01 5.315884717025525230e-01
-1.080157638110252477e-01 -1.234736414065221305e-01 4.886222691938896245e-01
-5.787739116594000505e-02 -1.196525485157150792e-01 5.258589352025280217e-01
-9.096351180445555462e-02 -1.229615152277104967e-01 4.776603482484252927e-01
-1.840140209554956205e-02 -1.039556869895591484e-01 5.641866735083804762e-01
-1.790307184288957021e-02 -1.101388123696503685e-01 4.688860511564464373e-01
-8.404951914327060680e-02 -1.072169416005593207e-01 4.586042389869072200e-01
-2.720843522980160439e-02 -1.240498777504564221e-01 5.267426458683697188e-01
-3.004729727688460264e-02 -1.169003878512576838e-01 4.862057566427719912e-01
-7.732344429978287026e-02 -1.177034895537514281e-01 5.217888272097505054e-01
-8.993955784608922976e-02 -1.227505382231314779e-01 5.061493386012294593e-01
-4.783622742794323840e-02 -9.998970172806311008e-02 4.594243910872509717e-01
-5.567819450358016398e-02 -1.150450933608888060e-01 5.324393339762164556e-01
-7.471465710510748204e-02 -1.193660047714762834e-01 4.818746820042852375e-01
-6.003448379334329343e-02 -1.208835885290405060e-01 4.986699010989887881e-01
-3.473047979103426747e-02 -1.152414427781848910e-01 5.438204296344550936e-01
-3.333122850100860013e-02 -8.033275417697662013e-02 4.466879824305261537e-01
-9.975683911440878793e-02 -1.237008012207426177e-01 4.977518266778706013e-01
-3.957612938516446438e-02 -9.939857845062451125e-02 4.605872034751408717e-01
-4.083702250448631443e-02 -1.089074312520027649e-01 4.717735892321351931e-01
-8.608812043288376764e-03 -1.202176424536685606e-01 5.503635515274525325e-01
-5.900077777569191079e-02 -6.057709119716242485e-02 4.391831039953570937e-01
-4.081971163035104377e-02 -7.777056667934457990e-02 4.459214675413106233e-01
-2.361389131675082145e-02 -1.140364129397947457e-01 5.554434994686274774e-01
-2.377114732391536964e-02 -1.081523844303671628e-01 5.571529815749718395e-01
-1.647911815903109478e-02 -1.261149499029152188e-01 5.288726455637328128e-01
-2.146091976323713166e-02 -1.252876547101432203e-01 5.253128399668886006e-01
-9.063269183178992994e-02 -7.906946044036139432e-02 4.465333093886816873e-01
-4.209571054432281051e-02 -1.221020915421972275e-01 5.101291587575742525e-01
-2.030633079994050016e-02 -1.256104480463430539e-01 5.229949932477805374e-01
-5.152314361711699681e-02 -5.794295836835897107e-02 4.395016621997696049e-01
-8.052647462830328506e-02 -9.083632531448990188e-02 4.474209568528247916e-01
-3.386296433477509193e-02 -1.114665464141304657e-01 4.755944627274232839e-01
-6.250798523797907076e-03 -1.252612630288053586e-01 4.971010825800331046e-01
-2.765495565396207042e-02 -9.361228474353010254e-02 4.550989906679765995e-01
-6.415359732860938247e-02 -1.218086500353683099e-01 5.013593246563233796e-01
-2.582700088805195415e-02 -1.243355606102436728e-01 5.254611326237534907e-01
-7.861943838068070900e-02 -9.223910575315118210e-02 4.483970660227025173e-01
-9.744897683610560801e-02 -1.203315607322705122e-01 4.667816428350092806e-01
-2.172396732637215180e-02 -1.165841774536373471e-01 5.544561022643249570e-01
-4.498384172576377904e-02 -1.134687971992502376e-01 5.381389613550864315e-01
-9.551038519839663565e-02 -1.235055822610119786e-01 4.836296101043424667e-01
-3.662332882274768608e-02 -1.209673693705029390e-01 5.358910692471758885e-01
-3.830734244974089847e-02 -1.198832239426475127e-01 4.951009544865376810e-01
-7.682062146727891561e-02 -1.205401355145364894e-01 4.859844274721165092e-01
-5.539013568351199013e-02 -1.172341579103921144e-01 4.859952976118737666e-01
-1.203249354875223984e-02 -1.239549584207845223e-01 5.396928131192839651e-01
-9.649222952151886856e-02 -1.240648604534663746e-01 4.928133138619428255e-01
-2.048747054704587456e-02 -1.070240273756715432e-01 5.622894927440735824e-01
-8.352641388608003647e-02 -1.153021032224161024e-01 5.204689140140232873e-01
-3.824115934243545178e-02 -1.044820009328668725e-01 4.660343538717603429e-01
-7.528951683657336691e-02 -1.003615632240744404e-01 4.546873218027390751e-01
-4.729795025042088374e-02 -5.896219593970517675e-02 4.398596251980363414e-01
-1.238355929425791549e-02 -1.224759354646486748e-01 5.458090785588168847e-01
-5.148431789568519434e-02 -1.197814187685284776e-01 4.960552558790132793e-01
-1.695550205260065377e-02 -1.215314959138251300e-01 4.902112283161803030e-01
-3.712623248134405696e-02 -1.123781485287948245e-01 4.773689204364475747e-01
-8.333630048013163094e-02 -1.013446416122434079e-01 4.541333971130492864e-01
-8.467045986272921099e-02 -1.073085835168450936e-01 4.585429771081993011e-01
-7.622470481168215628e-02 -7.707501884906202416e-02 4.400648119974224226e-01
-2.548568010038104042e-02 -9.792355545660391680e-02 4.577857599962403268e-01
-1.697980880143927507e-02 -1.263319271092388785e-01 5.254368698409930261e-01
-4.508715806051590003e-02 -1.219005752239959578e-01 5.204086519534493194e-01
-6.850415198354552204e-02 -7.262169080864208648e-02 4.397548788341882342e-01
-5.588373774131209781e-02 -1.080836101553381279e-01 4.676252071996385151e-01
-8.995082267034283652e-02 -9.629685409298224807e-02 4.502574195795994716e-01
-1.709377118887245653e-02 -1.244752654773080697e-01 5.371785481651046856e-01
-7.636070386388674192e-02 -1.140404115539408597e-01 5.261724271661686325e-01
-9.694901753766781149e-02 -1.240970848762548706e-01 4.858329232054258706e-01
-7.898814513426936912e-02 -8.204231072641134104e-02 4.422588035612800561e-01
-3.735717776019855524e-02 -1.065933990470507020e-01 4.684779590089946932e-01
-4.581218559796628592e-02 -1.152740916541146465e-01 5.368444210221051671e-01
-8.534176177507409033e-02 -1.172910815681979524e-01 4.676183534185149870e-01
-6.298751080585393569e-02 -1.212511397488105214e-01 5.185479010505722464e-01
-2.514029829518321657e-02 -1.151177427691041366e-01 4.807635516405994736e-01
-4.212640366616531018e-02 -1.216842089503523960e-01 5.293530560242797334e-01
-1.738702523863529248e-02 -1.183488729665787692e-01 5.532486218918443166e-01
-8.165470854449248528e-02 -1.131188980415319401e-01 5.222615098687681812e-01
-2.382326604684362192e-02 -1.096400185600000798e-01 4.712913961654121575e-01
-4.789475547582658366e-02 -8.476900139324425321e-02 4.483951676263285835e-01
-5.312143879198573393e-02 -1.215485108559396371e-01 5.199283260298452891e-01
-9.639447004718691703e-02 -1.145041568960004780e-01 4.617262997091431398e-01
-1.177763340148830079e-01 -1.194891747266872140e-01 4.868899217112430677e-01
-1.686559957293232506e-02 -1.263998965392046925e-01 5.201036916166407176e-01
-9.758912725942582578e-02 -8.479151250046258748e-02 4.505531794555506231e-01
-5.474097160460698885e-02 -1.134303507270637001e-01 5.337630505145107840e-01
-3.312013464554405817e-02 -1.183969495717853149e-01 5.422408045618496431e-01
-1.043893438602388340e-01 -1.127108886054540432e-01 5.080182841462400622e-01
-8.892005093948379679e-02 -1.227709745721028284e-01 5.062892803659655439e-01
-3.711775980503453226e-02 -1.132163534595038851e-01 4.788829919338788987e-01
-9.649282905046148440e-02 -1.198007694857687599e-01 5.108766360806965556e-01
-5.447718146802596473e-02 -1.179689870377531591e-01 5.300725224383616707e-01
-5.308091437403825164e-02 -1.122968544038816519e-01 4.757545500280812578e-01
-5.779457996801518754e-02 -9.064421506261788331e-02 4.499647364245737968e-01
-2.694943119443936330e-02 -1.240581742864703962e-01 5.150327162942777148e-01
-2.890583210565465799e-02 -1.201482662219947040e-01 4.931589691582480284e-01
-5.981979759252209483e-02 -1.072066618835211260e-01 5.334672644121511986e-01
-6.024138548603051591e-02 -1.184492337813964208e-01 4.883821353863840309e-01
-4.438186907752800225e-02 -6.323585140584248032e-02 4.410005351876824520e-01
-6.858414687975980528e-02 -7.892325717255800621e-02 4.415715919829219516e-01
-8.724722348674317229e-02 -8.173398651420547834e-02 4.440395028213220963e-01
-1.113994724859139890e-01 -1.016845933791058476e-01 4.591073973560831356e-01
-1.028648654950153063e-01 -1.226977692446673401e-01 4.995872768657027563e-01
-7.017239142856936118e-02 -1.024325655695507847e-01 4.574377337368121244e-01
-2.874510693468953007e-02 -1.115543288001992206e-01 5.501851049404117289e-01
-4.197144623995677920e-02 -1.222526009991733720e-01 5.184595127673590209e-01
-9.911855952062111064e-02 -1.233310323549812459e-01 4.751443402778332548e-01
-1.768808380977233974e-02 -1.100613727779589240e-01 4.686607481944646825e-01
-9.323074436607037274e-02 -1.228419117394987103e-01 4.664311412738738616e-01
-2.459319362823457825e-02 -1.210430159199265554e-01 5.443168402084258561e-01
-7.087922927500008019e-02 -1.174654754143247687e-01 4.800094989552856628e-01
-1.197412674087971612e-01 -1.142760293154758411e-01 4.895882503267344754e-01
-3.143191969814301129e-02 -1.229502589203622653e-01 5.086499992034194673e-01
-7.022197021501269676e-02 -1.214550773331691813e-01 5.163726932177671314e-01
-6.819836864896244855e-02 -9.346860264557829701e-02 4.502673502794757310e-01
-1.111450863970236402e-01 -1.207237994782711932e-01 4.991513362060654435e-01
-1.051622291346841417e-02 -1.233749022715048410e-01 5.417353393704715803e-01
-3.484840127056808290e-02 -1.043730018295060957e-01 4.660312280780172234e-01
-7.125238052130940247e-02 -1.182278318821977370e-01 4.816854273913299678e-01
-1.706392707535119013e-02 -1.236888937365493574e-01 5.409037265979800280e-01
-3.517464367255283830e-02 -1.223335326048280991e-01 5.077337219873343521e-01
-9.720862528097395927e-03 -9.644575875717487090e-02 5.698145713234809007e-01
-3.986567694380711152e-02 -1.116713213246660896e-01 5.421223745266778860e-01
-2.827344646262017550e-02 -1.022173354451425681e-01 4.627927630702426964e-01
-8.775217964000341098e-02 -1.066889788090244762e-01 4.574211762358951772e-01
-7.987889622163849013e-02 -1.180828007238444305e-01 4.741105862340014854e-01
-2.025300045141317784e-02 -1.255185349635555558e-01 5.272443778777148315e-01
-2.347920099092964952e-02 -1.009327692950218458e-01 4.597764491131207665e-01
-4.561223698356665912e-02 -1.136370382708642018e-01 4.795524759392195135e-01
-9.041437166880569865e-02 -1.127168687435551875e-01 4.611886174987775977e-01
-1.441891148135468828e-02 -1.236105971171479329e-01 5.415698942524774795e-01
-9.793589234908549324e-02 -1.204741624709559505e-01 5.093964812981608414e-01
-8.385386544250590657e-02 -1.230664622722540819e-01 5.049300323503934651e-01
-2.070445584357552896e-02 -1.156357562135543610e-01 5.560213260409568869e-01
-9.712960386030333737e-02 -9.356004952175281386e-02 4.507238606830910044e-01
-8.255856158331954797e-02 -1.220902058133261359e-01 5.119823395953777556e-01
