-9.930710726912418684e-02 -1.080754614293765598e-01 4.708424479189325940e-01
-1.428544139960407841e-02 -1.240971474877001768e-01 5.167444927173278080e-01
-8.240308017609677960e-02 -1.011917283091427894e-01 4.467190436313903112e-01
-1.779499732343860219e-02 -1.102355335569780437e-01 4.693034808826316295e-01
-3.905054824330646962e-02 -6.177813073326685056e-02 4.351160093924760219e-01
-1.901233211692620120e-02 -1.226385804593454754e-01 5.213495163452844805e-01
-7.280317456191895409e-02 -1.149409281735671584e-01 4.936162740802805260e-01
-2.052728102135430860e-02 -1.060004311680476513e-01 4.628734947518700071e-01
-1.585944136233802260e-02 -8.608907406542448681e-02 4.446204653834253118e-01
-8.606550116873135092e-02 -9.124842427690746383e-02 4.557638870965465827e-01
-3.701349787830713473e-02 -9.781028673840173882e-02 4.481381541994732820e-01
-8.676086418826384206e-02 -1.059000239590252440e-01 4.539670941666162918e-01
-3.424745293916092725e-02 -8.982802537552873889e-02 4.420544061778450273e-01
-3.834792979831412596e-02 -1.072357259224758358e-01 4.623033095350770894e-01
-6.146699553959897311e-02 -1.075327835767754675e-01 4.363327496366489200e-01
-9.104543077440960253e-02 -9.516886032809405982e-02 4.580565578198327881e-01
-5.688142561497439714e-02 -1.154379376861785350e-01 4.886998158166774298e-01
-5.936101559126399918e-02 -1.109194983777292143e-01 4.634294027790210602e-01
-9.938160861439482296e-02 -1.038707818198761068e-01 4.657096719426183640e-01
-4.260990211362804259e-02 -1.178699891551719253e-01 5.018469768809890041e-01
4.101988042793146619e-03 -1.274661038582636241e-01 5.189049431269987522e-01
-2.854580059016158244e-02 -1.137262141086386735e-01 4.788536438351506108e-01
-7.254982719565345774e-03 -1.190353081793384254e-01 4.829803563689940016e-01
-4.367956485048995335e-02 -6.820566285313296728e-02 4.324487560430298472e-01
-4.228723760761022438e-02 -1.099728924738956892e-01 4.677616852694013172e-01
-4.984191311833467697e-02 -1.100852803735461044e-01 4.636324873940589897e-01
-3.773084209831135266e-02 -7.283682086893188135e-02 4.353265317446193272e-01
-7.926581799710073761e-02 -1.087213194965358509e-01 4.553174580796317539e-01
-3.606707270281888245e-03 -8.010265360614357566e-02 4.449257365738872316e-01
-6.892363827544743804e-02 -1.031376770735530357e-01 4.335074462694053499e-01
-6.541342426843255176e-02 -1.128707404736792874e-01 4.718055468254410134e-01
-5.192539515305971687e-02 -1.173034013795362235e-01 5.104710732690033170e-01
-4.813675372323241580e-02 -1.070092010791421216e-01 4.554839688574042200e-01
-3.366629987945296554e-02 -1.196372000445160566e-01 5.199072612997394094e-01
-3.972301023736493630e-02 -9.169198820234909786e-02 4.399322531752405951e-01
-7.601187014873195258e-03 -1.232038521884056964e-01 4.966732840971858631e-01
-4.582385622321310387e-02 -6.217924459788268937e-02 4.325717630209721110e-01
-4.639688274707841342e-02 -1.100443568885733497e-01 4.647750010177925106e-01
-7.143073802315366705e-02 -1.096856967543051037e-01 4.554005416068465650e-01
-1.495399003679244616e-02 -6.882388869800913633e-02 4.397131203809514499e-01
-1.891729553227915542e-02 -8.528201476319789698e-02 4.437984351821757656e-01
-2.283282576539527597e-02 -1.212940283992518381e-01 5.045361113072152071e-01
-3.521978017828238106e-02 -1.188405398357020026e-01 5.274131410180225021e-01
-6.261464452701390182e-02 -9.845757683008068972e-02 4.212880218162745605e-01
-2.849062660236888547e-02 -1.088051958847333217e-01 4.692278269164831261e-01
-6.695318385692905494e-02 -1.152411053219842552e-01 5.100443522964476228e-01
-5.433834725554657907e-02 -1.152689750058626950e-01 4.866088814918139716e-01
-2.096928112769664426e-02 -6.780077374234819154e-02 4.386875972071188623e-01
-7.960745166056296118e-02 -9.495304114462968514e-02 4.444281531821764886e-01
-8.228306608162629099e-02 -1.136400902648452005e-01 4.960767918244370356e-01
-6.484603751078378553e-02 -1.054852818003701037e-01 4.301487706511988307e-01
-2.702750790736424547e-02 -1.208975264604112559e-01 5.136336420190791285e-01
-7.659558917144337897e-02 -1.136685960445921184e-01 4.745090430393134606e-01
-1.176101776322824310e-02 -5.452786160128104270e-02 4.380483040422133434e-01
-5.078410363580042330e-02 -1.110877093340580796e-01 4.663152603336832014e-01
-5.166200050104900049e-02 -1.051729396257015947e-01 4.408823060098657209e-01
-9.867031780368995530e-02 -1.084064690319492680e-01 4.699085238706269263e-01
-8.935121922008479323e-02 -1.019513705484355326e-01 4.538390842657614721e-01
-4.521836994325912490e-02 -1.178586320323241482e-01 5.065897088254065483e-01
-3.508705205831680329e-02 -1.194161060615216152e-01 5.202439803153356968e-01
-5.034223289145286356e-02 -1.157944647165925350e-01 4.894855279706418760e-01
-1.874110895545220978e-02 -4.911689587487591546e-02 4.385699655284137077e-01
-4.074291445644496329e-02 -4.903217952733778667e-02 4.350914122912850068e-01
-3.057377660833320715e-02 -1.177993232071089802e-01 4.925341061228678541e-01
-4.398353315063736196e-02 -1.177780130751114041e-01 5.028380638794310853e-01
-5.247311461509686359e-02 -1.167509202812601760e-01 5.003254114794988272e-01
-9.422268295994018494e-02 -1.092366021542071769e-01 4.655726064921926199e-01
-7.318318395360916273e-02 -1.007241998429244667e-01 4.372120114688747283e-01
-3.631024115544066733e-02 -1.016415703259264947e-01 4.541371197220875344e-01
-7.187135519569060049e-02 -1.149547549217466019e-01 5.033854077054699117e-01
-1.994009938172493918e-02 -5.840638500777570880e-02 4.378401768154166485e-01
3.823374257551330133e-03 -1.207864623798842879e-01 4.877747237004293468e-01
-3.758961281007142802e-02 -1.125310952354363070e-01 4.776154257512331136e-01
-5.076451394676895386e-03 -8.534387631240805683e-02 4.466234513468647083e-01
-5.031963740110911854e-02 -1.028069349860315090e-01 4.349810055409558118e-01
-5.112957599696972555e-02 -3.993904664111553454e-02 4.428377435892797420e-01
-1.303063557664579930e-02 -1.193295531404942184e-01 4.863117309806893607e-01
-2.192111545749620902e-02 -9.062060102345019519e-02 4.465274297437315520e-01
-1.751134368356923807e-02 -6.272696990444596998e-02 4.385287545672362230e-01
-8.839051927242877471e-02 -1.134301212700829231e-01 4.899757795410664141e-01
-5.093404712429010911e-02 -9.316917292487064683e-02 4.241998795636593989e-01
-5.350354955257543427e-02 -8.449750659612287329e-02 4.239446097676751180e-01
-8.703814439553316309e-03 -1.191933729400993514e-01 4.840460607086515821e-01
6.438409967335573594e-03 -1.209027396765696011e-01 4.893405747067766653e-01
-5.277743129931721650e-02 -1.063601502028317658e-01 4.463110157049685611e-01
-2.339887653233672926e-02 -1.196529230552817735e-01 4.964552210313263880e-01
-3.123622923779308808e-02 -5.587635111985071040e-02 4.367245283482588114e-01
1.180229101268156708e-02 -1.267369909399512495e-01 5.190343425055473636e-01
-4.608249081486229248e-02 -1.021357758532170229e-01 4.433274544289589891e-01
-2.042956865780460457e-02 -6.607193735446617588e-02 4.385355330743497260e-01
-3.871394892186779541e-02 -9.083898848263227688e-02 4.400169120900731534e-01
-5.325302487957962044e-02 -9.661597608750134569e-02 4.222500114783007130e-01
7.182043436089375482e-03 -1.262085048602910320e-01 5.095535809689694107e-01
-5.855964025406325268e-02 -9.482391824198935226e-02 4.198948282553504052e-01
-6.174424036424236428e-02 -1.095435652960121270e-01 4.570107956140309624e-01
-8.014650146795655739e-02 -1.141240389849446923e-01 4.890469463268822814e-01
-3.473401697643124786e-02 -3.570291308804368624e-02 4.365286014991409114e-01
-1.022826252435592165e-01 -1.035155984422697906e-01 4.706721557143805912e-01
-1.786634047227984162e-02 -4.579577578815581529e-02 4.386696120665923293e-01
-2.956990308674780493e-02 -1.092058596272438148e-01 4.698616694878741673e-01
-1.068327620096058694e-02 -9.762317659965277783e-02 4.530664099871393180e-01
5.797367050408484129e-03 -1.261616917421949091e-01 5.084044406477729039e-01
-6.881777678791393960e-02 -9.988940625565911891e-02 4.300264016434727221e-01
-2.185633736251711354e-02 -1.213473508183911392e-01 5.031422278971435791e-01
-5.090232470901800976e-02 -4.227407375315007931e-02 4.407150073635013876e-01
-2.000876035650647061e-02 -8.836122494348501444e-02 4.449505826246324958e-01
-4.065965164309642138e-02 -6.506796325103780809e-02 4.341779562851614815e-01
-4.541896679296109074e-02 -1.081163664450625062e-01 4.594765714204535612e-01
-7.179110343213560008e-02 -1.151739028941783649e-01 4.957327553184802671e-01
-3.958348000791842014e-02 -1.116234421731791687e-01 4.752061191060530931e-01
-2.731152157642388612e-02 -1.081557908672988733e-01 4.679595382000352188e-01
-3.896542649917018875e-03 -1.165285965684925429e-01 4.765059508411537137e-01
-5.011577746266201311e-03 -1.231382398035617970e-01 4.954222179562023931e-01
-1.002920849953391758e-01 -1.107435180732056906e-01 4.891818327918157627e-01
-2.345521056536792673e-02 -1.194790701848896103e-01 5.399719139653905708e-01
-7.398842279486969598e-02 -9.495961150858361899e-02 4.371264874538790535e-01
3.100958193926359359e-03 -1.095910772708082181e-01 4.668303898830824528e-01
-9.086524267742653038e-02 -1.084019315900361935e-01 4.608069354176177468e-01
-9.655801818883248677e-02 -1.049274727239910832e-01 4.613488140322578590e-01
-4.778931542091584272e-02 -9.585504654765135413e-02 4.283171833705038400e-01
-5.625557905967665945e-02 -1.037446823455970835e-01 4.240136937963903119e-01
-5.903572045612755226e-02 -1.074467369748710460e-01 4.471767408156630541e-01
-4.495497338517773223e-02 -4.532705376696222199e-02 4.354249973674140795e-01
-4.174295455576852720e-02 -7.832368255082887420e-02 4.331871660450044015e-01
-1.471319146673709735e-02 -1.125275747886096828e-01 4.721904698540186351e-01
-1.008731301675510061e-01 -1.013837745062024509e-01 4.682598016554496145e-01
-2.129203881304514434e-02 -1.040026802143406148e-01 4.604666797573829795e-01
-2.329086977037315292e-02 -1.208505068883919675e-01 5.018246390380264321e-01
-7.764467599945268361e-02 -1.118123396640416101e-01 5.142838717361566392e-01
-6.230863093117350315e-02 -1.123080727530375439e-01 4.684647657973848300e-01
-1.796923305558414258e-02 -5.513649559453683013e-02 4.381003098374571803e-01
-1.419064944587594169e-02 -1.223961773466422237e-01 5.002960544380747887e-01
-5.770816566720454732e-02 -1.096860826209824363e-01 4.593700128441870478e-01
-3.909925258612664128e-02 -1.070741646861829016e-01 4.614967934377350312e-01
-5.240029202790776573e-03 -8.200358693676229604e-02 4.453062008489248602e-01
-1.697263305401569555e-02 -1.234164256189575481e-01 5.168090880560323175e-01
-9.275282512112578703e-02 -1.097419990798337019e-01 4.657652288144983332e-01
-5.094756155526641156e-02 -2.733735082830056340e-02 4.407878657822808521e-01
-7.575872456126664378e-02 -9.735260699803210960e-02 4.394899061200613355e-01
-6.584392745448243434e-02 -1.055330492513216201e-01 4.349725891476414752e-01
-8.552808349336410432e-02 -1.117559706122658453e-01 5.046540784548808611e-01
-8.513402133940421723e-02 -1.106957629196485965e-01 4.641608425058256771e-01
-6.636293664634675127e-02 -1.156943611981880449e-01 5.045890024795134376e-01
-4.212611754295812055e-02 -1.139128194898187119e-01 4.819730240786547215e-01
-7.649538529858188052e-02 -9.061713370490133423e-02 4.430047283962826321e-01
-4.238800106308877533e-03 -1.085788102490969076e-01 4.644646674911925288e-01
-4.941524833775744197e-02 -1.124533580731541110e-01 4.730270856822451631e-01
-1.868405456316826752e-02 -1.210576416959673607e-01 5.382086662744675065e-01
-2.787329634482682908e-02 -9.413113962949636038e-02 4.484608722421982163e-01
-2.174462822481763175e-02 -1.209554129235732439e-01 5.009124555250732413e-01
-6.478883194256583600e-02 -1.101809141249048690e-01 4.580837008650808229e-01
-2.268637154644289472e-02 -1.023168845717847691e-01 4.588762376476349658e-01
-5.693728463720290622e-02 -1.166027653541663600e-01 5.130169961396221501e-01
-2.033810410723454337e-02 -1.211920994960544590e-01 5.349185872383023233e-01
-2.883606116765404653e-02 -1.199317549779594372e-01 5.017173316234408986e-01
-3.690124042445801222e-02 -7.618857917653119871e-02 4.354732511263607608e-01
-6.179238216631080353e-03 -1.258322225460368482e-01 5.116161772075024095e-01
-8.613376197076939855e-02 -1.133719595380282275e-01 4.949892878689124420e-01
-5.734439416266901013e-02 -1.167573414377310187e-01 5.086600694923654187e-01
-9.573748578632135242e-02 -9.992974217037030316e-02 4.603773387200756906e-01
-1.618220301150274237e-02 -5.823202812188624233e-02 4.383353570070170346e-01
-3.819697774649836314e-02 -1.165501260645587789e-01 5.381116792157862871e-01
-3.476965929098223967e-02 -1.153067568767030537e-01 4.855627592479569432e-01
-4.476835760960449356e-02 -1.172720383153890988e-01 4.970859068776581902e-01
-8.613395861708587897e-02 -1.130312108300582652e-01 4.755661261099140003e-01
-6.730653959783698681e-02 -1.155400156785388877e-01 5.005855035899765548e-01
-2.601387050937114045e-02 -1.206867402135716194e-01 5.051001986218041084e-01
-7.426353967077563289e-02 -1.066013859433296573e-01 4.476541969646544161e-01
-2.145399554522958024e-02 -1.117807471712526785e-01 4.736762781865162530e-01
-9.660327753427852548e-02 -1.091192803412829038e-01 4.685292752517451476e-01
-3.158354342537680881e-02 -8.877880087841884260e-02 4.420510102565894939e-01
-6.669977236306293134e-02 -1.028562435372412792e-01 4.294541520056808226e-01
-3.248593677912638839e-02 -1.168283409767394421e-01 4.897920835832154096e-01
-4.656218356955987153e-02 -5.734010266665316019e-02 4.339842866761843831e-01
8.151432355548802328e-03 -1.273292257036846564e-01 5.267041927525157874e-01
-2.593577741495695262e-03 -1.219010976511857719e-01 4.910764664342310293e-01
-4.737050225392888669e-02 -1.175637777054537730e-01 5.172221728678967345e-01
-5.682094442717640359e-02 -1.071600696260500835e-01 4.430164850741167282e-01
-8.322249923199570923e-03 -1.032725366313110155e-01 4.581932753647454115e-01
-5.114362428279214078e-03 -1.260624843806974482e-01 5.121255457730866656e-01
1.221312449608837232e-02 -1.266257898257028558e-01 5.340638513001808585e-01
-3.685629947597676009e-02 -6.140114892276688635e-02 4.356832514150414948e-01
-1.408164482546337380e-02 -1.221836608223496601e-01 5.380145280069613678e-01
-5.661233406694887726e-02 -1.112550350725467346e-01 4.659631784259732346e-01
-5.714932191673117307e-02 -8.424085145353668591e-02 4.241312160887685256e-01
-1.807478030831501797e-02 -5.467694790187174053e-02 4.381314899697926202e-01
-3.089189005233316035e-02 -8.500938046466480214e-02 4.401710516725902411e-01
-2.327210646548033210e-02 -7.124345064674554584e-02 4.387523851761849225e-01
-5.035862763421413563e-02 -8.221999615604615175e-02 4.258478260373520508e-01
-1.368169010137188640e-02 -1.123170959105893457e-01 4.712939006672344777e-01
-1.275835362975484728e-02 -8.820890360383754070e-02 4.460583763106600874e-01
-7.735680502198818975e-02 -1.138194650032763461e-01 4.762250098392487030e-01
-2.395637264091531743e-02 -1.202102604047636941e-01 5.358680224377886381e-01
-5.188659713101644727e-02 -5.810218429618419639e-02 4.332171128452789732e-01
1.286909822613449550e-02 -1.264059723699539062e-01 5.171753780528959288e-01
-4.306498502633270692e-02 -1.067886453421720283e-01 4.583750022556502546e-01
-5.655158258591379272e-02 -1.163199496044381026e-01 5.171642594411780536e-01
-1.381727145471253401e-02 -1.168239043156524687e-01 4.808745673335771409e-01
-3.944977268253847813e-02 -9.880060040073343486e-02 4.475277409851047827e-01
-1.534719471887212999e-02 -6.715727706267911323e-02 4.394066874713701831e-01
-6.363844636545520905e-02 -9.643673786856560293e-02 4.227362766943795758e-01
-8.791433323572073189e-03 -1.234900467285557080e-01 4.997480738739468742e-01
-2.895947773495795990e-02 -8.224007688185144826e-02 4.396017988922173436e-01
-2.232923236994502087e-04 -1.151760545621577370e-01 4.745409088417981147e-01
-1.271041863532547389e-02 -1.093696324505553930e-01 4.661032702281920903e-01
-5.502649809250749480e-02 -1.094846015149014834e-01 4.599351850139548614e-01
-5.966325592350102403e-02 -1.057640916697561856e-01 4.257987307654084175e-01
-7.903727425272097373e-02 -1.142655547710110936e-01 4.936724694013212567e-01
-3.161100288922888413e-02 -9.635859338885725822e-02 4.488957516530932557e-01
-5.048813274724814337e-02 -4.366572479021357117e-02 4.375741081723166226e-01
-1.000958752278499064e-01 -1.077064716217409346e-01 4.721520352061140402e-01
-5.065055177598219022e-02 -1.169487562892685822e-01 5.017020168215705622e-01
-4.853907678384841023e-02 -8.946161760564842746e-02 4.267729339800386268e-01
-2.680283480978398053e-02 -1.120335256639353738e-01 4.749966291123990936e-01
-7.544964311034119131e-02 -1.127860610979977696e-01 4.683570235133706072e-01
-7.520994514454465429e-02 -1.136189063794578180e-01 4.740498510871790638e-01
-5.134364262902275239e-02 -9.587975850270756550e-02 4.240850989192880838e-01
-2.383353417778884265e-02 -1.215968241771073904e-01 5.172796072807962497e-01
-8.630855982891649791e-02 -1.121561174856669646e-01 4.697837660145637306e-01
-6.860678400917616382e-02 -1.146122270604392618e-01 4.869623873679063686e-01
-3.734009446007190841e-02 -1.152831347464357559e-01 4.861885001609311252e-01
-1.935559701639205654e-02 -5.531798973650471629e-02 4.379448169843817573e-01
-5.512215247401311413e-02 -1.008827006959299583e-01 4.212243982707897239e-01
-7.993482332036266902e-02 -1.141476860409248451e-01 4.894618551518724603e-01
-2.540523907721915775e-02 -1.206973746905743300e-01 5.033444821220500742e-01
-8.531127093130225214e-02 -9.497328324545367684e-02 4.511253867565482301e-01
-1.085612823600289219e-03 -9.764828845845886784e-02 4.550247758672479326e-01
-8.435704684001427145e-02 -1.099730071074004611e-01 4.614737489845930907e-01
-5.780588568888117736e-03 -1.195451812016087856e-01 4.842311318148977417e-01
-4.308744231532959240e-02 -1.181712062879811814e-01 5.197592446904586438e-01
-2.089821859164765067e-02 -1.173250077089072474e-01 4.872059425346524919e-01
-7.282014924832613811e-02 -9.306064981709462336e-02 4.362588089045153494e-01
8.766543533675808311e-03 -1.273568608779363787e-01 5.270144030154833015e-01
-9.754658892793292846e-02 -1.109054015009936917e-01 4.782560669931699704e-01
-7.355799328292987604e-02 -9.882549993775996411e-02 4.367954869329808698e-01
-2.102601025403274745e-02 -5.202474652326495586e-02 4.382235833758845178e-01
-7.161688944615678121e-02 -1.141275435860643617e-01 4.807510634028923646e-01
-7.934611703587553244e-02 -1.141463520666111398e-01 4.840539896908527262e-01
-6.601010167220131009e-02 -1.118844451667578288e-01 4.656306281458656993e-01
2.026354359196559825e-03 -9.681670904074499151e-02 4.547968389318575166e-01
-4.473094551748989234e-02 -5.395300168341397862e-02 4.348033005982852583e-01
-6.459936755888055770e-02 -1.159247031012273360e-01 5.059097931967935224e-01
-4.473014101590885860e-02 -7.763268960269950614e-02 4.312765047937171525e-01
-6.316236660219201604e-02 -1.008437463635715181e-01 4.216295414528532515e-01
-1.305390399235019719e-02 -1.239189866296090958e-01 5.290648370868830108e-01
-6.696111998430344381e-02 -9.671441335868462275e-02 4.266439181629331778e-01
-8.200589026035505491e-02 -1.071523700436202986e-01 4.532000004945535565e-01
-9.743626921046476264e-02 -1.097353552299052126e-01 4.985260028161166979e-01
-6.065065546018667819e-02 -8.693255288871910846e-02 4.257126429480916907e-01
-2.414987630957315251e-02 -6.253616124088169637e-02 4.378124777785689092e-01
-7.412267193770809282e-02 -9.604376181057637518e-02 4.367946394259847875e-01
7.340923769967059795e-04 -1.270020062656292692e-01 5.130229072119413258e-01
-2.934269599729359690e-02 -1.018739108293477968e-01 4.573046100449805751e-01
-3.657211455623158441e-02 -8.431751299153404655e-02 4.373525311624581469e-01
-4.515068684052916254e-02 -5.704191345492063553e-02 4.343729202551090407e-01
-9.532852798753346790e-02 -9.804457654025024171e-02 4.613276329464314207e-01
-6.405412703437756046e-03 -7.130129664397395761e-02 4.414738240103489031e-01
-5.240794422505408445e-02 -1.164323010644712914e-01 4.945322207109572044e-01
-6.331714408526184501e-02 -1.155796040957453585e-01 4.953646946018641639e-01
-2.666113658348592125e-02 -7.228743665951201103e-02 4.380217461901354525e-01
-3.030758479703549862e-02 -9.634024302502339210e-02 4.495070475643831442e-01
-7.643921423698314677e-02 -1.143435662730041269e-01 4.859332085151321645e-01
-7.401398226237473899e-02 -1.147962779497425784e-01 4.941139648916437199e-01
-5.631523198691643084e-02 -1.166904116409382686e-01 5.130015862576259300e-01
7.987016754179513539e-03 -1.271813975234899752e-01 5.297868778733348938e-01
-1.034308063029234920e-01 -1.086533553697445198e-01 4.944343545520222816e-01
-8.930035978528748364e-02 -9.079129671620615738e-02 4.609694045765331261e-01
-7.728546816779829909e-02 -1.136110571550043163e-01 4.740419917875663414e-01
-5.102066304249998352e-02 -3.050645120745996974e-02 4.417859012648099326e-01
-6.632634938908758826e-02 -1.153146760443850005e-01 4.937225719496462495e-01
-1.163587017484348993e-02 -1.236684275744421163e-01 5.042901855980755910e-01
-7.846074499448588146e-02 -1.109711531689711039e-01 4.618211113244282684e-01
-4.913066314308192628e-02 -1.158868277379528217e-01 5.269437326960138002e-01
-8.183671285054472389e-02 -1.139971493670640101e-01 4.844976166054936750e-01
-5.124433305122063492e-02 -1.172696695957109181e-01 5.120590714668640242e-01
-3.738193148607805993e-02 -1.167421255276305803e-01 5.382788259873255710e-01
-2.462197618625079631e-02 -1.208324948930056680e-01 5.030014885296653082e-01
-9.264790252980727170e-02 -1.124240012604486444e-01 4.828533936602964483e-01
-8.369057947095044636e-02 -1.065884383117843420e-01 4.530939754591364887e-01
-5.650984875591320844e-02 -1.160012442769270818e-01 4.937529076810809880e-01
-5.132290047198860561e-02 -2.944705145827902076e-02 4.449222495856185455e-01
2.510199998331141130e-03 -1.246795917928870123e-01 4.995545848316462756e-01
-3.688005776667811070e-02 -1.193087365122657006e-01 5.129683835945048065e-01
-7.767281538226029902e-02 -1.031600324216607190e-01 4.430639168930782801e-01
-6.722183220067841358e-02 -9.471811652608876086e-02 4.279300201528595249e-01
-4.350620148910034485e-02 -4.025003897953065291e-02 4.358962061318003012e-01
-7.680158988713088608e-02 -9.451187144702594134e-02 4.415871112864500625e-01
-2.939052932062707207e-02 -1.198112502958104814e-01 5.014579188581191893e-01
-3.839645365548548933e-02 -7.243042994399702394e-02 4.350210475568429547e-01
-1.451828297664222236e-02 -5.864210783387321241e-02 4.385173290781753663e-01
-4.849345632350961222e-02 -1.119803470966492798e-01 4.713187812382102493e-01
-4.139977608272339682e-02 -8.774136150460727646e-02 4.347008813320252241e-01
-8.663870326735732819e-02 -1.092849313306892139e-01 4.604767492347273672e-01
-2.727946044750314408e-02 -8.892139413458277630e-02 4.434010974592585419e-01
-3.745411554869867987e-02 -3.726101004921131971e-02 4.360119308164142060e-01
-7.249494791603683375e-02 -9.472460542931643301e-02 4.347880236815727661e-01
-5.046597829909450078e-02 -1.162664608199702881e-01 5.237445158265060519e-01
-8.772233636738505091e-02 -1.117622399158537949e-01 5.026033483429361848e-01
-1.035457065631394807e-01 -1.076741655507704454e-01 4.834272703977656183e-01
-7.962659630638226071e-02 -1.092067652229018887e-01 4.568692045050963824e-01
-2.817809158618160906e-02 -1.089705763702566027e-01 4.694775780371573393e-01
-1.111073213003549442e-02 -1.244911491838106288e-01 5.285836318963929026e-01
-6.130687412837949185e-02 -1.160921920235554877e-01 5.113980320733680918e-01
-6.184319040688454616e-02 -9.287384627093239753e-02 4.209008049686738251e-01
-7.777148088500557277e-02 -1.141931195947490096e-01 4.973499177900659873e-01
-7.066588709344183428e-02 -1.138853530282165488e-01 4.768409797717991228e-01
-5.490166972208966600e-02 -1.167700404936521941e-01 5.050353095932031966e-01
-2.297143182402749256e-02 -1.210949130563562653e-01 5.317111475362380490e-01
-4.441939775086865133e-02 -1.172390547215728385e-01 5.258545180486887682e-01
-3.272409836806779160e-02 -1.155109626404953460e-01 4.855889846890303341e-01
-8.712227610435228919e-02 -9.489396197616918605e-02 4.535099537252447188e-01
-6.834742225501513890e-02 -1.109948899610048029e-01 4.604790911364121664e-01
-5.101083358643662691e-02 -3.601953224292115535e-02 4.433563533867894146e-01
-2.546593851132594732e-02 -1.151116594868729776e-01 4.823571499496419612e-01
-6.689441383382270512e-02 -9.234398434833968050e-02 4.282581201138821458e-01
-5.086160221628412137e-02 -1.122387971171516646e-01 4.712456847183431607e-01
-1.480310629163598263e-02 -1.220327793607351580e-01 4.991600074972601386e-01
-3.848466782385254886e-02 -1.187286218451710229e-01 5.221899483176721812e-01
-4.774908353139582784e-02 -1.154040770824557305e-01 4.867198432986648005e-01
-8.089508399332107080e-02 -1.140527477802365242e-01 4.890187731012990424e-01
-7.587879478357090202e-02 -1.057277407936646485e-01 4.462826612118771519e-01
-2.965337997367924541e-02 -1.005296229042614148e-01 4.550324081630722217e-01
-1.675022391024707721e-02 -1.128681246969081287e-01 4.738309263476790933e-01
-3.695498837543272075e-02 -1.125151196612981935e-01 4.775582201664999582e-01
6.414488183320433794e-04 -1.141261183851439570e-01 4.730652954065774907e-01
-8.512983609358973358e-02 -1.106844851948084602e-01 5.088238657486782168e-01
-4.342532154784145559e-02 -1.180935067941060457e-01 5.200359056797849711e-01
-9.321100255473137308e-02 -9.273681389940945097e-02 4.642268192097700474e-01
-3.035413998446023776e-02 -1.150139309156001932e-01 4.832185954244815895e-01
-9.666299800252045604e-02 -9.669907319955109437e-02 4.646192035571636292e-01
-4.895282472854788763e-02 -1.041493768620524313e-01 4.448389776284690789e-01
-4.519512908642870502e-02 -7.869305130760406719e-02 4.307414328476210086e-01
-5.035848195803963728e-02 -8.188052506045419288e-02 4.259331792284986040e-01
-3.657531436779677680e-02 -4.274497335457716485e-02 4.358663930115214691e-01
-3.303392607882885135e-02 -1.183686177937938733e-01 4.962501115685903352e-01
-1.507514373418456129e-02 -7.157835400520033697e-02 4.401495679162396035e-01
-3.303356747909812902e-02 -6.565067527984430606e-02 4.364636612671840554e-01
-4.956780328063670193e-02 -1.174019819862176517e-01 5.084422076519969913e-01
-2.624142782049524933e-02 -1.198613468863434367e-01 4.986896393966496754e-01
4.709806887595086380e-03 -1.273813668315251779e-01 5.172780796824302252e-01
-9.726627760034722067e-04 -1.268643240355953605e-01 5.140649878327019362e-01
-6.101018389961421901e-02 -1.090040326331533777e-01 4.548195735836763065e-01
-8.727555946958091837e-02 -1.067959530044260558e-01 4.560497992169690318e-01
-9.263155151326589454e-02 -1.113877410276501445e-01 4.725786783271035962e-01
-8.216918737612518078e-03 -1.225711371612027423e-01 4.947757974095611244e-01
4.432899382425582215e-03 -1.240522995777033760e-01 4.982533809401215041e-01
-7.980108379121320789e-03 -1.246772850750528794e-01 5.303889286731773289e-01
-8.980281430027867162e-02 -1.122375618454050789e-01 4.991601559670618138e-01
-2.353926685473871350e-02 -1.151663217104254844e-01 4.823908904380184159e-01
-2.577834760694141733e-02 -4.028574952353203981e-02 4.391177226862301719e-01
-8.784538505019862109e-02 -1.133032176548220693e-01 4.940244422676189351e-01
-8.071045448326831517e-02 -1.116672619446245490e-01 5.105267096800616411e-01
-4.757624668419092873e-02 -1.026177631060738310e-01 4.413174962453373928e-01
1.265670263038355843e-02 -1.266971377443233682e-01 5.196549013162536923e-01
-5.516918154760774851e-02 -1.166785579683462248e-01 5.030075922193670834e-01
-4.701872958937716035e-02 -9.372094050114705699e-02 4.283832476464370931e-01
-7.936707281118418611e-02 -1.070295593016924313e-01 4.514121857959525475e-01
-5.808120520146307919e-02 -1.087849671832242376e-01 4.550867963699642971e-01
-1.484404881008735515e-02 -8.327306390913301326e-02 4.437108441423941452e-01
-6.855079011917079856e-02 -1.153888535766321444e-01 5.008569094094447172e-01
-1.699667856400874019e-02 -1.058730617940564916e-01 4.617460293318709774e-01
-5.101060606450173729e-02 -8.720322133073958593e-02 4.243159908200841435e-01
-4.020178355789093966e-02 -1.112403837936452450e-01 4.734638865951296127e-01
-5.252327075745467228e-02 -1.144125285332848602e-01 5.286283164329530493e-01
-4.845904634843531400e-02 -1.175028124394189438e-01 5.076959256376765151e-01
-1.231466351630327097e-02 -8.941242209031022292e-02 4.468081092277081390e-01
-7.058714570694807344e-02 -9.253342140096822155e-02 4.333637196339608089e-01
-1.604722797066996873e-04 -1.084688395468151045e-01 4.649698480695389491e-01
-9.126410364295686230e-04 -1.241599529707295563e-01 4.982489068615659211e-01
-4.488045895496955984e-02 -5.144619977716314435e-02 4.347636152724213554e-01
-1.217689258396418076e-02 -1.090327193139560974e-01 4.653288191401989127e-01
-2.588973192532312631e-02 -1.187292990648105423e-01 4.945180465156624461e-01
-4.443329597350199889e-02 -9.431421341344232989e-02 4.346414331135843856e-01
-2.813078882001291553e-02 -9.701998396436864458e-02 4.511724258310637614e-01
-7.630239021527669696e-02 -1.144356400865806783e-01 4.969304977249813793e-01
-8.148853737530049879e-02 -1.137424712594789222e-01 4.961429416832447425e-01
-4.774417826849824270e-02 -1.173221079895895441e-01 5.029413377778523264e-01
-5.081666069099294303e-02 -1.171015909644885916e-01 5.047649315478743848e-01
-5.930340140882232880e-02 -8.606819524117903519e-02 4.249285125494189908e-01
-3.403808540036522973e-02 -5.127632541175539821e-02 4.364026740804025639e-01
-8.870696443364366190e-02 -1.099147662065914355e-01 4.635490584158669658e-01
-1.001979353287438951e-01 -1.095596100759646391e-01 4.961086520241688169e-01
-3.841648230714586609e-02 -7.266370881386424729e-02 4.350232193396089131e-01
-1.728261594181142169e-02 -1.229280537998044404e-01 5.252860518596346173e-01
-6.726749074087350067e-02 -1.080957174014200717e-01 4.499996781857217854e-01
-4.690018393350117894e-03 -1.192334535928009642e-01 4.827578543709630243e-01
-5.869348253873699767e-02 -1.095485891193257871e-01 4.583210349737393829e-01
-5.786676530497925075e-02 -1.166263615373080154e-01 5.098842266443109894e-01
-2.558143666312727438e-02 -5.317353984781685722e-02 4.378670534747722276e-01
-7.971605570830039150e-03 -1.078194102442362884e-01 4.628743764896999791e-01
-3.965643057899533724e-02 -1.007474097024099735e-01 4.498286593304106629e-01
-2.576159602806855908e-02 -6.426535452548409744e-02 4.376873650178629283e-01
-6.695063300197139078e-02 -1.156239358541272938e-01 5.048203377389238744e-01
-5.486054785653686483e-02 -1.105107954108763557e-01 4.637265086728787344e-01
-4.757989702971417156e-02 -1.122102291416810643e-01 4.729427164625153446e-01
-6.733207250640868557e-02 -1.131346177566065203e-01 4.729218347149264923e-01
-3.567789502598386897e-02 -1.185150996390238048e-01 4.989252474446978503e-01
-3.463066967872809043e-02 -1.196419380767101831e-01 5.166917448328229856e-01
-1.005781611172291423e-01 -1.050484028508087697e-01 4.688295566186865826e-01
-7.748238005172496112e-02 -1.091951813710014957e-01 4.557657258774154840e-01
-1.573659897162964835e-03 -9.842170610801040387e-02 4.556089277177724495e-01
-5.562273538817675417e-02 -1.100698191736258630e-01 4.619385626261746092e-01
-7.153334122195656453e-02 -1.152357989479770306e-01 4.963296533074155192e-01
-7.817302639700288158e-02 -1.134700240627020407e-01 5.048917553533845970e-01
-3.800462701278928962e-02 -3.598099216560646241e-02 4.360569494002201618e-01
-4.168955315029825720e-02 -9.901092782505356571e-02 4.443656909471371264e-01
-5.745333163913107777e-02 -8.481035518243437710e-02 4.239416448723765662e-01
7.131816117138129081e-03 -1.254207517581363285e-01 5.053009253054295824e-01
-5.824502888327064837e-02 -1.146710053376804178e-01 5.236388233605636655e-01
-2.808537829585084147e-02 -1.082128424430538471e-01 4.682102882655650444e-01
-4.143999756885545505e-02 -1.102123586202254368e-01 4.691488466204828400e-01
-3.753585737303691272e-02 -1.072325358955421026e-01 4.627536864503463132e-01
-2.325152591939341762e-02 -1.214299356135460917e-01 5.075713835927345707e-01
-6.474382735596506677e-02 -1.144758472093569124e-01 4.836630749881830615e-01
-4.036099479879753232e-02 -1.099539750590683151e-01 4.687449186848903215e-01
-6.012616462510966819e-02 -1.130270489641397730e-01 4.712815278717386036e-01
-4.663987014191038616e-02 -1.148731558846945028e-01 4.847258661564825544e-01
-7.336562105965181713e-02 -1.036504684498908702e-01 4.398049622410600268e-01
-3.245916561927705141e-02 -1.200060654213274541e-01 5.157187772096535339e-01
-1.744959891526099219e-02 -8.898289458057227763e-02 4.456504630899358332e-01
-1.849405663605353106e-02 -1.225246023197770207e-01 5.262250020626441094e-01
-2.083278429771835347e-02 -1.006780054958162224e-01 4.568541689899776048e-01
-7.310260012472079294e-02 -1.119333902096668193e-01 5.194289866634851371e-01
-1.078592343224520425e-02 -1.236968567829145604e-01 5.034127645085744174e-01
-5.979925377852760709e-02 -1.156102682154543926e-01 4.933320564344441106e-01
-5.928771682090069189e-02 -1.136052006741916504e-01 4.762181979596039616e-01
-6.986211692459771971e-02 -1.117426994619508951e-01 4.639067894401959213e-01
-4.139602401347453053e-02 -1.148665764582428028e-01 4.850917220239518990e-01
-3.414682587042591061e-02 -7.797981674896102555e-02 4.367690459601843989e-01
-6.867236067333896965e-02 -9.258209563385939866e-02 4.307495134659718450e-01
-2.156622769130290065e-02 -4.820510487624506818e-02 4.387618986494362106e-01
-2.460906386291709588e-02 -1.214339718304929816e-01 5.170681108484366240e-01
-4.938829067100328901e-02 -6.083937447832658135e-02 4.322647461672835534e-01
-9.610923939396068261e-04 -1.266174235463968789e-01 5.285171441528898617e-01
-8.076383398186447182e-02 -9.796073205686392504e-02 4.444158739830156302e-01
-7.815008706717401638e-03 -8.896422735922716873e-02 4.474974951012399838e-01
-1.270077403532889233e-02 -9.034927223766729687e-02 4.472371644893808340e-01
-7.671576725131881713e-02 -9.321143784649707498e-02 4.419439043025413794e-01
-5.056327951600502607e-02 -5.258201100953251161e-02 4.350844089074218379e-01
-1.008487252832382525e-01 -1.100364267784800926e-01 4.829995402495903534e-01
-8.530550106558146273e-02 -1.130810936753678941e-01 4.751895119502566600e-01
-6.187597983713985506e-02 -1.036894851721529287e-01 4.208374540362176397e-01
-1.238061087160443295e-02 -1.233521723229611122e-01 5.033071732477579774e-01
1.439852491759673059e-03 -1.048844830823453117e-01 4.616076664400393104e-01
-1.343499090293567150e-02 -1.058993274538219259e-01 4.607557613978937594e-01
-5.637954897131656345e-02 -1.096589836839773208e-01 4.599121203350006182e-01
-6.682849574308788454e-02 -1.054084881404880325e-01 4.357305944105889783e-01
-5.567005296594392666e-02 -8.769087387475064943e-02 4.227217208344400956e-01
-7.343763497527000528e-02 -9.835199030027520772e-02 4.364571215807780957e-01
-2.448740475343464534e-02 -1.210831292929196445e-01 5.253725051945823399e-01
-2.714634053956393664e-02 -8.405694126285946643e-02 4.410312095311981206e-01
-7.905001348919404869e-02 -9.085979310116591712e-02 4.457220590036105046e-01
-5.860184177484207939e-03 -1.248049945909681518e-01 5.040599445174823723e-01
-3.967313435461533588e-02 -1.187896250725665043e-01 5.174442543453787735e-01
-8.658054670785046703e-02 -1.113151935505490853e-01 4.669348243364260798e-01
-8.769544196273791614e-02 -9.232709402647495955e-02 4.568760327051987757e-01
-9.052051769869466549e-04 -1.264884026430346808e-01 5.295319217783629462e-01
-4.801150475594165995e-02 -3.601838786731118708e-02 4.380989739958511264e-01
-5.125318194318728010e-02 -1.111072229932965477e-01 4.662170443190126190e-01
-1.964600578933380776e-03 -1.207943810092944326e-01 4.874063733672160392e-01
-4.979918991841236070e-02 -1.169451089531652471e-01 5.001187037662194745e-01
-1.478091042746401858e-03 -8.376539631387515394e-02 4.467180099641004931e-01
-8.743646814384173349e-02 -1.004000246146874720e-01 4.515598318300420577e-01
-5.113095487431112279e-02 -1.165657171088585881e-01 5.205775131899738062e-01
1.026626741890530013e-02 -1.267168133634884175e-01 5.169605806937449533e-01
-3.038516223784880343e-02 -6.724168422272547296e-02 4.369242348651966035e-01
-4.402672673379251500e-02 -7.174946702573704871e-02 4.320832681841614287e-01
-8.413386647300342969e-02 -9.617743156381294845e-02 4.491738402182825496e-01
-3.786067402506747281e-02 -1.102711357957714966e-01 4.711407884446726091e-01
-3.497879945307074551e-02 -1.189659545015623737e-01 5.261410123807631622e-01
-5.222429605154700616e-02 -1.166201569324293585e-01 4.972060490119514786e-01
-4.549261907771019742e-02 -1.159790037224441434e-01 4.896649917362959625e-01
-4.657069863441860857e-02 -8.679275014950542377e-02 4.289529602147478804e-01
-8.887960039681225277e-02 -9.020514448960248455e-02 4.611178491846384397e-01
-3.673992460651456099e-02 -1.193740098550046258e-01 5.145314076426571459e-01
-5.165612468714110561e-02 -8.838043425923468310e-02 4.236060370658318308e-01
-8.134518525412337553e-02 -1.020791469411145014e-01 4.459694268504081904e-01
-8.649115848907285020e-02 -1.009223421573997720e-01 4.505851243400564310e-01
-1.914276956112022712e-02 -9.887660075826372463e-02 4.547644867671473690e-01
-3.831762747644163608e-02 -1.186637001166760408e-01 5.044774429785217063e-01
-8.947088325383516227e-02 -9.937370777704407354e-02 4.537118864284300779e-01
-7.055510732045991440e-02 -1.099835983052095956e-01 4.561681295715731554e-01
-3.932705035942890559e-02 -7.250540228283658406e-02 4.346184209185295910e-01
-5.981957057985210630e-02 -1.164170226241074274e-01 5.062122861561783038e-01
-5.020988676636524428e-02 -8.186047909462204619e-02 4.260216264040405654e-01
-7.542102344355078314e-02 -1.020920097819608824e-01 4.411795022158584989e-01
-5.640544623887033121e-02 -1.076158622808121718e-01 4.494253371972330435e-01
-7.519121488934783423e-03 -9.169860451115294242e-02 4.490016922916333364e-01
-5.114880613978088630e-02 -3.378459219958188792e-02 4.443674260940898568e-01
-2.760544989430121707e-02 -1.154303955269817550e-01 4.837236979301254292e-01
-9.005608609981897994e-02 -1.115931344498728300e-01 5.017850958005488637e-01
-1.828144355761995854e-02 -1.229788580355731936e-01 5.189818511104117293e-01
2.449428844819264914e-03 -1.266896074181298182e-01 5.096948809925588852e-01
-1.856116950213690039e-02 -7.763389835661585470e-02 4.409481537985822652e-01
-6.750542765923463195e-02 -1.112260134047177301e-01 4.622275299229979817e-01
-7.900336127740440612e-03 -1.080964655816780834e-01 4.632914187463866851e-01
-9.897142270837308575e-02 -1.064969348641844199e-01 4.675394578518224376e-01
-2.406344611607424966e-02 -9.574117516201953448e-02 4.512167902990942281e-01
-8.778639365554007090e-02 -1.128677211300697369e-01 4.975811788871167263e-01
-5.253083460776382732e-05 -9.142410273999791726e-02 4.505345288404853377e-01
