-8.081674710920928872e-02 -9.426053540351271576e-02 4.460100791895976746e-01
-5.156634011047171728e-02 -1.049662250169487165e-01 4.428676787345468546e-01
-5.777908577347524305e-02 -1.138120877664105662e-01 4.794875177405111821e-01
-4.400180856262770474e-02 -8.660143263625856569e-02 4.317847712738541732e-01
-7.086279918552432916e-03 -8.226343218491317943e-02 4.449956998922633966e-01
-2.251011868150932724e-02 -7.396907075177784618e-02 4.394833363666857395e-01
-5.979664484175038763e-02 -8.470399297935281291e-02 4.266508594435966528e-01
-3.741345321245263117e-02 -1.189695418213228134e-01 5.076080409400769433e-01
-4.356533629421268511e-02 -5.708552854338761612e-02 4.347513467209285776e-01
-4.152164354082275161e-02 -6.206205773499107181e-02 4.342443833024197675e-01
-6.034182574355707179e-02 -1.161731492029512147e-01 5.104848288291563563e-01
-5.133769573633686911e-02 -3.023925339772825030e-02 4.449178504949958812e-01
-1.680076757080957439e-02 -9.211588666633928335e-02 4.480319091384006858e-01
-7.773142131208023858e-03 -1.065379225317617529e-01 4.616512405279198927e-01
-4.353751269551769942e-02 -1.172121015992350912e-01 5.268575560957877713e-01
-6.818254574461750372e-02 -1.058993742831474266e-01 4.421830239409263452e-01
-4.718335701036865254e-02 -1.127453764293351868e-01 4.760325769734761736e-01
-4.199125913776562830e-02 -1.158352626918909556e-01 4.890735111712692929e-01
-6.862414793282191339e-02 -1.136987630873172173e-01 5.170287723821017645e-01
-1.902079395229053921e-02 -1.159686981796410193e-01 4.821508486591249421e-01
-1.209322888702559287e-02 -1.128988680552444890e-01 4.716738886622086624e-01
-1.832872808721074196e-03 -8.009385571426450023e-02 4.453376480486123667e-01
-4.433017978055017738e-02 -9.166009544317263447e-02 4.321446398601943573e-01
-4.303350078161408132e-02 -9.387304037637086984e-02 4.389292317406723876e-01
-6.256516227036241530e-03 -1.196741076100544809e-01 4.850153497730489982e-01
-8.813163053781611356e-02 -1.131608513165270058e-01 4.854303547628249227e-01
-5.157992340541718568e-02 -1.022750486421941940e-01 4.304739711634367194e-01
-2.322447894633771284e-02 -1.214850724845043112e-01 5.219638454488220169e-01
-5.229484306609933492e-02 -1.132500374882975530e-01 4.775392952655670431e-01
-1.172033003742548908e-02 -1.243602269464339771e-01 5.095985268836280557e-01
-3.591615952474225271e-02 -1.188881800600967709e-01 5.034206973511307082e-01
-2.111073714227669484e-02 -5.243771781907908408e-02 4.382084024698202351e-01
-6.548742564411500801e-03 -1.259608275299598235e-01 5.160476122087400697e-01
-4.762192878170918436e-02 -1.034398767254131601e-01 4.459928542003059881e-01
-1.332807252171118798e-02 -1.215401501179090848e-01 4.953713608081494746e-01
-4.238904405476272286e-03 -9.781861379828583891e-02 4.546048855415764089e-01
-3.066280178932679831e-02 -1.034672142301933662e-01 4.598615321728721783e-01
-8.038227768766409431e-02 -9.120328880127086257e-02 4.470890801115547375e-01
-7.584658105702496433e-02 -9.885708747492867599e-02 4.405315658377061405e-01
-2.220592029470496928e-02 -5.715361652910108670e-02 4.375813793809633090e-01
-2.584991868401418161e-02 -8.481080186110201424e-02 4.417954019088518036e-01
-2.439341267569163779e-02 -8.676085507609035408e-02 4.433275407727207407e-01
-5.211629629323888402e-02 -1.054804254899664173e-01 4.447527896008992565e-01
-6.297243196350171823e-02 -1.020066912916562096e-01 4.220822257167314850e-01
-2.824003022288277057e-02 -1.204886937890648629e-01 5.101102753957190705e-01
-2.865330049570288806e-02 -1.176379184669621436e-01 4.918990752477299111e-01
-2.758595371784430469e-02 -7.363063723299118069e-02 4.380034672551418873e-01
-5.597197404690981704e-02 -1.064810426552472850e-01 4.398966542675233349e-01
-4.970472628624216654e-02 -1.173585103386439316e-01 5.123689391073626975e-01
-3.365488017111664676e-02 -4.589747897901250845e-02 4.369788703117408191e-01
-9.384315810168386562e-02 -9.417530033496723796e-02 4.630743041202992072e-01
-6.947452240153199898e-02 -9.547863319696829609e-02 4.301876152921647600e-01
-4.058751962028896848e-02 -7.002931368043750771e-02 4.339884077124458450e-01
-5.400891958129751258e-02 -1.084116651609741827e-01 4.574179966129198749e-01
-7.234320081885371734e-02 -1.062918732186533960e-01 4.468436754347269724e-01
-4.953237927135812485e-02 -9.723502755714921730e-02 4.272552512957167870e-01
-9.979009870927164211e-03 -1.249042928852655970e-01 5.108890133387535837e-01
-1.032552244134032904e-01 -1.034774666388386943e-01 4.723104305921022039e-01
-4.634289664309516887e-02 -9.676595501040248515e-02 4.338960171255643594e-01
-9.490051285997713748e-02 -1.101969828096336368e-01 5.004100646450689860e-01
-2.575233213700421978e-02 -9.573521555098779556e-02 4.510771105664238556e-01
-4.540913933290931237e-02 -1.111747700947091494e-01 4.705723370111698500e-01
-1.983297215039282052e-02 -1.018157957700167038e-01 4.581117177622269221e-01
-3.119804591528692241e-03 -8.891724080027754717e-02 4.488486888554801824e-01
-9.301836118939296738e-02 -1.123600709647751272e-01 4.881424189348929632e-01
-6.440265089279599911e-03 -7.706039597640412797e-02 4.433685167197010668e-01
-2.503603803136114289e-02 -8.371376953953531264e-02 4.416974453848117044e-01
-1.977450392673922239e-02 -1.117785459460898939e-01 4.731001462001217517e-01
1.160561353325077587e-02 -1.267804165321672893e-01 5.201751622586531232e-01
-2.333895361898256915e-02 -1.015670610912975669e-01 4.583935979873290378e-01
-5.096202218175028414e-02 -1.124737636828352927e-01 4.735964657355995477e-01
-5.374065835738273123e-02 -1.154541570276236273e-01 5.237342249576060205e-01
-1.351618528312722133e-02 -9.242319131433886226e-02 4.484656323862605820e-01
-9.872363946230636178e-02 -1.055799906427909163e-01 4.661848912885617757e-01
-5.515648870016977290e-02 -1.046376472275623720e-01 4.296605518322154649e-01
-2.940786564862101632e-02 -1.199315137989266089e-01 5.271832237777106522e-01
-8.395244981941991924e-02 -1.075802505038167822e-01 4.558587294674797952e-01
-4.787097284052670848e-02 -2.834153616336424278e-02 4.376654805192692899e-01
-4.201092611134699117e-02 -4.419677018216915110e-02 4.353986095521553135e-01
-6.360328724354148699e-02 -1.153390982456497238e-01 5.148204038976348373e-01
-4.463939029232916189e-02 -1.094661249169053691e-01 4.645837724582729811e-01
-2.210680670734694112e-02 -6.272162789015787998e-02 4.381082310709989991e-01
-4.236236461478751908e-02 -6.844019284107268064e-02 4.331590007353636196e-01
-3.125758518850869222e-02 -1.198542591882490321e-01 5.059926843386788331e-01
-6.704906461660424533e-02 -1.062160096523665220e-01 4.430019215243478081e-01
-1.144948283205639641e-02 -6.484481362062821663e-02 4.395199596428154831e-01
-1.929108846593147186e-02 -9.669175489335304907e-02 4.524906695524379407e-01
-7.813134077317751558e-02 -1.141270674559019122e-01 4.887531063280662336e-01
-4.183532578643033711e-02 -1.178165058951918809e-01 5.011639255793958192e-01
-8.024539798508896829e-03 -1.092706634631845225e-01 4.652025622875542998e-01
-2.874445456429061338e-02 -5.189867729550248776e-02 4.378402743345701231e-01
-6.511542171856028738e-02 -1.050915113611098073e-01 4.300229040492097310e-01
-1.046008735472332522e-03 -1.038863962897200455e-01 4.603825671219661797e-01
-3.947324424001706460e-03 -1.193372967913457761e-01 4.832289485739945101e-01
-2.415556871153288002e-02 -1.212763480420823992e-01 5.220107705141250332e-01
-4.301067059868921710e-02 -7.367022822462805653e-02 4.328065776113901308e-01
-6.914760381703306813e-02 -1.124188858100054200e-01 4.693837486786357482e-01
-7.750658367980248209e-02 -1.141164614103521019e-01 4.868640506260230039e-01
-1.039366411971638093e-01 -1.068686015706528658e-01 4.832876471252047779e-01
-4.428364363622900451e-02 -1.159838823793944707e-01 4.901546396927751181e-01
-2.352838957940241171e-02 -5.630824287286502472e-02 4.376157701807311118e-01
6.439673249565641515e-03 -1.270648403788333936e-01 5.297765014706324882e-01
-1.524840511726171036e-02 -1.150236252812940896e-01 4.779659222970864541e-01
-1.167947707828385050e-02 -1.178530298684350441e-01 4.818528436963672168e-01
-4.987846731964121205e-02 -9.816469532218137506e-02 4.272924008563003251e-01
-3.294214344690383350e-02 -1.186060103890468204e-01 5.329331056329833505e-01
-1.959529145955653251e-02 -1.084094448366099556e-01 4.667315401084344839e-01
-4.204279463082099405e-02 -1.180548392588546408e-01 5.221521472686797560e-01
-4.096278956159369461e-02 -1.032037792958692829e-01 4.540457840288081304e-01
-8.831242008022833698e-03 -1.248277655129394204e-01 5.288601295732322516e-01
-6.704966822228175527e-02 -9.092004685183033286e-02 4.295228839373187446e-01
-1.519537509561924397e-02 -1.036968747971641347e-01 4.584427280996911658e-01
-8.945308127627320249e-02 -9.428277949220981169e-02 4.566048134271548653e-01
-4.108252657042067713e-02 -6.965641503968264536e-02 4.337088080856280059e-01
-5.850469178529376507e-02 -1.142454195438103032e-01 5.247549658745179757e-01
-1.018996071561702361e-02 -9.418131721899440645e-02 4.503127298711413484e-01
5.223524848872243553e-04 -1.166134920489210192e-01 4.772300652342053029e-01
-9.509560421282636788e-02 -9.590638092279210603e-02 4.629910601283996341e-01
-2.877868345778773415e-02 -1.110809634528657636e-01 4.737149443132678828e-01
-7.899035374920911068e-02 -1.136449937730238391e-01 5.018532145091113561e-01
-8.360788156366638635e-02 -1.029806393263646425e-01 4.504402432430193448e-01
-6.514627702274912446e-02 -1.007588528153649937e-01 4.255536098305265358e-01
-1.028690477410527937e-02 -1.234539102681944250e-01 5.015420762010639466e-01
-1.038048605487897416e-02 -7.475570310646771632e-02 4.417182448298110353e-01
-7.506242811782035118e-02 -9.324430201373211380e-02 4.395941431073791539e-01
-4.734539862881305752e-03 -1.262502471236795210e-01 5.137327908205319149e-01
-1.915211691021098325e-02 -1.131632510523584989e-01 4.759457139117214686e-01
-1.780891993853362830e-03 -1.118502687402458812e-01 4.691951398881634150e-01
-1.019541691329986510e-02 -1.250769345539493871e-01 5.164564555458576178e-01
-5.430310002986092621e-02 -1.081745090664056469e-01 4.562571701502737831e-01
-6.985426930708418802e-02 -1.151907459663968625e-01 4.998233441700433155e-01
-2.264716212531754300e-02 -1.213895432873900448e-01 5.061042519105373172e-01
-4.328504530092374541e-02 -3.423880512174252294e-02 4.359219606501172350e-01
-1.153840945103170451e-02 -8.649566885069591426e-02 4.456241077012468299e-01
-4.873567187496970210e-02 -1.086367250368990983e-01 4.602194724587281849e-01
-5.518179060835015637e-02 -1.124987041604259552e-01 4.715664131378670132e-01
-5.297791689381946278e-02 -1.039152552241304345e-01 4.301789929360761433e-01
-5.320992229717035754e-02 -1.069771664711117870e-01 4.510251981924859876e-01
-1.369080336939827378e-02 -5.483580654527137055e-02 4.382251850145332805e-01
-6.056584046711249725e-02 -1.145186841521052268e-01 4.844591903201740379e-01
4.222521603593220457e-03 -1.265318065419764049e-01 5.329425195944175186e-01
-4.493768384271784599e-02 -9.509519054324858112e-02 4.367655561158368949e-01
-1.527496022005475282e-02 -1.162562793364963348e-01 4.807163672111118835e-01
-1.995310822618794402e-02 -1.215339196707265756e-01 5.026736810098116903e-01
-8.735106822879419586e-02 -1.098926838329854494e-01 4.635578327760139783e-01
-1.979787102189638909e-02 -1.132031737472187771e-01 4.764085592992424734e-01
-3.315508382188920439e-02 -5.725802271276949490e-02 4.363441717616719506e-01
5.475439624052750795e-03 -1.207761188829980792e-01 4.886647794243653697e-01
-5.026211550912730586e-02 -1.168343051796390808e-01 5.007338412817972095e-01
-4.435263554737625680e-03 -1.197484279205624086e-01 4.846229728048147556e-01
-8.835499405104760284e-02 -1.061212228632782417e-01 4.561437729988714329e-01
-4.962396783424326274e-02 -9.573457171739277460e-02 4.264526421287370139e-01
-1.467864742413210917e-02 -1.238965967633584853e-01 5.196890816540487013e-01
-2.623100537508210595e-02 -8.237934555431547512e-02 4.409483009414555399e-01
-9.436691742926130166e-02 -1.119841757666073523e-01 4.907287920312843332e-01
-1.842064907226240861e-02 -1.194787344124048217e-01 4.923301431673404172e-01
-1.754983457988145562e-02 -8.952765509055073123e-02 4.461508689965887897e-01
-5.303419045417667732e-02 -9.489770603783871661e-02 4.227000563247621523e-01
-4.689399984722875808e-02 -8.680530807150155237e-02 4.289114956054088657e-01
7.149330974009019020e-03 -1.256199837572340439e-01 5.065257794817114023e-01
-8.367518562663663062e-03 -1.237616432432466496e-01 5.011287320989902261e-01
-4.406179911586471931e-02 -1.057144743057449043e-01 4.560786872561014005e-01
-9.088153391479631554e-03 -1.248736436018371143e-01 5.091633986708872239e-01
-5.698386079086680683e-02 -1.143052031106349536e-01 4.820004148037793645e-01
-5.813131415091794818e-02 -9.632935364769283637e-02 4.196178900945687906e-01
-2.870331558651582210e-02 -1.203696516579081111e-01 5.207401078764739566e-01
-3.126595925062018028e-02 -5.319770572824063237e-02 4.371096452721652814e-01
-4.363285025425705371e-02 -9.302571945261352282e-02 4.367863225217133993e-01
-8.158649599991811552e-02 -1.094991938891791278e-01 4.595095299684537893e-01
-8.912215770786902080e-02 -1.110648671022164691e-01 4.685168839462271473e-01
-5.577722323797150439e-02 -7.803358232403601047e-02 4.263776872458270306e-01
-3.016590770587865983e-02 -1.187863464702741401e-01 5.356609236325563517e-01
-3.562705407980610878e-03 -8.150482225452643226e-02 4.455810749701756279e-01
-7.498177782769777089e-02 -1.042416270263525346e-01 4.435266472186576991e-01
-9.997446382698673209e-03 -1.092596543869816944e-01 4.653014153406118125e-01
-7.450741157914797519e-02 -1.043092454268404329e-01 4.434940995795443874e-01
7.297219743582517362e-03 -1.245974453645943836e-01 5.014303705961836721e-01
-1.132203755212493959e-02 -1.053348723609432297e-01 4.603647096475920186e-01
-1.834776634739174184e-02 -9.515956986340232127e-02 4.509128236292971881e-01
2.273485282130203317e-03 -1.200790031211016046e-01 4.856525804287551984e-01
-1.395260297253010824e-02 -1.192717331166887329e-01 4.868147809707757401e-01
-5.488917934622183220e-02 -1.080821050453715376e-01 4.552513915903210751e-01
-2.379443108597146042e-02 -1.122746413878076693e-01 4.752564329562046219e-01
-6.448824051428023868e-04 -1.169978333067471926e-01 4.778217796053857436e-01
-3.398620077222468117e-02 -3.493837904623071922e-02 4.367341098356414819e-01
-3.430201237965434941e-02 -3.936845584411290122e-02 4.367149959188945108e-01
-2.385076096305786819e-02 -4.181893198971070591e-02 4.393043826619684733e-01
-3.628790777155815189e-02 -3.489467400984849754e-02 4.364307588888695633e-01
-1.517331644831165262e-02 -1.224957103034857303e-01 5.022998773423522634e-01
-5.729688597837379743e-02 -1.164228924614999494e-01 5.139203797076102864e-01
-9.001711932087130830e-02 -9.575723596782885483e-02 4.561375901492512042e-01
-3.387798282089764246e-02 -9.574148384014283253e-02 4.475025380281628662e-01
-6.511164882825498310e-03 -9.966466437773036091e-02 4.556327199565585184e-01
-3.784487802006056278e-02 -6.893828378075722574e-02 4.352348034949637956e-01
-7.204847271464133625e-03 -8.667382017768625324e-02 4.466548849167623625e-01
3.217915001787146831e-03 -1.266953625625818480e-01 5.103825892478506265e-01
-6.509812220305313812e-02 -1.154223510516897699e-01 5.111792795699616754e-01
-1.546481605019988520e-02 -1.220253800590202775e-01 5.001869740507796092e-01
-5.105662082840061594e-02 -3.105573575960836330e-02 4.419030704531018983e-01
-1.726819598219796539e-02 -5.723525177842580386e-02 4.381720181504243361e-01
-7.434459663612610902e-02 -9.831613418638998625e-02 4.378818525455586141e-01
-8.994940988731633946e-02 -1.121994871291867174e-01 4.751339655660518635e-01
9.139547131964550000e-03 -1.267395602632221951e-01 5.159669599376329741e-01
-5.902755951649445165e-02 -1.138953778947275342e-01 4.801960490039521856e-01
-7.396075704496424957e-03 -1.234771493855122970e-01 4.983380098534064828e-01
-7.859187601482026109e-02 -1.141282970542526060e-01 4.906462415964981671e-01
-1.795411336180910769e-02 -9.697763374895936039e-02 4.527279706838500117e-01
-9.269141981665054986e-02 -1.123747226688095596e-01 4.902812031167066431e-01
-3.621880573988255428e-05 -1.271156735407885374e-01 5.171217301499794194e-01
-2.402939268183029373e-02 -1.207468423056439200e-01 5.320863233891063304e-01
-9.354610897164730710e-02 -1.120150722014786743e-01 4.815796683120917021e-01
-3.460008030050130967e-02 -1.196487552694494860e-01 5.139844265171124027e-01
-5.798424236134844256e-02 -1.069876374253663220e-01 4.459885085904109481e-01
-5.022685992519938109e-02 -8.758267411380390999e-02 4.254290685837036623e-01
-8.607412419976305518e-02 -1.135594587570372543e-01 4.875583423869231381e-01
-4.262170062663789283e-02 -1.016100499837059162e-01 4.488845533963148338e-01
-7.409362498659831375e-02 -1.117374186533073022e-01 5.188884163922574677e-01
-1.007805085380194532e-01 -1.103312423820111826e-01 4.905886053652272483e-01
-5.291677857663210777e-02 -1.131971946252430666e-01 4.770723695202426784e-01
-8.487444112341084590e-02 -9.603756829526062522e-02 4.499536700869476991e-01
-9.526346267734139839e-02 -1.116427335045536845e-01 4.811728735576358273e-01
3.147888826375570999e-04 -1.271969878306980495e-01 5.222565887486478875e-01
-4.814977873188996255e-02 -1.073601359607786465e-01 4.568102083229047539e-01
-1.837942278840620260e-04 -8.734132390424477477e-02 4.484857280427700932e-01
-4.978193303815860171e-02 -1.036856060599061630e-01 4.410802606207213095e-01
-5.979827892489808505e-02 -1.163669750817471066e-01 5.078547853151793579e-01
-5.331699612309339503e-02 -1.168102028243908491e-01 5.057639176556734117e-01
-4.746840907642786017e-03 -1.082753026278503311e-01 4.641345036997144291e-01
-7.457649869506433049e-02 -1.121794446231820924e-01 5.168742208795858994e-01
-1.702466677383456320e-02 -9.151821979442277544e-02 4.476050288129981847e-01
-7.639309110771112798e-02 -1.140802942727919406e-01 5.021801197776113446e-01
-4.905941264937060259e-02 -7.994196038066374299e-02 4.272904356909018042e-01
-4.474918055098316139e-02 -9.931229657108134323e-02 4.410904804933749035e-01
7.710883453963905503e-03 -1.218981582145090975e-01 4.930129363348061955e-01
-8.785800985351709114e-02 -1.077404968346502567e-01 4.585750840795720928e-01
-5.862426971010450960e-02 -1.076227073684346419e-01 4.335784984973892753e-01
-2.189606937663986230e-02 -1.179132004579480086e-01 4.903466917733955155e-01
-2.676893882849773476e-02 -1.204859400181319262e-01 5.268747152338286721e-01
-1.535902942311094185e-02 -7.487341745319102404e-02 4.408116940256314176e-01
-3.059771728941217822e-02 -4.169157594928054461e-02 4.381921768832749975e-01
-1.502935609775326795e-02 -1.223120026206953453e-01 5.011401332923101082e-01
-3.941127084123223490e-02 -7.350613989827367578e-02 4.347524456014287275e-01
-2.102618957479693296e-02 -1.206440413807113032e-01 4.990383866145014502e-01
-6.761136625707872549e-02 -1.078657003477822007e-01 4.502227860660253933e-01
-1.311533488690234950e-02 -9.899033393312847706e-02 4.541527393959937098e-01
-4.251163895178263624e-02 -8.561324106519964394e-02 4.335779702680350178e-01
-2.876267176669847561e-02 -9.197616674022737748e-02 4.459900712001157452e-01
-3.048322291011560867e-02 -1.187428192476357725e-01 4.964698443609555367e-01
-5.094337924368042697e-02 -3.045687504922526059e-02 4.405597985773619385e-01
-1.445936628831291995e-02 -5.615215017520970575e-02 4.383150667182203475e-01
-4.643484829920665330e-02 -9.551702868412784153e-02 4.306626405505801225e-01
-2.534913437472843117e-02 -1.206520441553292633e-01 5.291813996091326855e-01
-1.814280496602676748e-02 -9.430960577280420032e-02 4.500995216557576728e-01
-3.043587931209228506e-02 -1.049107725796904200e-01 4.623001636003580828e-01
-6.691786656130581205e-03 -1.037646475836455917e-01 4.591119864599188527e-01
-2.236185971232120678e-02 -6.107695709723710842e-02 4.379164130042429437e-01
-3.530914315325799080e-02 -1.188075325724386733e-01 5.268146284785890643e-01
-5.061906696336272021e-02 -6.652416208390266039e-02 4.302330685493765960e-01
-5.647817044355824684e-02 -1.157137370310517832e-01 4.921760483516028906e-01
-6.231192823431830514e-03 -1.259451499313132550e-01 5.198412398544205448e-01
-1.706111100628182609e-02 -6.611585866460240046e-02 4.390919368918523857e-01
-2.942945861205308045e-02 -1.170237714757754732e-01 4.900379778421847798e-01
-3.390426361696316504e-02 -1.118932045174274720e-01 4.755866035610555875e-01
-7.341527361882599356e-02 -9.512529111195903997e-02 4.359125990610739909e-01
-4.276653759165331692e-02 -7.360577281597753541e-02 4.329450973911265210e-01
-2.130040703258180568e-02 -1.216525523265736541e-01 5.057558624809870285e-01
-6.460250655687498067e-02 -1.052811531016805691e-01 4.293346033243019555e-01
-6.199091183576584813e-02 -9.146693832891503173e-02 4.222938850760224461e-01
-2.068725975126781830e-02 -1.109000944480852957e-01 4.717384887603978116e-01
-3.883700254463434698e-02 -4.842347255348008334e-02 4.354881528819894987e-01
-7.047351801503856650e-02 -9.715967175235817876e-02 4.317857907617692059e-01
-8.891425185418656840e-02 -9.219437151245889195e-02 4.584468353855616907e-01
-4.390386037983594336e-02 -1.172773797810484353e-01 4.971517053887754556e-01
-8.000541540556065090e-02 -1.041493722780982567e-01 4.472016166268255599e-01
-4.145720079231429711e-02 -3.232413497073459430e-02 4.361581099205168455e-01
-2.799874157779541975e-03 -1.202636959497920960e-01 4.858426447587966823e-01
-4.656884655167050496e-02 -8.239378679993550336e-02 4.294146622221065579e-01
-4.425184078466315452e-02 -9.437428560717772696e-02 4.377619372264112685e-01
-3.207370122798684081e-02 -1.011519413008201418e-01 4.555178717494399177e-01
-4.439894955311882163e-02 -6.902421739653101518e-02 4.321767509069103230e-01
-2.817484028315544661e-02 -3.551610057783148588e-02 4.386010054632721866e-01
-2.279839464743875152e-02 -1.214199277103431562e-01 5.256536948181391722e-01
-9.016787959501885996e-02 -1.069028489057121806e-01 4.587706295944186663e-01
-5.937379388612983033e-02 -1.078680574246504570e-01 4.501375549574641588e-01
-2.605597248323728715e-02 -8.350755399706946691e-02 4.413408431517349961e-01
-3.053862650465911585e-02 -9.832198473812724104e-02 4.521181935898592741e-01
-9.481146705157877594e-03 -1.250213442689483145e-01 5.262510352213453091e-01
-1.348374381347819395e-02 -9.516796763362495026e-02 4.509239261484603856e-01
-2.422463783389806197e-02 -1.092240889975432533e-01 4.693712369966495657e-01
-1.388159475798449172e-02 -9.884029231150293082e-02 4.539971112383605067e-01
-5.078638567430025785e-02 -3.739490118264202079e-02 4.399315795874747526e-01
-9.224476932696198950e-02 -9.979595409431199493e-02 4.562598845432851435e-01
-5.188519056173174215e-02 -7.734911340899572330e-02 4.263921370949902978e-01
-1.951075968656962312e-02 -1.197438696065961650e-01 4.945949224709806358e-01
-3.732005846258404369e-02 -1.190146013087317878e-01 5.201471265632097163e-01
-4.871581010882398283e-02 -9.865160162543862299e-02 4.299872026454436558e-01
-7.177895997834841946e-02 -1.062614780318326957e-01 4.463403531782507705e-01
-3.509414226764043937e-02 -1.183613367257378146e-01 4.981335890429117730e-01
-7.915070183654024372e-02 -9.704861778577325571e-02 4.428162431312442915e-01
-7.611878163664492769e-02 -9.643647730700934118e-02 4.397926361240906412e-01
-7.718800606091561108e-03 -1.250395483691458254e-01 5.080523377356669368e-01
-5.075766652696682424e-02 -1.163192840482945162e-01 4.941540522157428228e-01
-2.925396548437016880e-02 -1.180364232451686091e-01 4.933046970995379477e-01
-5.555368447605340404e-02 -8.267282026293640285e-02 4.245261214756497203e-01
-6.842714996853228870e-02 -1.120291338185969710e-01 4.672425777338828357e-01
-4.310277811415137023e-02 -3.872074670603728452e-02 4.357939861277632110e-01
6.581575552560815778e-03 -1.266207364391196133e-01 5.119493952737708131e-01
2.847105103374507687e-04 -1.250278257196314191e-01 5.016311688929666612e-01
-7.337406061754060682e-02 -9.461672575451658684e-02 4.361064157972368571e-01
6.511653896174034346e-04 -1.153146565775184373e-01 4.750435646495146935e-01
-3.120579933847860213e-02 -1.189193155464675078e-01 4.980087617420037027e-01
-6.261657804572869079e-02 -1.157109238963957287e-01 5.129238577317271064e-01
-5.256218554648242614e-02 -1.075077093809142653e-01 4.546872829118731030e-01
-3.115693211126514123e-02 -1.156183404073614501e-01 4.857840630205547683e-01
-1.334341946693098219e-02 -6.022308655172192715e-02 4.386586671788084146e-01
-5.260361238614046087e-02 -8.527833859802148864e-02 4.240277787307183965e-01
-4.048620595729966742e-02 -1.113232304675013107e-01 4.741749205398837486e-01
-3.234501559679391763e-02 -4.366237152629949547e-02 4.375816883296378967e-01
-1.955212063526876390e-02 -1.214930184309154365e-01 5.344679911452385745e-01
-2.533946409678232772e-02 -4.001970581748729577e-02 4.392336460618729843e-01
-4.908961637144931139e-02 -1.033807221113628577e-01 4.425299403357166317e-01
-1.110635609459560691e-02 -1.221746887244677809e-01 4.960985702860812308e-01
-4.312847578299228157e-02 -5.154832772977301081e-02 4.349080395768124552e-01
2.330575075918429190e-03 -1.270104514283970643e-01 5.140180960796294496e-01
-5.091210175399053101e-02 -4.200213547516751245e-02 4.405685790028592841e-01
-8.029875954458073894e-02 -1.139516364089685763e-01 4.894591425296028198e-01
-7.926974005361460407e-02 -1.092784495750313140e-01 4.577540922072554364e-01
-7.193132722704750903e-02 -1.139056490399811827e-01 4.801049094802114503e-01
-4.427075184221952037e-02 -3.857816518157086011e-02 4.359398809703104449e-01
6.361811771799399766e-04 -1.171941726839046544e-01 4.784871441052496177e-01
-4.628942743654391144e-03 -1.134066396061476634e-01 4.715816093755520466e-01
-2.022449949894331717e-02 -1.224378675517354825e-01 5.183849943608113131e-01
-1.590968278727331042e-02 -7.513907750302209476e-02 4.407922457536666561e-01
-5.461682583093904059e-02 -9.843395032562560210e-02 4.216604767858971869e-01
-4.016108807212469961e-02 -1.183087879278895554e-01 5.045124917399562703e-01
-8.245810910416319361e-02 -1.031496126147851550e-01 4.492321526945202703e-01
-1.012340878759064727e-01 -1.066296111506198352e-01 4.734315557385935236e-01
-3.410687128731947071e-02 -1.040373664452636238e-01 4.595765672241995392e-01
-6.270746254265996411e-02 -1.067842853276037979e-01 4.318806282142152453e-01
-5.182217573884502493e-02 -6.305375202533661239e-02 4.312041424990073479e-01
-1.393766974327391960e-02 -1.037473139292866831e-01 4.584791814751162931e-01
-1.704577110832102352e-02 -1.113381266191465907e-01 4.713256068422463918e-01
-1.144365817825923268e-02 -1.085207211620782403e-01 4.643168203473496125e-01
-5.603566351888064623e-02 -7.759161919633790483e-02 4.271590907870016496e-01
-7.946515582809363099e-02 -1.128954818214240180e-01 4.704026377199095332e-01
-9.008593754823543409e-02 -1.029853467619845364e-01 4.553380750135800903e-01
-1.169077555008214177e-02 -9.800119654471707575e-02 4.534296045113573315e-01
-5.717495249355913044e-03 -7.484919000557456459e-02 4.428291608154731884e-01
-8.057567529651486760e-02 -1.139011605969308533e-01 4.845338837293042267e-01
-2.436788143420286212e-02 -8.798472985581656802e-02 4.440644855460852414e-01
-7.044979982062503365e-02 -1.151611408271117909e-01 4.996700549551449932e-01
-9.203402956998338325e-02 -1.120610431414105074e-01 4.780713456087560820e-01
-4.065871471989548902e-02 -1.047687542071729927e-01 4.568888719310709723e-01
-7.407224996487539459e-02 -1.146216902713738106e-01 4.985703354773822760e-01
-6.985744246247334310e-02 -1.150119980341980097e-01 4.941803635988134547e-01
1.652518226264744743e-04 -1.265473061685288558e-01 5.092609385838738900e-01
2.131446826636217758e-03 -1.238814838582902589e-01 4.970579744071667028e-01
-7.606175095445794065e-02 -1.136810794863256646e-01 4.766218289277667219e-01
3.255901773753327316e-03 -1.263902721410479768e-01 5.083459833186526611e-01
-1.146414526773404177e-02 -1.033206664735228236e-01 4.581778833971603682e-01
-4.487712258592609776e-02 -1.101184779133349001e-01 4.670020431554269269e-01
-5.185080256144907612e-02 -1.126880281995721877e-01 4.745475754447023853e-01
-3.859190467560891236e-02 -8.251788222337148870e-02 4.356982199724309668e-01
-4.061584600998856959e-02 -1.169707708318935280e-01 4.930488938159523493e-01
-2.883100086970684720e-02 -9.927045660970652829e-02 4.538627179388405875e-01
-4.044339880984002683e-02 -1.010945271834031156e-01 4.502628965600788957e-01
-1.060351411234777309e-03 -1.122230817761049187e-01 4.698641053981911786e-01
-2.326280119264773419e-02 -7.145596805663885498e-02 4.388844518615249157e-01
-4.941084303014176005e-02 -1.173660158914374835e-01 5.090909394553196909e-01
9.504383812850313029e-03 -1.269264887395764041e-01 5.327810826606688144e-01
2.640595201290818570e-03 -1.265636425849197000e-01 5.319156473848370981e-01
-6.197310706443645567e-02 -1.088942744414325703e-01 4.554040012698963857e-01
-8.472636677550474463e-04 -1.195934165441206731e-01 4.841365075143821972e-01
-2.892043314378731078e-02 -1.161431321831116886e-01 4.869939448545935745e-01
-1.042260730273210506e-01 -1.064873080551162476e-01 4.835200208891158313e-01
-9.751680353315026958e-03 -6.541089715894782275e-02 4.397125416248390817e-01
-1.114586887719523287e-02 -6.890562616867426660e-02 4.402619111167059285e-01
-4.310827259113763493e-02 -1.112324451134915904e-01 4.725398277240028810e-01
-3.919734589245651296e-02 -1.188219109187885342e-01 5.170321183774275742e-01
-6.223685931601381088e-02 -1.072149370495828202e-01 4.364793890359723871e-01
-3.821525514529536260e-02 -1.118396566894776928e-01 4.761424178359648929e-01
-6.795833984274819717e-02 -1.138867162946471806e-01 5.169102551271226309e-01
-3.730167598319042432e-02 -1.187586470242776721e-01 5.046414430056380684e-01
-9.966563119448122732e-02 -1.091888781766383737e-01 4.974687593831922383e-01
-3.403116861019286898e-02 -1.178223933389088013e-01 5.365305287499260167e-01
-4.392374763675475219e-02 -7.189495352264806127e-02 4.323170704521074881e-01
-8.954847981635652432e-02 -1.105298546039361063e-01 4.669885481589924336e-01
-3.465253216221001603e-02 -9.599846446349104279e-02 4.474935000119441564e-01
-7.131529604334715944e-02 -1.002076714477450059e-01 4.341085664399819688e-01
-8.118958541353065578e-03 -1.245320737099921693e-01 5.310823590572375519e-01
-5.864014221763420853e-03 -1.258859491798461350e-01 5.251024955679255424e-01
-4.781445875230723452e-02 -1.168202094153727721e-01 5.237215468988362099e-01
-7.587770731391409174e-02 -1.106639688370191638e-01 4.605817415247219215e-01
-4.633045935971422807e-02 -1.169495203605811079e-01 4.960502341911374180e-01
-8.129264062703332738e-02 -1.121556627663519851e-01 5.079514274897267700e-01
-9.523542147847192940e-02 -1.017206140411840154e-01 4.582725550229069800e-01
-6.699137872329972987e-02 -9.529841709942371564e-02 4.272576219195846625e-01
-3.032114271262673078e-02 -1.033571670316095481e-01 4.598015298148356855e-01
-8.904767839488758607e-02 -9.038076277142456649e-02 4.608977376443976759e-01
-6.113612826241767578e-02 -1.149421889152443116e-01 5.191552495384167409e-01
-5.154920541402967932e-02 -1.108769845388457992e-01 4.660618666460438764e-01
-3.779518499352950422e-02 -1.191181630332843050e-01 5.134900642589661501e-01
-9.207000757373076660e-02 -1.125037947278457462e-01 4.905254398928791115e-01
-7.717523584454048791e-02 -1.142904232588892732e-01 4.931950454172004950e-01
-2.145647794415811438e-02 -1.071648390320816269e-01 4.647219863763312753e-01
-1.208652706117609339e-02 -1.239014554111584898e-01 5.311793176361412350e-01
-4.699070946385595221e-02 -1.177190318578351519e-01 5.100348226247116701e-01
-1.883903134981302838e-02 -1.223837483835923806e-01 5.065209605950310445e-01
-1.439152179391555222e-02 -1.237086516755507987e-01 5.249284108643160751e-01
-5.552719160252830161e-02 -1.008105145411851145e-01 4.214379898570414507e-01
7.800286104389075534e-03 -1.227975737203641088e-01 4.955830857205939521e-01
-6.702355056458632332e-02 -1.142208352911128488e-01 5.164210382850806802e-01
-1.019682009725322580e-01 -1.096731548149428997e-01 4.858427712788917496e-01
-6.871083541396891259e-02 -9.797903861289036787e-02 4.281980676122413287e-01
-1.693562722440830962e-02 -1.226774676716723689e-01 5.312412292287944648e-01
-4.520081824076072063e-02 -1.032352583558129172e-01 4.492436093725077351e-01
-8.846639376317101677e-02 -1.107259285874724886e-01 5.056043629802131623e-01
-4.775944819957556736e-02 -1.033808506391776516e-01 4.454583794886416426e-01
-6.245819367347488910e-02 -1.077904742582393993e-01 4.497925107874500283e-01
-5.235963632351273156e-02 -1.163722061325722368e-01 4.949654291121964311e-01
-6.193103298284616948e-02 -1.102436368629372415e-01 4.607253820411518208e-01
-7.064625366381796501e-02 -1.147059192090469776e-01 4.907909274182177817e-01
-1.595343203199245039e-02 -1.237023014913493230e-01 5.156266120336228109e-01
-4.885030840304648014e-02 -9.693876915156032781e-02 4.280055114368423452e-01
-5.845894901633514468e-02 -9.740296142695709092e-02 4.192012884099332037e-01
-8.883809766963075838e-02 -1.087670387302681202e-01 4.608728319731223433e-01
-1.320116029171967617e-02 -1.036985552309434566e-01 4.584645658103093102e-01
-9.305541487810380097e-02 -9.418628956002590702e-02 4.619094431737262307e-01
-7.421498203910645297e-02 -1.055303029978473806e-01 4.459343330543101280e-01
-5.175949523390657725e-02 -1.039968233682616039e-01 4.342305242918866881e-01
-3.614981366678733654e-02 -1.146674529682917970e-01 4.843362511315703611e-01
-4.851303731511216744e-02 -1.117241128432328590e-01 4.709545408700568925e-01
-3.242138513168047603e-02 -1.148528837076806530e-01 4.837327133654852340e-01
-2.806076277984603101e-02 -6.782018906880776798e-02 4.375347908549685472e-01
-3.732265772301365803e-02 -7.821050635412317431e-02 4.355358308027899028e-01
-2.848843340885904782e-03 -9.197303450023368299e-02 4.504551923097101507e-01
-1.787894348401273918e-04 -1.260881404584496546e-01 5.066992228173855528e-01
-3.156593463741688005e-02 -1.110319428903224076e-01 4.734106655870207736e-01
-3.652259938585469823e-02 -1.145640756802172033e-01 4.841415073995015694e-01
-9.927625737829226527e-02 -1.072232807138345789e-01 4.696841027045715045e-01
-5.250882638280303383e-02 -1.062915035339296044e-01 4.481954468011388193e-01
-7.709029270304547897e-03 -1.257419455810527831e-01 5.136140774725651559e-01
-6.808362378317797670e-02 -1.068614260921496584e-01 4.469201022781170152e-01
-1.944586328413958759e-02 -4.515284076492553922e-02 4.389165628644358108e-01
-1.834832153886921044e-02 -7.002078838925895887e-02 4.395744228526010100e-01
-1.488262077024589750e-02 -1.076369221084300387e-01 4.638502704662985643e-01
-2.022085959736729874e-02 -1.218491695001880787e-01 5.292031901484351986e-01
-7.383528186190184417e-02 -1.131806901620025646e-01 4.726650212783183314e-01
-2.179017146678766462e-03 -1.264257528247009488e-01 5.282114794532379864e-01
-8.146276460391280172e-02 -8.984480965978265676e-02 4.498325115950967956e-01
-6.505577428567067833e-02 -1.139763203290414667e-01 4.810378725834075220e-01
-7.448509447439334574e-02 -1.105316892426170122e-01 4.599285030032951305e-01
-4.018682555834748177e-02 -8.258954805606771865e-02 4.345387737920748394e-01
-2.261859215111840238e-02 -1.192553214338256534e-01 4.951914781912835628e-01
-6.748607138678695827e-02 -1.116860858322981931e-01 4.654468885403705847e-01
-6.702912367473033706e-02 -1.103878745348033236e-01 4.588704847058156511e-01
2.223179041336308115e-03 -1.208200600864392377e-01 4.878131910375427815e-01
-1.614126221287807278e-02 -8.574733507785464726e-02 4.445452140171688993e-01
-3.615407160874202497e-02 -5.074509307203516062e-02 4.358427976099019663e-01
-6.317238884531110876e-02 -1.066534998587366084e-01 4.286965080766693137e-01
-3.457802353197922396e-02 -1.195031203683741550e-01 5.188067605625541479e-01
-5.985228667207606601e-02 -1.108457289946750551e-01 4.638367250511485351e-01
-3.212826032743898441e-02 -8.038090415473606032e-02 4.381935394126066363e-01
-3.268215526664138698e-02 -1.198730646964926982e-01 5.109445445888660675e-01
-2.141334415707901381e-02 -1.115914253965386849e-01 4.733899671200276216e-01
-8.035710967434858687e-02 -1.127371271879665376e-01 5.060003040779416095e-01
-1.893670674989605257e-02 -8.274988323495149900e-02 4.427241832919134867e-01
-2.575578614325460536e-02 -1.059541646085912781e-01 4.641045338199255577e-01
-1.480284857715969760e-03 -1.265515994045963988e-01 5.118407976373842150e-01
-3.504001818741958596e-02 -8.601488331693551981e-02 4.392450363560884696e-01
-3.234335307779216684e-02 -1.123879094583597332e-01 4.764933215527740185e-01
-4.789908320516934881e-02 -4.847422873915059605e-02 4.356411438534855129e-01
5.650045773324148014e-03 -1.272843872788363140e-01 5.236698058754040153e-01
-7.876166556410417463e-02 -8.993462240019294007e-02 4.461402084794296452e-01
-6.696108211336071481e-02 -9.921393900682484723e-02 4.268453990799337960e-01
-8.988391289050221000e-02 -1.120198975099922500e-01 4.995638150858081605e-01
-1.321381462840210894e-02 -1.177457257854095940e-01 4.826528633374435051e-01
-9.051012934546208422e-02 -9.809098542921247665e-02 4.551787963029610418e-01
-4.787872182988374414e-02 -1.122210223578645055e-01 4.735328829237370751e-01
-7.469138797066374180e-02 -1.044727426765536815e-01 4.439025032022911876e-01
-3.654049065087996984e-03 -9.464650107732330842e-02 4.521276571027892377e-01
-3.330453113916462954e-02 -1.153903776104723833e-01 4.857006609627927407e-01
-1.459576564613684381e-02 -1.225121304587919874e-01 5.016376072941168829e-01
-6.773537939665486007e-02 -9.939928870197789479e-02 4.278783738379169921e-01
-1.599005586029786721e-02 -1.237210437636870192e-01 5.116536743491801875e-01
-1.826742842931364935e-02 -1.180864369987494056e-01 4.877020792672062677e-01
-6.001128856395648165e-02 -1.070338576782715323e-01 4.467699781570680928e-01
4.848675827737562727e-03 -1.250297146984979124e-01 5.021649511862400495e-01
-7.953291147341909340e-02 -1.110672268785884292e-01 5.141317214727189056e-01
-4.413166818734283459e-02 -4.533058529101181150e-02 4.354070199840882616e-01
-9.207963043308679818e-02 -1.125665002244617546e-01 4.887701959484382352e-01
-2.333089355337153101e-02 -1.214251138068936364e-01 5.227474143515477012e-01
-1.035607005769703520e-01 -1.083545762362116416e-01 4.917164648129554450e-01
-2.825175381528977070e-02 -1.064190208319098357e-01 4.655613726322871959e-01
-2.034751700651567588e-02 -1.208373363068089429e-01 5.367170308937090351e-01
-4.947743209470430864e-02 -1.159327333315412628e-01 5.264449485630091630e-01
-2.999516356304117101e-02 -1.163833119837902191e-01 4.880192165556860306e-01
-1.968901928174170840e-02 -1.207621880068432130e-01 5.380447039329241399e-01
-8.201356093585519813e-02 -1.131747917700644812e-01 5.011925649624042745e-01
-5.336358072417354131e-02 -1.124242460524554066e-01 4.719993891047247758e-01
