-1.708524965229041293e-02 -1.027304342001479909e-01 4.591019334608170133e-01
-4.786777558316276764e-03 -1.241746496343140715e-01 5.017106313247411409e-01
-3.128029583431069655e-02 -5.377282852435642801e-02 4.376589629026486072e-01
-6.449811733971615169e-02 -1.140691928115616927e-01 4.949766815642045459e-01
-6.589557276694210305e-03 -1.253369159499845564e-01 5.103291819019448727e-01
-4.711422132796005968e-02 -1.109395243034966699e-01 4.750187237718976885e-01
-5.349960602954170058e-02 -9.436475503095281825e-02 4.260074391495330959e-01
-4.760433808577010234e-02 -5.730710885596394105e-02 4.345136440350811369e-01
1.504223943288430371e-02 -1.258365028783930140e-01 5.358258604959158511e-01
-9.866880682343981412e-02 -9.864726940433622693e-02 4.637448039384105547e-01
-1.830688742010036854e-02 -1.224226016725732530e-01 5.085660269631983033e-01
-1.722699292047813469e-02 -6.228139343537857781e-02 4.391362756335192019e-01
-4.465644427789292048e-02 -9.450056711044577118e-02 4.416275035042663832e-01
-7.499914782925652668e-02 -1.132058453835632778e-01 5.023641617871589249e-01
-8.148481145137190240e-02 -1.068343429728952354e-01 4.588185028907690310e-01
-5.323219887258655303e-02 -1.140614737766888209e-01 5.281770715247853243e-01
-4.799534060573440453e-02 -1.018844646035456797e-01 4.491389722580195198e-01
-3.922980845066539185e-02 -1.144251917393364903e-01 4.875612637780304404e-01
1.112120182462543461e-02 -1.269306402043911541e-01 5.327265423353674256e-01
-9.542646500170877399e-02 -1.098679200051007193e-01 4.820024578900754531e-01
-8.763592542671090613e-02 -1.118653038053689930e-01 4.914189060068850368e-01
-1.147054658804124751e-03 -1.212138498116974161e-01 4.903369327489190410e-01
-3.786211304829824320e-02 -1.046929490162068627e-01 4.620800873544978482e-01
-5.828925835249629955e-02 -1.153988702504356867e-01 5.049557086805952499e-01
-1.959530389670224512e-02 -1.218555773962097938e-01 5.280342852612400772e-01
-3.438068724566929746e-02 -1.028285158211440231e-01 4.604592819646543544e-01
-1.068238966008208252e-01 -1.007000051400521595e-01 4.823190183025778954e-01
-1.791217223321128413e-02 -1.224855299106247797e-01 5.256736674706430357e-01
-4.054709116086295528e-02 -1.078071749136971652e-01 4.671921600638874184e-01
-4.347104383638057679e-02 -1.083690796803739448e-01 4.675854607573050603e-01
-5.672226021132113077e-02 -7.823187527606466352e-02 4.270815713066662411e-01
-7.252278070222380885e-03 -8.913948383332487291e-02 4.487079743677294674e-01
-2.618176914013219808e-02 -1.138483363261183767e-01 4.812541083181727242e-01
5.079476991269096624e-03 -1.240955275444514810e-01 5.001348410221045926e-01
-6.972128724683357426e-02 -9.740975540583726722e-02 4.313955095619552149e-01
-6.403640219428491376e-02 -1.126432072098117326e-01 4.828697856110947262e-01
3.290955758461804135e-03 -9.804404125417624793e-02 4.567575356224082839e-01
-1.011622514656918548e-01 -1.062880238015642548e-01 5.018188950954154404e-01
-4.768915683780723669e-02 -1.080622120783782808e-01 4.643330007825437478e-01
-8.332447842026154128e-02 -9.419428917993842576e-02 4.483570244809149119e-01
-7.454359681176772612e-02 -1.104896910494620327e-01 4.690726418308560630e-01
-2.797863379648828433e-02 -7.152423696500750938e-02 4.387446754919669956e-01
-1.871087335807097157e-02 -4.159382459229152978e-02 4.388668827844727227e-01
-3.117224110667947065e-02 -3.734829419546436408e-02 4.382544476507898024e-01
-4.249021965212625151e-02 -9.467401789137588897e-02 4.441556565406521995e-01
-6.728697683255514296e-03 -9.752817537513533419e-02 4.548213401295551628e-01
-2.082525000662283771e-02 -7.753595527248795249e-02 4.416611597032352177e-01
-3.655534329192546700e-02 -1.181031255166128113e-01 5.029638303409166289e-01
-7.556475318989210044e-02 -1.131362223219825186e-01 5.012567380710847287e-01
-5.529323369020616025e-02 -1.140884469010606389e-01 4.886565998660411525e-01
-7.910985361443891029e-02 -1.057764876694199108e-01 4.550300657766445100e-01
-8.270471495908181259e-02 -1.103624480895080417e-01 5.102827566600069975e-01
-4.475768618802176274e-02 -6.302928108588352896e-02 4.339359875540104716e-01
-4.817111332132797963e-02 -4.282424467237974652e-02 4.370106439207309124e-01
-8.514001526220087157e-02 -1.118689508731968152e-01 4.958583214629350144e-01
-2.068787585132258328e-02 -9.913209683959979535e-02 4.567585731523335912e-01
-4.297246370104965130e-02 -9.937159055544933506e-02 4.491430268821173799e-01
8.547501083789861651e-04 -1.248942343566639551e-01 5.018889598767408700e-01
-1.605757098024839999e-02 -1.113341346466713982e-01 4.720676818192656166e-01
-3.454663904733566021e-02 -1.007578868730174271e-01 4.571879156748189788e-01
-3.630537856987438305e-02 -8.763648795018703919e-02 4.421623387197067823e-01
-5.952855923449351661e-02 -1.148642722967107566e-01 4.983157706416773691e-01
-4.648013223504273567e-02 -1.170371175775860584e-01 5.099265462101296720e-01
-3.961266823317754343e-02 -3.309811681122343252e-02 4.365080707631863732e-01
-5.531812184826239570e-02 -1.156347434596057822e-01 5.183774069416242636e-01
-5.916255470748602030e-02 -1.072316663841628853e-01 4.585023308169740575e-01
-2.446154740556147344e-02 -5.398989407719578110e-02 4.383223577200442977e-01
-7.589515104655911171e-02 -1.106790133910603297e-01 5.187901101262425430e-01
-6.882745433881706787e-02 -1.141874910155524642e-01 5.059612096935339753e-01
-4.063490766671462584e-02 -9.402888324419875210e-02 4.451011632990104494e-01
-5.186711391111722969e-02 -5.090436934244366163e-02 4.361483326861205212e-01
-1.415558492175715208e-02 -9.807928779358768279e-02 4.544771573832370737e-01
-8.202512803922340501e-02 -8.901663436894374781e-02 4.494405251834584503e-01
-9.861378833128668642e-02 -1.092817506171620406e-01 4.945840611348697458e-01
-3.858382692374851680e-02 -1.086805832045908971e-01 4.705687924935222921e-01
-1.484590627461731746e-02 -8.339699872865204144e-02 4.448666992014925770e-01
-5.488562956478825611e-03 -1.257917331978295472e-01 5.255151655288603507e-01
-3.529331696929944445e-02 -1.185297601502358772e-01 5.255295008467489870e-01
-7.334094206630110968e-02 -1.101262669612135675e-01 5.228313034267634274e-01
-5.828674535528814010e-02 -1.110771504328688791e-01 4.720918574130613665e-01
-5.934922684275868721e-02 -1.140906019806913335e-01 4.911739388643437398e-01
-3.009725180097318556e-02 -1.192804767424647666e-01 5.034079220967681012e-01
-2.041125177320269116e-02 -6.842529427752773452e-02 4.397572670518500315e-01
-3.719906121077906636e-02 -3.223102896974268383e-02 4.368780620207710630e-01
-4.173927861552535062e-02 -5.865872920092148751e-02 4.355191597745596832e-01
-4.611923470794549590e-02 -6.985606056439566669e-02 4.326290621121626767e-01
-5.270721105181352256e-02 -1.142958846533722733e-01 4.889682384604123189e-01
-5.583388318975040718e-03 -1.206361224668288379e-01 4.892590971023079716e-01
-1.308308907722681089e-03 -1.239946487233109795e-01 4.991244794717715760e-01
-4.691486409824809078e-02 -3.602978539856317719e-02 4.373779137497479930e-01
-6.442960516590549858e-02 -1.040720025676284688e-01 4.366437310161741525e-01
-3.156056787338833158e-02 -1.026572865347416957e-01 4.609934367850120340e-01
-6.830141171089222640e-02 -1.047588300471528483e-01 4.482648716953178680e-01
-1.190431559293526464e-03 -1.229428207394279021e-01 4.955784437110848373e-01
-2.343934037671000642e-02 -1.208192418118107098e-01 5.289475381225778872e-01
-8.107419251827985285e-02 -1.123151071256820038e-01 4.857222172383930947e-01
7.226143549436211781e-03 -1.270984734611084188e-01 5.278476555632425349e-01
-5.060545352555932686e-02 -7.272871107693255899e-02 4.296276355064157504e-01
-2.372853203132383251e-02 -9.746757702321209860e-02 4.550373275288892017e-01
-7.953218592567667944e-02 -1.099243705995129605e-01 5.162035885576509164e-01
-4.735459525189376212e-02 -9.493369032203693991e-02 4.372689026683300728e-01
-1.384617172891693636e-02 -1.235987846709963728e-01 5.273936006940767030e-01
-5.715919701847388401e-02 -1.068235300786901654e-01 4.577572060317702807e-01
-5.604956586563043797e-02 -1.104839429332832995e-01 4.702294557940577824e-01
3.802992130664791318e-04 -1.104421597290207863e-01 4.683520874403938050e-01
-1.003847729013895157e-01 -1.006439758917312965e-01 4.671824299604377950e-01
-7.005352693936256481e-02 -1.052153482967389531e-01 4.503710769069870223e-01
-3.792077544194544236e-02 -1.166663953739698056e-01 4.954122845314249401e-01
-4.171038802231014780e-02 -5.018663249339242599e-02 4.357575208077753559e-01
-3.019700482733585212e-02 -1.190599820483139171e-01 5.015444275789022743e-01
-6.271667731103104659e-02 -1.079405553326018563e-01 4.602575143736055141e-01
-5.036664888691187725e-02 -2.580800960386517989e-02 4.392725766581730973e-01
-9.596489367102314927e-02 -1.097002878263400316e-01 4.982904349766673624e-01
-9.272883350935319513e-02 -9.151024450535118204e-02 4.623821729519537183e-01
-3.015437334761651711e-02 -8.871227505321011009e-02 4.446314157688365243e-01
-1.857724915449866093e-02 -1.227822256993057332e-01 5.124173877404261113e-01
-3.029520579607149211e-02 -1.196379956110720927e-01 5.216485878111229990e-01
-2.941172170569856560e-03 -1.265324727643699909e-01 5.198874842978460364e-01
-2.094518356598041794e-02 -7.216746293215758890e-02 4.402863543499253574e-01
-3.948495814666004577e-03 -1.089454939945624923e-01 4.661440601852754329e-01
-6.908755344577362234e-02 -1.043427975760410215e-01 4.469284960957640163e-01
-9.715531949739526774e-02 -1.021188425684020074e-01 4.620467402443584892e-01
-3.030881632155396979e-02 -8.659552618530566570e-02 4.431605869804016162e-01
-3.242357265193817478e-02 -8.387698408734062250e-02 4.412363136097336436e-01
-5.931183993012606459e-02 -1.029393833837280725e-01 4.306546230121722219e-01
-9.404171937057738059e-03 -1.248458265444366277e-01 5.272901077845687512e-01
-6.892247923037268797e-02 -8.649956396399395564e-02 4.338918773490355041e-01
-1.765139190046594031e-02 -1.223333551453677781e-01 5.300718641300636857e-01
-4.041403163900216672e-02 -1.159587284861654105e-01 4.930235667322008242e-01
-3.861914148696546367e-02 -7.588838928043123433e-02 4.362745347761841086e-01
-8.281301088347782502e-02 -1.099602312635893503e-01 5.113313915538109100e-01
-8.924567932514174823e-04 -1.083221574918482449e-01 4.656930900365297554e-01
-4.764967245600346818e-02 -4.933017019011851079e-02 4.358211460179640118e-01
-5.064547205362455312e-02 -6.171924491401795804e-02 4.326276052492276647e-01
-1.352075042617241485e-02 -7.833176154137663771e-02 4.430641335301775952e-01
-3.593245652263365314e-02 -8.566409671528846248e-02 4.409172398259241787e-01
-8.842405283147607153e-03 -1.187396006818862704e-01 4.843406106800696720e-01
-6.487159988297394597e-02 -1.119094702633955107e-01 4.771276998595361807e-01
-5.437747004120007006e-03 -1.252488119176259629e-01 5.078591856154035522e-01
-4.073048319423307889e-02 -2.727275891089149876e-02 4.368953468703091203e-01
-9.598545007358728898e-02 -1.081753668621108500e-01 4.734798464035781529e-01
-1.007621921902161766e-02 -1.242270904029064427e-01 5.307804340487355388e-01
-8.752090297122860907e-02 -1.079611524935370215e-01 4.652205052807233399e-01
-8.389011130081529266e-02 -9.393201837200372550e-02 4.492269924296186656e-01
-1.912473121417374369e-02 -6.885334078870584962e-02 4.400065541549134096e-01
-1.940942160068281214e-02 -6.249557237657985681e-02 4.389626218429764637e-01
-6.700539774837110940e-02 -8.840557060922911436e-02 4.294613455737891217e-01
-8.155042791398239843e-02 -9.018335791498549581e-02 4.482864865891340589e-01
-1.003291349691451811e-01 -1.088391392164209936e-01 4.938899314343836999e-01
-6.123990124619905356e-02 -1.088333431952026725e-01 4.637687635429620925e-01
-3.796786536092894293e-02 -9.916602391778069070e-02 4.534105296936125074e-01
-2.335735192268150254e-02 -1.212508643105704442e-01 5.201335916419217442e-01
-1.424565995668782351e-02 -1.235918694505278581e-01 5.240631638194848119e-01
-4.108008051187309745e-02 -4.071080965516141181e-02 4.360985113827074433e-01
-6.206015231924374986e-02 -1.104903608434487788e-01 4.699216920286410359e-01
-2.864426900084121597e-02 -4.054551131435109312e-02 4.389539915300833539e-01
-3.514190321905628217e-02 -1.134917382134136149e-01 4.834316662849822421e-01
-5.154714760370400495e-02 -3.372445873215784706e-02 4.438511118274623968e-01
5.564309754264317592e-03 -1.270138695242119808e-01 5.269937152616442910e-01
-9.954068174541357006e-03 -1.084190630531837451e-01 4.652675387604783830e-01
-7.806075028929476689e-02 -1.128109603705530761e-01 4.934866667617059943e-01
-1.043950910387757697e-01 -1.055351809815722325e-01 4.849855974956424065e-01
-5.803659831507116534e-02 -1.048137343462030857e-01 4.451254580837905039e-01
-1.840482401858436340e-03 -1.260484733133345192e-01 5.094761841282212655e-01
-1.872747706885897340e-02 -1.156881978542341344e-01 4.828388989692504185e-01
-5.613072896346391755e-02 -1.155247521245891668e-01 5.183312931554688863e-01
-2.824610741825567088e-04 -1.189911176736582060e-01 4.839165962279788902e-01
-2.137973172324523358e-02 -1.017417676590816333e-01 4.595299921511134533e-01
-2.190051917804297643e-02 -6.603019013419021699e-02 4.391136502645581752e-01
-6.465731725107234928e-02 -1.073039005676370561e-01 4.574742988672032551e-01
-1.021466860668696075e-01 -1.077679296169700568e-01 4.855411966344294616e-01
-2.899376515150182271e-02 -3.426488131492961414e-02 4.386240336080720059e-01
-7.373190396583408079e-02 -1.106997455583658141e-01 4.703100316593651908e-01
-7.532471289091416389e-02 -1.070036874113834136e-01 4.564386538889507738e-01
-7.941435909300006979e-02 -1.125412502748251997e-01 4.985883818534844747e-01
-9.200507316500286525e-02 -1.040631822255350530e-01 4.600604412856910130e-01
-3.431470264577816953e-02 -1.191002648675077158e-01 5.184840743107729244e-01
-6.164896819404779710e-02 -1.142595154970493937e-01 5.192126628428473945e-01
-1.062128870809879444e-02 -1.179767532567755767e-01 4.829228571269833514e-01
-3.682340303349239050e-03 -1.259708094778461129e-01 5.115650546698905510e-01
-5.155546319624391624e-03 -1.126509946407545232e-01 4.714875659074049818e-01
-5.930165176731427845e-02 -1.071924985718827605e-01 4.583400903691404182e-01
-2.448563536414397751e-02 -1.035104348858560397e-01 4.622736067856071385e-01
-8.476891811151006373e-02 -1.000521594697256350e-01 4.514340171004772584e-01
-9.810907680622277249e-02 -1.094321980706973729e-01 4.853042099845936153e-01
-1.032444776546051074e-01 -1.038475340251580892e-01 4.764757978807746541e-01
-4.469554364053716922e-02 -9.034037498729535764e-02 4.362385625600795347e-01
-8.858938394148467566e-02 -9.070041809595898175e-02 4.575028878373708641e-01
-4.940034878501826932e-02 -8.292026445344244379e-02 4.291485798890951608e-01
-2.554298994828328728e-02 -1.147646927316279125e-01 4.842914384577707843e-01
-6.068694726571113862e-02 -1.048815532321305533e-01 4.460301777759865804e-01
-5.645355671703464195e-02 -1.140616294148012050e-01 5.257095943002870753e-01
-8.964498570331964900e-02 -1.095407833703096190e-01 5.061804375114062893e-01
-9.850232689393667584e-03 -1.159338690947016304e-01 4.775369095955023235e-01
-9.461183042730166026e-02 -9.324635358220784154e-02 4.632269148730644437e-01
-4.193822145110123051e-02 -6.668918915552667082e-02 4.347566317482973175e-01
-1.341576406176722691e-02 -6.229517717406299337e-02 4.393315073117985969e-01
-4.877130630660515137e-02 -1.155360394509376831e-01 4.953944945022688007e-01
-4.887849604992448860e-02 -6.208287815620548711e-02 4.328481250337440911e-01
-5.857907692573865316e-02 -1.139288707505981685e-01 4.889912175596597965e-01
-6.801165587692672987e-02 -9.121327752091987207e-02 4.293373794644090857e-01
-1.041793262640030721e-01 -1.062901942390400006e-01 4.884908833084124491e-01
-1.263962258678463834e-03 -1.122689243923167823e-01 4.710154129031260406e-01
-6.830321252374062235e-02 -9.591391951343875011e-02 4.288324298811029278e-01
9.209247083939485837e-04 -1.271122296903428872e-01 5.232527925672606495e-01
-1.187739050585753277e-02 -8.604086021606496826e-02 4.462566246080269527e-01
-9.774867834253633814e-02 -9.646406001286331189e-02 4.644809399601493305e-01
-3.552678956735606797e-02 -1.175535817454275989e-01 4.981703830255482246e-01
-9.620450063800364826e-02 -1.046683691941371619e-01 4.636092121635937424e-01
-8.486331144209807720e-02 -1.103121578019603394e-01 5.079428808166687181e-01
-9.899666784192981406e-02 -1.029974814260252725e-01 4.659638456464753609e-01
-2.094128828483370758e-02 -1.103820265148393320e-01 4.724340014113561637e-01
-3.933334817257063548e-02 -1.102786045478981597e-01 4.755012173070418680e-01
-4.289867250943937144e-02 -1.174144417072254254e-01 5.075406781955350555e-01
-1.920184099030416286e-02 -6.106530999843826080e-02 4.388242558369245261e-01
-1.387087902131532539e-02 -1.007874781008999548e-01 4.568431848091658032e-01
-3.847346571260344770e-03 -1.262591909292092585e-01 5.148208758573336041e-01
-8.572596136868412819e-02 -1.045882095006786389e-01 4.563289556057851248e-01
-7.934113926413853546e-02 -1.114575275402739513e-01 5.101267534462284869e-01
-3.201454706531540323e-02 -9.149742446972483623e-02 4.465443184634925733e-01
-2.573900756264506026e-02 -1.202104819754450937e-01 5.300791217745340900e-01
-9.042186694509513067e-02 -8.822513925748882990e-02 4.634302348846219277e-01
-2.074337025838162915e-02 -3.943998662572169994e-02 4.390654965991113712e-01
-3.227793496512470356e-02 -3.999448997469098183e-02 4.380289436338222764e-01
-5.692354662387686531e-02 -8.469945784362233054e-02 4.250541072475083615e-01
-4.605992677137423635e-02 -1.028175160155450907e-01 4.535307731530356934e-01
-2.923906993076481192e-02 -1.198885343003184972e-01 5.209067126258236646e-01
-3.191058844958330476e-02 -8.174685901113268316e-02 4.404191939245379883e-01
-1.008660016753154531e-01 -9.557071862683116925e-02 4.700484354291570299e-01
-9.756070687397494501e-02 -1.092994458054085266e-01 4.976776762923773023e-01
-1.938661541997065488e-02 -1.201574726594378112e-01 4.975425146965506973e-01
-4.589866985236688846e-02 -3.093597922664165570e-02 4.369823647246341425e-01
-7.743418719342334139e-03 -1.255424818103804963e-01 5.139408975949704139e-01
-7.501157228198451765e-02 -1.103137122688068184e-01 4.680669053402140012e-01
-5.980431185490469453e-02 -1.152087428921636930e-01 5.151512878202305634e-01
1.401851356794761236e-03 -1.060113215912971557e-01 4.636901423200948114e-01
-3.808335729086162469e-02 -9.133172733355975070e-02 4.441458762499360668e-01
-7.310007120981498741e-02 -9.378234096794332841e-02 4.354280650846767964e-01
-4.153524892936905077e-02 -1.169821965788455098e-01 4.998869138751644847e-01
-7.810976620176275642e-02 -1.020789204345838586e-01 4.464606481717957598e-01
-6.320016868064287641e-02 -1.005258473971629291e-01 4.271124516802797810e-01
-4.782089864024410136e-02 -8.138897180959075994e-02 4.307150031228941800e-01
-4.179539575736969728e-03 -1.114621632240919979e-01 4.695728163169489711e-01
-7.040832599843306616e-02 -1.004898293208216359e-01 4.358682532430816492e-01
-5.149972622907715569e-02 -3.559910619830910367e-02 4.433108132038404148e-01
5.370449648645393703e-04 -1.202487312894873067e-01 4.873347648236259211e-01
-7.299897933736985978e-02 -9.680154761783958672e-02 4.361526136464992653e-01
-8.555859736670663740e-02 -1.119286559942989229e-01 4.866407714776365689e-01
1.078752386953810453e-03 -9.666537996345817008e-02 4.553343168970794830e-01
-4.675762485804338398e-02 -6.803406135394099441e-02 4.324426318340330866e-01
-8.523203345829807875e-02 -1.120551321764578917e-01 4.929191391164887137e-01
-9.376464957489352714e-02 -1.105811317147136069e-01 4.933914549533697236e-01
-5.392542255704231395e-03 -9.781646590042455958e-02 4.553260484795379481e-01
-6.151486484462920235e-02 -1.149144549403492144e-01 5.019348858913116329e-01
-6.602396134935278188e-03 -1.100659076619542737e-01 4.674810535231830322e-01
-8.533582631950945019e-02 -1.054584643141785738e-01 4.578002385484081227e-01
-2.536071493528778073e-02 -9.810628641391898330e-02 4.555745052982795307e-01
-2.894875435117964455e-02 -1.198937049770385926e-01 5.094135908435790672e-01
-5.074177916502491115e-02 -1.165190669352088315e-01 5.113386873559176982e-01
5.996640126096700052e-04 -1.206944464751625035e-01 4.886626682717352677e-01
-4.175159914521667931e-02 -3.981193553232245663e-02 4.361229922770079592e-01
-1.007229796148493596e-03 -9.370092410206665168e-02 4.526596301971050895e-01
-3.619324079068800964e-02 -8.203189270031728542e-02 4.392385714137355124e-01
-2.435197608548307635e-02 -1.046233120610074729e-01 4.636581286644005928e-01
-7.926595061189500857e-02 -1.088514134307461412e-01 4.636440540008863187e-01
-2.493348450472785555e-02 -1.102524676196468961e-01 4.735238120814493912e-01
-5.850502841010078899e-03 -7.594892787737912709e-02 4.437570893673167260e-01
-6.931447595770760285e-03 -7.419048871911371190e-02 4.429528465207608900e-01
-9.760198780203892255e-02 -1.024044157103109337e-01 4.630214359280191427e-01
6.838374035288515528e-03 -1.267224683636015148e-01 5.322656767673219491e-01
-6.503400328110876816e-02 -1.123345273960547896e-01 4.805379378599661244e-01
-5.045228273102120992e-02 -7.578817104888227463e-02 4.290795847482613556e-01
-9.178365912833409690e-02 -1.107634699033283043e-01 4.984939775330635148e-01
-2.681046263640641733e-02 -5.848934261649837291e-02 4.379281874010732545e-01
-2.047747595634870701e-02 -7.540507502546973939e-02 4.410656645784941654e-01
-2.080917226847768531e-02 -9.440708266218812705e-02 4.516857773488041627e-01
-1.243583849564854765e-02 -8.357899736148548253e-02 4.453343055106321335e-01
-7.299149715662145432e-02 -1.099426611663649328e-01 5.235950343721231803e-01
-4.703718104726867938e-02 -1.161264564704471980e-01 4.978359827591954945e-01
-9.553451330485639159e-02 -1.027348117017683332e-01 4.611599317478133342e-01
-1.393539370951874835e-02 -1.219665220113018977e-01 5.384890054542507132e-01
-5.890117632838239026e-02 -1.098176310649747467e-01 4.678786580784904947e-01
-6.897524274827562807e-02 -9.841293549233320892e-02 4.313368320407899303e-01
-5.450076309235468708e-02 -6.310549780819420251e-02 4.333463650154339430e-01
-1.151959928791499929e-02 -1.245689981268363333e-01 5.159477142794858251e-01
-8.706412229102954148e-02 -9.427188452847423683e-02 4.527426597951937914e-01
-5.979008211969838449e-04 -8.721195724662618443e-02 4.489509898268752019e-01
-4.867525060534617226e-02 -1.100087831657604598e-01 4.704314468690256601e-01
-2.069579429787443258e-03 -1.046024572700933741e-01 4.618227975293955345e-01
-1.289181390161126504e-02 -1.234169515046348725e-01 5.065962526704520519e-01
-3.608063736381052818e-03 -1.187748120495257242e-01 4.832054411088919643e-01
-9.590735403739014675e-02 -1.081070264513773610e-01 4.729558901520263259e-01
-1.041271441610140819e-01 -1.063613538967502076e-01 4.881410629475446128e-01
-7.485585227629350247e-02 -1.035786509213054984e-01 4.481106714644985112e-01
-2.056286831776748744e-02 -7.850044542820798499e-02 4.420138874989894551e-01
-8.848923766460456419e-02 -1.110486554574296458e-01 4.802985307205164256e-01
-2.226401485553721610e-02 -7.136206160414437782e-02 4.399331023834407439e-01
-5.788803801629578694e-02 -9.286539835762661066e-02 4.225701134146997995e-01
-7.400018956469672782e-02 -9.814490911567649856e-02 4.382631709146992960e-01
-8.274534433335315603e-03 -1.155067618336220736e-01 4.764689041620202015e-01
-2.486929639129479425e-02 -1.159052922235733751e-01 4.878220753503570428e-01
-5.419399471222294262e-02 -1.033010401571024944e-01 4.398221541772973087e-01
-5.815978102911785290e-03 -1.162055834064444071e-01 4.773674500343773608e-01
-3.658427746268418101e-02 -1.101978208908681173e-01 4.747043110251253362e-01
-8.272926284718438994e-02 -1.041126834891722697e-01 4.534138101944122368e-01
-3.767095080940540547e-02 -3.083984350331682445e-02 4.369429622132829927e-01
-4.260641886631495040e-02 -7.573019113674667180e-02 4.346414624789042280e-01
-1.552386594231839646e-02 -1.200068287562411767e-01 4.926792304950424195e-01
-2.659656860239143633e-02 -7.291219965834715155e-02 4.393005883784260046e-01
-1.882745101058668283e-02 -7.016276700309415082e-02 4.402710417529873688e-01
-8.796561512599408716e-02 -1.098576205617991242e-01 4.714523071409431609e-01
-1.934332659822906447e-02 -1.155973752130557280e-01 4.829960356841865310e-01
-7.935742240940922565e-03 -1.042322006020212077e-01 4.604846294490906322e-01
-5.081359213618411030e-02 -4.660733895120849207e-02 4.372368862244598864e-01
-3.983134259001498700e-02 -7.721615200958215075e-02 4.357441644120394475e-01
-1.614897800544352890e-02 -1.229423033910421598e-01 5.272950822150890282e-01
-1.787152518792659364e-02 -9.233350378855866014e-02 4.494290718512057303e-01
-1.612188488104174255e-02 -8.056423826093833673e-02 4.434141460878052166e-01
-7.027322841611943760e-02 -1.028836230838368060e-01 4.413926667358973321e-01
-7.233549862588053991e-02 -1.129692036935948801e-01 4.889660919513047488e-01
-5.263496609487155337e-02 -9.925590071241130463e-02 4.320164135799878236e-01
-4.262244483801563844e-02 -9.476862228930783838e-02 4.440946812419067635e-01
-7.509966572915530159e-02 -1.047121501770902768e-01 4.507110428491900578e-01
-1.403992770749276815e-02 -1.225853602114802821e-01 5.030588660480304064e-01
-8.533732385400022435e-02 -1.004964412828836112e-01 4.524972734462204271e-01
-5.887339596256373903e-02 -1.139547882917496674e-01 4.892671848139718005e-01
-1.013148313503473286e-01 -1.083991144784916677e-01 4.851560583057148435e-01
-2.640749641767792949e-02 -1.149825103634683487e-01 4.851368714048682751e-01
-3.768406026554558391e-02 -1.183719028406100410e-01 5.086806280381035439e-01
-1.890572174337870268e-02 -1.166277183870909756e-01 4.857075612388517261e-01
-8.498440754406876019e-02 -1.068710170615761040e-01 4.609470254744165718e-01
1.884438795513784619e-03 -1.250821964730928215e-01 5.027301132767627578e-01
-7.476251988522801539e-02 -1.084534527438812679e-01 4.610722178663259063e-01
-5.837556845859285387e-02 -1.089926027519626667e-01 4.651750585078707201e-01
-5.061789395792076762e-02 -1.162960569439925040e-01 5.180075935984880253e-01
-3.163621257308410484e-02 -6.427432898300873554e-02 4.376034982541852636e-01
-9.988838508270373590e-03 -8.630761244553138145e-02 4.466456753394746348e-01
-4.691185847215262328e-02 -1.108561066841748793e-01 4.747720257727680027e-01
-2.895477724689952959e-02 -1.005017409743614726e-01 4.581638767935709566e-01
-5.758084936368294826e-02 -7.988682133557353793e-02 4.267397021738263407e-01
-8.614079566069195171e-02 -1.119049143656511425e-01 4.874737329316656265e-01
-4.965067224910243993e-02 -1.138333321272104459e-01 4.858490220339569121e-01
-4.950542502862886884e-02 -1.030542337464720321e-01 4.504064471294619842e-01
-9.696210311431854856e-02 -9.909694074531712193e-02 4.612211232802298500e-01
-3.641577594758740877e-02 -4.072468303814786444e-02 4.364871257576470875e-01
-6.405916418704728221e-02 -1.044996232486136295e-01 4.376016478462068093e-01
-2.259954640017804162e-02 -5.699393241137435534e-02 4.380766352892181414e-01
-7.707718700073024065e-02 -1.127446215513925459e-01 4.897769004872222776e-01
-4.198624370920457649e-02 -1.171537375578753787e-01 5.026274361841579497e-01
4.384877311758469433e-03 -1.223250628387718003e-01 4.941993315305173162e-01
-8.413023848377934599e-02 -1.108762693495259216e-01 5.061832655945011084e-01
-9.952302367025799013e-02 -1.073708781290059477e-01 5.006886245241107813e-01
-4.046258372051120267e-02 -7.991194062719320090e-02 4.359733237795010430e-01
-6.835013252291129160e-02 -1.131732768782518078e-01 4.888293960442065544e-01
-4.459050669267538430e-02 -6.874308943907340985e-02 4.334978586011115076e-01
-4.886238432449419716e-02 -4.577173934185159443e-02 4.367688122235558468e-01
-1.447907625326811179e-02 -7.903715173449343823e-02 4.431422470038560713e-01
-5.704628309669759062e-02 -1.147176005831572893e-01 4.941178687208012121e-01
-6.134404382698330216e-02 -1.104616034650453965e-01 4.698991981252896855e-01
-8.382069654193829988e-02 -1.117544999517071508e-01 4.814244458709825980e-01
-5.963849276774639552e-02 -1.123042684130110269e-01 4.796399862188763241e-01
-2.731034849412945081e-02 -1.191855935297376351e-01 5.355025588794379843e-01
-2.993491590852035561e-02 -5.652159575418592291e-02 4.377379719921895007e-01
-4.231500013673489442e-03 -1.141613109203685195e-01 4.737856119001075950e-01
-3.507675941968554922e-02 -1.162621992457716497e-01 4.920613444733968889e-01
-9.763710303989417416e-02 -9.613889411167689247e-02 4.646305475491780412e-01
-4.677605514527686387e-02 -4.658854772253075843e-02 4.360030360757152779e-01
-5.481401626432318847e-02 -1.160977926041582287e-01 5.102479470368315173e-01
-8.320965278704571533e-02 -1.035524794334953536e-01 4.529678787473504498e-01
-4.925648771329215261e-03 -1.077897259579051331e-01 4.646611454559437249e-01
-3.650465992815547789e-02 -9.087179627116100111e-02 4.448546369686470769e-01
-4.092925618008368301e-03 -1.188493237173801065e-01 4.833838570499601750e-01
-1.016720700268862049e-01 -1.035406633410623223e-01 4.721419924688545766e-01
-8.493934230718373779e-02 -1.106956320152482631e-01 5.059172166715563135e-01
-5.992711302706003017e-03 -1.252770884579297028e-01 5.292816034919243240e-01
-3.205757878686241874e-02 -3.333320965201096164e-02 4.375654510312949053e-01
-5.471853898503019342e-02 -1.091997132658226455e-01 4.661354707757957572e-01
-1.597039576112615697e-02 -1.207713470989323495e-01 5.417016687860312096e-01
-9.308098419555146941e-02 -1.096304621066625240e-01 4.757651469236522379e-01
-2.130254753966471029e-02 -1.196486972203938265e-01 5.407405567108445332e-01
7.026587864836845304e-03 -1.231912549873599855e-01 4.978582543509993963e-01
-2.635652855766952227e-02 -1.204229173147607912e-01 5.234594306807529573e-01
-4.870818711586565042e-02 -1.167139442330967919e-01 5.155004307954159648e-01
3.221517582112961697e-03 -1.009207835330098169e-01 4.589975174395402036e-01
-3.695548535044453076e-02 -3.185426247526426669e-02 4.369408363720351240e-01
-1.879966201944056892e-02 -1.221648821409003216e-01 5.267376294719519070e-01
-1.610614716164239166e-02 -9.496595562409773650e-02 4.518112011839390263e-01
-9.160714689767197882e-02 -9.244477040715885774e-02 4.595087072061888600e-01
-3.990037031927515243e-02 -7.287850495710380960e-02 4.358873170441365241e-01
-4.165930585001528103e-02 -5.568703864717466229e-02 4.358082609513152517e-01
-2.006244889301004447e-02 -4.456721114341181261e-02 4.392499424663476315e-01
-7.719916394568064610e-02 -1.113150812112726068e-01 4.730487226637998810e-01
-4.946682374028939927e-02 -1.142897378680143849e-01 4.881322766656842060e-01
7.425149967216426554e-03 -1.269776279797726615e-01 5.203349417723484027e-01
-3.184208345149627806e-02 -1.169729603661767980e-01 5.405152832022651621e-01
-8.686504117329785224e-02 -1.111629267736783527e-01 4.789700776789528880e-01
-2.311800440692378562e-03 -1.173406840035170623e-01 4.797296381995400649e-01
-8.070586269471444196e-02 -1.075259101697700614e-01 4.604641124141533592e-01
-2.163051117834076387e-02 -1.068613652851707480e-01 4.660404919959051928e-01
-6.305033300557755238e-02 -9.718880729906889671e-02 4.225848100926961615e-01
-4.573809513307806711e-03 -1.261295559864630267e-01 5.146194011038639493e-01
-3.747266723766454199e-02 -1.180959521592511718e-01 5.047902217575903627e-01
-7.042356837331692487e-02 -1.139476743917174628e-01 5.022885033538027066e-01
-2.842141429771109090e-02 -9.440210994609221640e-02 4.509527851377199137e-01
-3.208419560574565788e-02 -1.036087035610245843e-01 4.623627671224522784e-01
-4.151918256662239654e-02 -1.093183190572633440e-01 4.716491579356570929e-01
-5.331961012454689008e-02 -8.926886258668687013e-02 4.254162718990727177e-01
-1.718525514281427427e-02 -1.217447133771053930e-01 5.361816583654406276e-01
-4.164810106689563127e-03 -1.079660492045546316e-01 4.649892878321077450e-01
-6.120578169613265229e-02 -8.289529617852650634e-02 4.280240651765828686e-01
-6.066574977229341470e-02 -1.129565453444444506e-01 4.839227727244915234e-01
-5.702093793755189099e-02 -1.122810874571331663e-01 4.795020608259553119e-01
-1.050699609001438106e-01 -9.687382635309961521e-02 4.770516879577659797e-01
-2.723198692702975821e-02 -5.249570679532407358e-02 4.383078370606094398e-01
-3.256039992097812391e-02 -1.027212066760032488e-01 4.608092126104441633e-01
3.235128143986883923e-03 -1.008403626623695232e-01 4.589359454056145537e-01
-5.486092980179577833e-02 -9.095092573881868869e-02 4.242207773842182061e-01
-3.742905472427796032e-02 -9.137462815299660090e-02 4.447261629812992445e-01
-5.805277909874385217e-02 -8.093835505285287835e-02 4.262488380660668374e-01
-2.804059666114681881e-02 -1.005556471152202341e-01 4.583542987428683713e-01
3.095346743031833665e-03 -1.272302041817610641e-01 5.215318723172509552e-01
-7.405130643917920419e-02 -1.120665076738565774e-01 5.149942246583001371e-01
-1.016711488300512008e-03 -1.267614069509415131e-01 5.154806931796864777e-01
-3.843529566355281119e-02 -1.170772141238615865e-01 5.334848934311336999e-01
-5.480099793970022448e-02 -8.134992239546601223e-02 4.261780763240475833e-01
-3.963434764572349583e-02 -6.361939063281160656e-02 4.359253986160521177e-01
-5.292483531422507992e-02 -8.124722664166678099e-02 4.266572817190208977e-01
-7.754531218083250688e-02 -1.119456324681704362e-01 5.103631027128243680e-01
-2.332146233425030218e-02 -4.182261448546759769e-02 4.395430023521845753e-01
-4.397830297690301371e-02 -1.072679601450136216e-01 4.636097260573070478e-01
-4.479515390232249178e-02 -4.841159045827522073e-02 4.356586284327944036e-01
-8.136466541336143110e-02 -1.124358977711809177e-01 4.927577775667325022e-01
-5.223247887003566736e-02 -6.750821497101824886e-02 4.304019995544524635e-01
-4.123983844820616751e-02 -8.908509246755817734e-02 4.404146752529327080e-01
-2.398354146931608311e-02 -7.625028934216501741e-02 4.407962314483976352e-01
-5.415536491983435896e-02 -1.008610782229388825e-01 4.320279657895516601e-01
-6.187234890318549230e-02 -1.142898084942008674e-01 5.188076718570178159e-01
-4.390434726600939835e-02 -1.159264168162646158e-01 4.935723262312714521e-01
-5.564215374038167933e-02 -1.134145445433088484e-01 5.283988369375415273e-01
-4.784283640143887489e-02 -6.266328226476812480e-02 4.328655831873597370e-01
-7.917332846918671840e-02 -1.125678972912839693e-01 4.989389912799845894e-01
-7.609906641646424497e-02 -1.130636018849411895e-01 5.003548294770172600e-01
-5.167182465883218834e-02 -1.081778363797003401e-01 4.638168526947544779e-01
-2.123626897428668170e-02 -7.119247194103325849e-02 4.400766787879510922e-01
-4.137563122968146434e-02 -9.748243693815462907e-02 4.484816708385420125e-01
-2.129864294650475609e-02 -1.214835352110564676e-01 5.264314362278863513e-01
-1.000661109640187535e-01 -1.088636672801988753e-01 4.848203982357400244e-01
2.316705868927746229e-03 -1.243994579153021168e-01 5.001211499893889467e-01
-3.319030106002672509e-02 -1.191412016578138888e-01 5.218949310262643859e-01
-5.123447210084787484e-02 -9.212706942250208086e-02 4.277696086990180890e-01
-2.924226039665498919e-02 -1.179611373277821701e-01 5.394841127919824952e-01
-2.298580891285482986e-02 -1.190586988130982182e-01 4.965316660612195676e-01
-1.083087469033395568e-02 -1.007916269183581071e-01 4.569895854843805671e-01
-9.278021658433702190e-02 -9.361951905128028384e-02 4.601853490101143196e-01
-2.007887319143104518e-02 -7.110990686779329606e-02 4.402562788055649490e-01
-8.707974722513457666e-02 -9.878439832416895106e-02 4.521130552035596550e-01
-3.540585287840417733e-02 -5.974291597473948418e-02 4.369075259262883426e-01
-2.736730918935305346e-02 -4.635735760054876531e-02 4.389560383993333370e-01
5.590146911880745223e-03 -1.271413896573523050e-01 5.197900324542135131e-01
-7.118181254234624833e-02 -9.447234191734402153e-02 4.322175823505292058e-01
-2.617859378014755073e-02 -1.207061610809431473e-01 5.161282138083430615e-01
-1.713949364054137559e-02 -1.227691066654084812e-01 5.090319199747620482e-01
-3.484556465320865631e-02 -3.707529689775759807e-02 4.368411798552337411e-01
9.438859337290536611e-03 -1.270984739371820438e-01 5.310748901149170420e-01
-1.435959880239041399e-02 -1.130149412772293027e-01 4.742764515015910898e-01
1.741401876051259373e-03 -1.115567158779087742e-01 4.703485814497106454e-01
-2.520928367127159286e-02 -1.206676702575615462e-01 5.234929337255220805e-01
-2.306010856021556074e-02 -1.197944427228149616e-01 5.380006205712369871e-01
-2.422521750894403650e-02 -8.765357938324026821e-02 4.453362003267909985e-01
-4.496119590550404915e-02 -3.043638370827278505e-02 4.368361523178612704e-01
-8.355074628200129250e-02 -1.042095626241169998e-01 4.541661793379434542e-01
-7.865371004593268989e-02 -1.118692504252346009e-01 4.776054817399505437e-01
-5.748899583414186082e-02 -1.068417094519378413e-01 4.576373924418635775e-01
-1.808719299813875067e-02 -1.060856131306329581e-01 4.637983374224909361e-01
-1.637729139586943661e-02 -1.201382108460296583e-01 4.941600427572274690e-01
9.020493108474548008e-03 -1.271681135501383786e-01 5.292636496953971870e-01
-6.865664689231434914e-02 -1.140358671276341523e-01 5.087880501245271025e-01
-5.707523809589477859e-02 -1.011021842247068619e-01 4.290981879084169726e-01
2.433987841400447882e-03 -1.138136330284811593e-01 4.740097116770614627e-01
-7.285420809898737748e-02 -1.102261633933633855e-01 5.229625132296216172e-01
-6.223048358195995555e-02 -1.146225408264956169e-01 4.992299160358501520e-01
-9.913141128076208286e-02 -9.827251443370821349e-02 4.647583803595736196e-01
-4.345570872865778256e-02 -8.969958563755746350e-02 4.389873746238473484e-01
-4.486429229613325687e-02 -4.381323701980373991e-02 4.360975429833804373e-01
-3.657360233567793703e-03 -1.173246885166024378e-01 4.795745722156425361e-01
-4.465982668451812243e-02 -3.461681547701841305e-02 4.363751190399932645e-01
-5.536421151057299012e-02 -9.695466657875075056e-02 4.257266439466955155e-01
-9.407278847293032431e-02 -1.104886398604319336e-01 4.880849189082936967e-01
-2.380621858376055083e-02 -4.847384552491043608e-02 4.391955230318325687e-01
-7.706835725891818256e-02 -9.203129735452719729e-02 4.418952913558332751e-01
-6.626499930916505965e-02 -1.023059125712767053e-01 4.318434133422487387e-01
-4.727949228531527770e-02 -3.936706823765767638e-02 4.373289200083527728e-01
-1.007094926818539044e-01 -1.005665174381547983e-01 4.676983929792724592e-01
-9.914417735776223650e-02 -1.090779952509341455e-01 4.957169501606566442e-01
-2.432818736452614303e-02 -1.210850579148102096e-01 5.188115279922617118e-01
5.304800005718596743e-03 -1.263254727266486799e-01 5.110408090472402520e-01
-1.905790869893275383e-02 -1.036092710052338717e-01 4.606907829137087407e-01
-4.753877389641922302e-02 -1.161777518058763198e-01 4.994331791038541524e-01
-1.794129480976074456e-02 -5.655610234813523290e-02 4.385276232872679092e-01
-7.152674116320938136e-02 -1.135291122815182824e-01 5.088041879179323601e-01
