-5.829063458619897220e-02 -1.129086332546470339e-01 4.837926632631151524e-01
-7.769640978331235001e-03 -1.205216004693698134e-01 4.900042322036755049e-01
-9.698597193043716203e-02 -1.076531757667650580e-01 4.744338524554080894e-01
-9.906092197535831811e-02 -9.920345435103276877e-02 4.644672149580821308e-01
-7.550223775886415190e-02 -1.029738290715336985e-01 4.480221633770019585e-01
-6.670782604997939347e-02 -1.041345438417590891e-01 4.461377672123882365e-01
-1.245106520554087152e-02 -6.400986705241308583e-02 4.398310467901100362e-01
-2.459060626386957646e-02 -4.411918820003973146e-02 4.394795062016288445e-01
-5.179746882616920872e-02 -1.119284120277047462e-01 4.793824479506774705e-01
-6.855798716695234163e-02 -1.076780271264020233e-01 4.586111701431764276e-01
-8.433080757613901912e-02 -1.079615748136146386e-01 5.162999597442743394e-01
-5.055269691624741935e-02 -1.156175210063075109e-01 5.238083436568850004e-01
-8.724030288610344630e-02 -1.092414405475519434e-01 5.088968477116919686e-01
-3.056940865610721300e-02 -1.166923077634182959e-01 4.923522774348450537e-01
-2.919779385186579285e-02 -6.743868205603741062e-02 4.383093507043466230e-01
-4.759810929942058511e-02 -1.055539552021035055e-01 4.588219745323859899e-01
-8.682813143738538075e-02 -1.117352885901287257e-01 4.912937256696369714e-01
-1.983265893833546095e-02 -1.001299437700659406e-01 4.578767549160135397e-01
-6.195903964089371357e-02 -1.135994905367995605e-01 4.896310081160675787e-01
-5.158939396425269580e-02 -1.016972297095034283e-01 4.427955749052907009e-01
-8.302479114434394014e-02 -1.092450239440507231e-01 5.132652618434293545e-01
-2.480875046552327018e-02 -6.529359423631790615e-02 4.387733700567139072e-01
-9.799218865955269808e-02 -9.697467605140204505e-02 4.641019271195191975e-01
-2.134157890610503122e-02 -1.057168178355382127e-01 4.644512431435340316e-01
-5.638284118925691868e-02 -8.804889305386130738e-02 4.243171728997311432e-01
-3.174932825894127147e-02 -1.176256491638425772e-01 4.959478948170170653e-01
-5.035014006910983053e-02 -9.466528113761277230e-02 4.308330451909290759e-01
-7.245561365349369176e-02 -1.059565594995207638e-01 4.543725356751486255e-01
-1.624451316717753432e-02 -1.200049124355489494e-01 4.936898691523978200e-01
-7.943432426491822684e-02 -9.449221217744094292e-02 4.439779518161209859e-01
-2.939459408721466216e-02 -1.158277769632100468e-01 4.892137591536735441e-01
-2.463843776198417629e-02 -4.893095961257657583e-02 4.391253361697282087e-01
-2.340141807904620036e-02 -1.076693248518556523e-01 4.682867146573648776e-01
-2.960406750128420292e-02 -1.007851485835088851e-01 4.588503693691735053e-01
-4.704265256881011437e-02 -1.159889206468989464e-01 5.271722107503253874e-01
-6.943692030488711475e-02 -1.068064389989132196e-01 4.560189056698882859e-01
-6.341191889054710595e-02 -1.145089426688760403e-01 5.009536293533392026e-01
-5.631706494514810563e-02 -1.147142843925615663e-01 4.947231097654705700e-01
2.568508137321071777e-04 -1.097336617728624092e-01 4.674498296448257872e-01
-8.003356356231774993e-02 -8.618950859871671311e-02 4.494489124154124049e-01
-4.989449876976610743e-02 -4.627782300658002390e-02 4.371156779967604877e-01
-6.209747862922630063e-02 -1.148402463208089141e-01 5.049232527922971059e-01
-2.367669220975869918e-02 -9.574426006619912721e-02 4.533593791979599885e-01
-4.911614931412311424e-02 -1.069629281670116533e-01 4.617586048785125574e-01
-6.005780369456112378e-02 -1.002740622839606716e-01 4.255964187469645776e-01
-6.104214146698671434e-02 -1.150286444476008030e-01 5.123434346803726891e-01
-8.706479652252664680e-02 -1.093044956822220165e-01 5.088852011056927971e-01
-5.878698343563682621e-02 -1.025638686841517933e-01 4.321265210924875033e-01
-6.749428990051600796e-02 -1.081824702556421353e-01 4.610139664952989658e-01
-2.274408009633573785e-02 -1.196413913149849961e-01 4.983933823204282354e-01
-3.400837775901678628e-02 -9.390842257366056878e-02 4.486137887659904511e-01
-5.280720484266353265e-02 -1.148649516095514855e-01 4.938532394975697071e-01
-1.792110849867851324e-02 -1.137321240855681953e-01 4.782237116040076730e-01
-5.238078451658823020e-02 -1.024738910848362466e-01 4.452434838854646415e-01
-8.314159083385666213e-03 -1.149505088439488204e-01 4.756594058552238158e-01
-8.238620866419204929e-04 -1.069872286494482488e-01 4.644688729708172370e-01
-5.100229076721554677e-02 -1.136292890839576963e-01 4.860465176363967243e-01
-2.223735733929446332e-02 -1.165669430547106311e-01 4.880999432138178329e-01
-3.048324427300417097e-02 -1.020485965844792203e-01 4.606867863113123795e-01
-5.162788701930228971e-03 -8.107456756912261031e-02 4.458426291561848331e-01
-2.044215570322791345e-02 -1.183380061553697959e-01 5.464670924142952524e-01
1.206096271250910179e-02 -1.265080028640354071e-01 5.193540218037041578e-01
-1.065849628573831698e-01 -1.007575361176393652e-01 4.806220589856968761e-01
-7.080359589338949822e-02 -1.024856294632385117e-01 4.418534725421370823e-01
-4.395062192697237607e-02 -1.007628397077560412e-01 4.519589759003732055e-01
-5.421934229351314805e-02 -1.154723769887195939e-01 5.197619321501384393e-01
-3.501919678064488450e-02 -1.064015689399763209e-01 4.667599634198225100e-01
6.829605064575213977e-03 -1.222020570965031694e-01 4.948175498828241703e-01
-2.050819919825928178e-02 -4.692972759687498441e-02 4.391593363288538443e-01
-4.214352689724906731e-02 -8.230948640531023097e-02 4.358860508753804597e-01
-5.008087952736479248e-02 -1.036288166240117992e-01 4.524952968818872212e-01
2.161500036409064358e-03 -1.117706276029331314e-01 4.708982644932728778e-01
-6.336488184081457906e-03 -1.003962685721184328e-01 4.574960727634727053e-01
-3.238058226693399377e-02 -1.188661146296548649e-01 5.040652064800804633e-01
-2.243028249046533779e-02 -1.123044474212190891e-01 4.772771887249481204e-01
-9.312688123336372581e-02 -1.105728766551974662e-01 4.906020999332956767e-01
-9.565340358637548779e-02 -1.089621820455784762e-01 4.780201469824009730e-01
-1.511878607770664185e-02 -8.438253176991279692e-02 4.453652036307252371e-01
-4.044874905645492319e-02 -1.178500073841897006e-01 5.103839283638187396e-01
-2.875502548720874907e-02 -5.090742767960327458e-02 4.384787259551318761e-01
-8.150593575323768214e-02 -1.016217847708018873e-01 4.492877461338830591e-01
-3.928001691108631843e-02 -1.094097795599781320e-01 4.734196092770590059e-01
-3.797298186524909747e-02 -8.243492770181029550e-02 4.386419836883438950e-01
-4.296102681075271434e-02 -5.522402496439546976e-02 4.358927816007373002e-01
-6.647206732148661090e-02 -1.115149982689386116e-01 4.766730015463787606e-01
1.279169395274511178e-02 -1.262707738190215756e-01 5.178320010792096806e-01
-2.592517932845909978e-02 -1.207118288094064934e-01 5.171978980262179615e-01
-8.386863846064278316e-02 -1.098125556813416143e-01 5.105116807008840407e-01
-6.580883831042262655e-02 -1.059779705136976863e-01 4.535092067323570619e-01
-3.171937985231017970e-02 -1.183328418279426669e-01 4.993482889248220258e-01
-3.373754249619353301e-02 -9.492969931350307700e-02 4.497491229371184951e-01
-4.103441574799733538e-02 -1.069050887091439611e-01 4.651368258106305942e-01
-8.437096425035175290e-03 -1.220970837306247642e-01 4.949604280454534821e-01
-4.214006242099659766e-02 -8.809715901296363838e-02 4.394134738279177332e-01
-5.932589299884992451e-02 -1.044233445593631127e-01 4.410498397795409864e-01
-7.041708849057649877e-02 -1.127758718717689207e-01 4.882157894693180400e-01
-4.088976850195850943e-02 -1.173494512636107517e-01 5.041358005173046664e-01
-6.299484988138871755e-02 -1.132107022865878193e-01 4.874950066359769463e-01
-1.036994651478862495e-01 -1.036571386223473917e-01 4.776395314869772424e-01
-9.904566637671601004e-02 -1.026868553281647112e-01 4.660298355717418239e-01
-6.355301876863438115e-02 -1.144323302471214193e-01 5.159521123899980521e-01
-4.077702903991761718e-02 -6.049494164839578497e-02 4.359268943628286652e-01
-1.056549687835060120e-01 -1.026107816377695992e-01 4.831158385030716040e-01
-4.477849571355370373e-02 -1.172733736641696778e-01 5.156587582416228832e-01
-6.462371789532748989e-02 -1.088600051173001515e-01 4.644201252144627978e-01
-1.926280569432274603e-03 -8.508015998371248889e-02 4.479582479262103623e-01
-5.697104389580933542e-02 -1.114108645296386368e-01 4.757957757546268374e-01
-7.457193464847935993e-02 -1.113752384498021691e-01 4.755902399544873482e-01
-7.092802781822135638e-02 -1.135436588784092121e-01 4.963300503752253734e-01
2.477940941750073848e-03 -1.170457568395726622e-01 4.798117531134598601e-01
-6.018075362286596369e-02 -1.085274950512547937e-01 4.640936276967451146e-01
-3.637934268429097312e-02 -1.170579031701287215e-01 4.968295387609462099e-01
-6.913159573451639617e-02 -1.116428643253723763e-01 4.773974615335312421e-01
-2.587985870479705269e-02 -6.786116705342334909e-02 4.388857251163342799e-01
-1.247643744139791816e-02 -7.588702989912018970e-02 4.425242548424246913e-01
-7.228634486420924821e-02 -1.133879137058321357e-01 5.067855799189543431e-01
-1.033549431049937163e-02 -1.016598664190980911e-01 4.579327777937085564e-01
-6.059590726380877784e-02 -1.122913688028272378e-01 4.812292375052675264e-01
-5.070550200501743737e-02 -1.130332960400263348e-01 4.833297385069464935e-01
-6.982432788184116113e-02 -1.093777795205047448e-01 4.658584806648297105e-01
-4.239840728716811474e-02 -1.174697263416579346e-01 5.091928514778947257e-01
-5.535129693096451503e-02 -1.152689063665957442e-01 5.000834705490160292e-01
-7.290405384732184801e-02 -1.133314818847873662e-01 5.060000840313545467e-01
-1.260948063419165682e-02 -1.152373080807566896e-01 4.779743376824340251e-01
-1.880697295993268361e-02 -1.220025094199848892e-01 5.293763571329496154e-01
-2.031278581282760370e-02 -5.160302535553393244e-02 4.386830690621000839e-01
-4.188482763005357823e-02 -9.642438453128919507e-02 4.467491303099640487e-01
-2.341206993262433950e-02 -8.229444091587928556e-02 4.430796839027396072e-01
-3.014387091719319609e-02 -1.195649072274266866e-01 5.232652402667747893e-01
-2.222993504537384979e-02 -1.181320768073338967e-01 5.454914938535675439e-01
-3.906147533442286962e-02 -1.171062537572039042e-01 5.315845848316662625e-01
-3.446863737796576621e-02 -1.123508353597796883e-01 4.802248242198095540e-01
-6.364915255663304572e-02 -1.041101282186193133e-01 4.340049908607143125e-01
3.345626069970386238e-05 -1.207523747080896243e-01 4.890079835603254321e-01
-9.176751167113900154e-02 -9.668645530181525782e-02 4.569008114274121790e-01
-9.149149217532540068e-02 -1.100034499395470960e-01 4.775363132337935856e-01
-1.460747122724057219e-02 -1.223763301329979236e-01 5.360171648376274023e-01
-2.172748978349805724e-02 -1.042699466547882120e-01 4.627057747295440504e-01
-6.388131897156962280e-02 -1.146011023332235562e-01 5.119312330903914576e-01
-3.390732411942399410e-02 -1.135564653938219704e-01 4.835634991437090524e-01
-5.839072680687795031e-02 -1.072876375766598500e-01 4.600812296806838231e-01
-3.815794106057827928e-02 -1.159873280237835869e-01 4.929252298189484294e-01
-1.809714610925926975e-02 -1.080507483167939403e-01 4.672901304304754588e-01
9.527259470719244344e-04 -8.563107841510068929e-02 4.484651595737990659e-01
-4.505862625221982581e-02 -5.722805867818418074e-02 4.351190673277661181e-01
8.134401814622414101e-03 -1.266883748045430358e-01 5.167530418686053784e-01
-6.657159225235845246e-02 -1.141973903853374522e-01 5.098462191774678631e-01
-5.240282692062128711e-02 -9.809408290726408242e-02 4.319392801363267642e-01
-9.793629357276208147e-02 -1.083814048872770025e-01 4.789400889505183723e-01
-3.343560016002938146e-02 -9.621527609229266198e-02 4.515122938507218908e-01
-4.914225113624087066e-02 -1.119434140984763293e-01 4.794829001270612401e-01
-4.293593701198480939e-02 -1.070012090983006592e-01 4.641209238326563513e-01
-1.568520618673316727e-02 -9.638333444462043875e-02 4.532114999339486583e-01
-2.498599989646086220e-03 -7.981116880421391946e-02 4.457476042058929888e-01
-1.610549002231138893e-02 -1.056417598565725507e-01 4.626085070623318640e-01
-1.614243993098316010e-02 -9.407022106159861063e-02 4.511802107229964109e-01
-6.866393605893768293e-02 -1.034361502260769811e-01 4.441255107000605662e-01
-4.873543692498216034e-02 -8.103832075392108925e-02 4.301870626027371469e-01
-6.030291750398259626e-02 -9.410677451295858253e-02 4.219621174420381537e-01
-2.815185836046232154e-02 -8.971799581343974095e-02 4.465679223533041697e-01
-5.214256913821194162e-02 -1.039066285127291239e-01 4.509342420955049779e-01
-5.489090029804048060e-02 -1.110810404106185034e-01 4.743425096080470804e-01
-9.809121643019949599e-02 -1.049913251559643768e-01 4.671471278297228968e-01
-2.016475846485186411e-03 -1.267063586623733973e-01 5.221880912294788457e-01
-5.347383505708715179e-02 -9.698458969213628877e-02 4.284433346471585025e-01
-5.464184550397246931e-02 -1.145197599635304209e-01 5.249002051028437421e-01
-8.120978794143887680e-02 -1.120620535576893617e-01 4.988662844330002955e-01
-2.308953910220024053e-02 -7.714791699203621400e-02 4.413755387737332003e-01
-3.581459669051533304e-03 -1.263757514503147383e-01 5.215273972018141801e-01
-3.450896511783336368e-02 -1.190941487420324463e-01 5.156319781894584953e-01
-1.148318281741135191e-02 -1.185828511711099625e-01 4.852400970931292634e-01
-5.160938880610008161e-02 -3.098895602006084687e-02 4.433911757920427354e-01
-2.940708550787860670e-02 -1.194275973563558996e-01 5.044356684181608985e-01
-1.028500314601804577e-01 -9.831204691616056424e-02 4.724057188820092734e-01
-7.198561731665534258e-02 -1.050176503155891145e-01 4.516825459308912993e-01
-4.997149216071932604e-02 -1.020221713704201755e-01 4.479321752467931850e-01
-4.234762630761513408e-02 -1.001271154527300089e-01 4.520860847362249135e-01
-4.494824843386275443e-02 -8.038857010890915200e-02 4.335427353493821467e-01
-5.982140098783973042e-02 -1.139331866811679334e-01 4.918309054749430143e-01
-4.088596274013357040e-02 -1.125089009401967627e-01 4.823271963790266015e-01
-5.912986404987812666e-02 -1.082646258955582697e-01 4.634850244697489852e-01
-6.086601125758456243e-02 -1.141492546737951919e-01 4.947890720620626848e-01
-4.246672517960145554e-02 -1.088294377799000762e-01 4.703841217798917507e-01
-1.301230556796734161e-02 -1.228813253782608667e-01 5.037132272556142931e-01
-5.154030724455983120e-02 -3.069867027408559879e-02 4.424796201158546771e-01
-5.603126443844974602e-02 -1.157543097814730387e-01 5.133968039847371934e-01
-1.886749255387044910e-02 -4.839984463016421684e-02 4.389689362981898935e-01
-9.212914939092484330e-04 -1.033261076388335836e-01 4.607813682493714924e-01
-1.780528758762684946e-02 -1.223824879424304096e-01 5.279721832316339736e-01
5.755219639652344767e-03 -1.233198317304890074e-01 4.980010810052188930e-01
-6.329268684375324514e-03 -8.306650297833714780e-02 4.463456180537533902e-01
8.208290901015923360e-03 -1.268916010330008448e-01 5.317849522599517043e-01
-7.059689397568195968e-02 -1.117251263666909356e-01 4.776829519505561006e-01
-5.532780820819675760e-02 -7.460293048853662567e-02 4.283687541247342412e-01
-9.447850950356950772e-02 -1.083452670848617239e-01 4.732164222370535134e-01
-4.560758520849858728e-03 -1.033923559856232827e-01 4.605400865399449373e-01
-4.847049081303515805e-02 -1.144788038532253832e-01 4.897302271275491559e-01
-8.893477291484187808e-02 -1.023404845043146272e-01 4.553712490380155131e-01
-2.834608451635766899e-02 -1.130972952746002180e-01 4.801428195176665747e-01
-7.669536000961683919e-02 -1.087012336966934750e-01 4.634094378677398041e-01
4.468076653278990444e-03 -1.235899339414791853e-01 4.984290970286307521e-01
-3.424308733494259294e-02 -1.140516070932580950e-01 4.851492454173882973e-01
-1.183582689570767711e-02 -1.233699817483323441e-01 5.050729861529953402e-01
-7.757066110678333126e-02 -1.124095309868165804e-01 4.869265253704526120e-01
-9.462179987429753664e-03 -6.691494655767074584e-02 4.406486291517986986e-01
-2.695234884155673846e-02 -1.117047753896096979e-01 4.768927552549619420e-01
-4.726419645829617322e-02 -1.111319902886903771e-01 4.765119508359810241e-01
-4.769455633239294556e-02 -1.167457132005505355e-01 5.097369671540675773e-01
-1.000163140922950278e-01 -1.078261541099561904e-01 4.805509979207421845e-01
-1.453583388458636917e-02 -7.641763514651349343e-02 4.422394930892912246e-01
-3.305685435294392072e-02 -1.145545589801084813e-01 4.862700066474235361e-01
-5.189235869350310171e-02 -9.936352929037541026e-02 4.361319160809389861e-01
-2.421883261349526417e-02 -1.165810936058507274e-01 4.897774725615071101e-01
-3.405162931333027831e-02 -1.162346735704766210e-01 4.919678934097859724e-01
-5.884630223693530088e-02 -1.046849952228363911e-01 4.465655629868766074e-01
-3.771597522031298888e-02 -7.248508304195308560e-02 4.368778227787816215e-01
-6.569868465591571782e-02 -1.106185081887294253e-01 4.719903388938625488e-01
-8.988681584364428823e-02 -1.068750290495494443e-01 4.643177802644714580e-01
-3.399301167454341771e-02 -1.184744407811625933e-01 5.029384754342128838e-01
-2.424876060517622972e-02 -4.634431501336848391e-02 4.393560060168143488e-01
-6.598565430200178938e-02 -1.140962493948659423e-01 5.143706478562249940e-01
-4.552250726478414278e-02 -1.074229063082044189e-01 4.638724808758987184e-01
-8.056129951932874955e-03 -1.082572092617380133e-01 4.650479734740244897e-01
-1.721319684410053258e-02 -1.088308655143772619e-01 4.683080227234219794e-01
-4.023440406663975760e-02 -7.970245208888439292e-02 4.364063106582544704e-01
-9.715907115917297651e-03 -1.248052354153129651e-01 5.241556416886929970e-01
-9.847996096947402023e-02 -1.071192247417285803e-01 5.026268372999512790e-01
3.166247491097387221e-03 -1.243255133777932536e-01 5.003830809277638458e-01
-1.824417478350160576e-02 -5.666664241842393063e-02 4.385768927099061298e-01
-6.239588037024920014e-02 -1.132038434790313824e-01 4.872553412004675399e-01
-9.820987320044879954e-02 -9.520403052474420147e-02 4.661329356088256270e-01
-6.950815494048508125e-02 -1.115733320684098029e-01 5.219980767244633002e-01
-8.986075151156916463e-02 -1.101030388809221966e-01 4.759425454254883059e-01
-8.615490274094575462e-02 -9.485172782100942390e-02 4.517443716384305641e-01
-2.016010238550965464e-02 -1.188272060985315348e-01 5.448926948572108131e-01
-3.489734496016821952e-02 -1.148815921810776713e-01 4.879521928612151060e-01
-3.861058970722762440e-02 -1.132409421276939221e-01 4.842994950022448397e-01
-2.246755658970391381e-02 -1.199198546407281574e-01 5.379115454043068567e-01
-2.439436084154570153e-02 -1.198063417179323492e-01 5.360080806614198057e-01
-9.536800949205993805e-02 -1.089662487304606520e-01 4.775411749415472418e-01
-7.043635339904336795e-03 -1.231819889212512342e-01 4.982318078196946720e-01
-4.418289591204099809e-02 -1.145417141838583897e-01 4.895000070973117290e-01
-4.740238957160026328e-02 -9.407177858983219176e-02 4.362118135983857337e-01
-4.094381805806578123e-02 -1.019280062287630517e-01 4.564563460361108493e-01
-8.256699510401975528e-02 -1.106535233852599248e-01 5.089535848132821227e-01
-6.467187085234016308e-02 -1.135649666607378566e-01 4.908023085464197077e-01
-5.762576981135039689e-02 -1.022506866351958477e-01 4.331624408884876543e-01
-5.003484167560952323e-02 -2.702207064402305584e-02 4.388110358788064880e-01
-5.158679918107843265e-02 -3.267561694279255691e-02 4.434177073147705928e-01
-1.013916921475782745e-01 -9.668599386812395946e-02 4.693553491554842694e-01
-2.378156386282502532e-02 -6.860240444635122559e-02 4.393503143824559753e-01
-9.016101038388316113e-02 -9.826268328257553586e-02 4.549069223754917402e-01
-2.440312485486549263e-02 -1.196911213949295449e-01 5.367175954528747850e-01
1.344313638052568871e-03 -8.647001631262117571e-02 4.489764789197829287e-01
-3.860958554126001085e-02 -9.158519723588955108e-02 4.445230065128822350e-01
-5.285183991524879804e-02 -1.013467780680757518e-01 4.388839345344062726e-01
-7.914760635332661332e-02 -1.118269978868381420e-01 4.796931736110955358e-01
-4.089532249924096585e-02 -1.165601849174672938e-01 4.974176033609764014e-01
-8.542476447006606965e-02 -9.641537679830473884e-02 4.504008828328958103e-01
-1.208142550943836629e-02 -7.287993464202964511e-02 4.417503068400076005e-01
-7.817368838336613557e-03 -8.770087748326638177e-02 4.479585425706288926e-01
-5.564297583632882988e-02 -8.583401019229698614e-02 4.250824233253240325e-01
-4.742057431044799376e-02 -1.140157929887976873e-01 4.876945047343989037e-01
-1.927622513905116047e-02 -7.144092990299445722e-02 4.405592074839517203e-01
-8.644452628885275491e-02 -1.111655165575064358e-01 4.815847446651665975e-01
-3.428533426741232903e-02 -1.186307479352022715e-01 5.256849027403422969e-01
-3.241480455798127769e-02 -5.783376339339980909e-02 4.373590698098331897e-01
-9.860903135734197522e-02 -9.235238599070016985e-02 4.701352301348703522e-01
-3.032535218205895111e-02 -1.159559292183581919e-01 4.898876546037907453e-01
3.065629108560525423e-03 -1.092015395234859493e-01 4.674969930013846975e-01
-6.786133328858919012e-02 -1.024158207243478502e-01 4.383489462693364036e-01
-5.997245414066325331e-02 -9.276721437306779949e-02 4.224092502951461992e-01
-4.313667614724506910e-02 -8.836637078840889337e-02 4.387037754193168215e-01
-1.847985215103581727e-02 -9.092849637034861043e-02 4.484223306585462532e-01
-4.641022232554517513e-02 -9.328075782341996303e-02 4.383311922197793420e-01
-1.088414881713985899e-02 -1.142668875268865597e-01 4.750388850054751422e-01
-1.824637783741043726e-02 -5.405481724062247834e-02 4.386638719655212570e-01
-5.405484945544575259e-02 -1.084022343862640902e-01 4.648206280406629309e-01
-7.035730241852229672e-02 -9.069325221123150649e-02 4.325179377279371740e-01
-3.548228285075855776e-02 -1.083955000847915268e-01 4.709035274713704866e-01
-1.144181042388347710e-02 -1.212898349168155393e-01 4.944670786413730701e-01
-9.256106493319952652e-03 -1.189213325152526368e-01 4.853492056925667875e-01
-8.490179050551275447e-03 -9.988210366595548506e-02 4.566303284388242845e-01
-6.923040093182192267e-02 -9.757273490414206107e-02 4.312245485882405527e-01
-2.878190577175092357e-02 -1.038145740200685785e-01 4.638574426894566671e-01
-3.009109337285901728e-02 -1.188148900598422902e-01 5.335255849451553400e-01
-8.535270030446147349e-02 -9.318400106697856400e-02 4.512726647596666529e-01
-8.262724565460088932e-02 -1.056614607240278919e-01 4.575885578222901318e-01
-7.749064622347169584e-02 -1.043452458770535302e-01 4.517694225349309090e-01
-7.176242013500762351e-02 -1.041891854975702941e-01 4.492266056532127072e-01
-7.259371871270288434e-02 -1.135735818893793270e-01 4.981908251693961676e-01
-4.696961465968640254e-02 -3.289357283099017537e-02 4.373144208309950320e-01
-5.210339697219073390e-02 -1.161293703058934035e-01 5.150413488259111272e-01
-7.833800909087240694e-02 -1.077006967285599193e-01 4.608139354260986087e-01
-2.895065336333920228e-02 -3.517422386515575705e-02 4.387292476066031455e-01
-2.219823396760049403e-02 -1.213810241467861706e-01 5.098418772722043135e-01
-2.573831386233434507e-02 -1.061538174619274244e-01 4.664279962240555077e-01
-1.773120192811855969e-02 -1.047710115423931415e-01 4.620017702864212539e-01
-2.025222494973106732e-02 -1.139736935053803496e-01 4.802007936734298821e-01
-1.006508315570159989e-01 -9.750833988862836477e-02 4.676358898073933457e-01
-4.399270461739508004e-02 -1.110977918696279265e-01 4.776593558854217436e-01
-5.274593760306652002e-02 -6.595133192664882904e-02 4.309799638546946698e-01
-3.668640134685008380e-02 -9.847266663153814159e-02 4.535537374113566278e-01
-8.093174510775494324e-02 -1.093304151247044831e-01 4.666261828585476223e-01
-3.256782404767610828e-02 -1.006348140747980874e-01 4.579033839362126601e-01
-3.171177755172108204e-02 -8.028086562948487381e-02 4.400391713990003950e-01
-1.127606554565471417e-03 -1.165034482276718214e-01 4.781231288534885659e-01
-6.858854150639329128e-02 -1.033664149236229041e-01 4.437512156874363067e-01
-4.644653789931930260e-02 -1.152459984100490803e-01 4.931787006677411656e-01
-6.813638898161905426e-03 -7.961526157667007941e-02 4.449484787653630313e-01
-6.119921143861876273e-02 -1.123108008757272708e-01 4.815022654542686076e-01
-3.884967794424061538e-02 -8.256123413432925329e-02 4.381115510928282331e-01
-2.412778410966154655e-02 -6.020492857560401367e-02 4.384197760971091928e-01
-1.430984459522640154e-02 -7.221136727753756090e-02 4.412111342299249728e-01
-8.166612197538002105e-02 -1.066931654182857458e-01 4.595454070639256594e-01
-4.601702010253054531e-02 -6.512822154286057597e-02 4.334303393118235093e-01
-8.330082432890870137e-02 -1.065146273080842393e-01 4.599365541334041740e-01
-2.770167396988364866e-02 -1.202287831377100435e-01 5.128846791620118584e-01
-2.088184922015270256e-02 -3.891023835193152536e-02 4.390416914078540400e-01
-3.486158364144141542e-02 -1.067642982382235317e-01 4.675435707205513047e-01
-4.735554648113316639e-02 -1.120055447614912852e-01 4.797707109643049028e-01
-4.820853274065463323e-02 -6.723972467695477073e-02 4.319598506985050101e-01
-4.462462070236104805e-02 -8.598981912265518668e-02 4.345685274522390618e-01
-3.815172624732326989e-02 -1.183075425803377378e-01 5.202158989678250522e-01
-4.676735200602381848e-02 -7.481621108626869410e-02 4.320980381566486561e-01
-8.987413430356300248e-02 -9.809851548613401917e-02 4.546600761958296544e-01
-7.682208084860921160e-02 -1.126065206749776171e-01 5.047334906162258550e-01
-3.535719895809946722e-02 -1.135889396911609894e-01 4.842074272507261856e-01
-2.409726536395758595e-02 -6.221174309181343870e-02 4.386416598151024471e-01
-2.252704006540913115e-02 -1.012801152718515035e-01 4.594241838659526844e-01
-9.787396383253563203e-02 -9.498741437436666879e-02 4.658527158277063762e-01
-1.926455317451793159e-02 -1.196663320575247907e-01 4.956125780211617093e-01
-9.950771088763993300e-03 -1.246893570559320930e-01 5.268006553021113980e-01
-8.668011899742908422e-02 -1.113318792448247108e-01 4.987805081560516274e-01
-1.042110166479623817e-01 -1.048755417570351317e-01 4.826887751291267237e-01
-4.628728091281066742e-02 -6.005799569222512735e-02 4.340490533069247814e-01
-7.035980216729278980e-02 -1.132203380897878198e-01 4.924642177928968967e-01
1.043439325926367664e-02 -1.270960574171892121e-01 5.257086625434257421e-01
-2.240108020862903448e-02 -1.210666835085099369e-01 5.284466166534914633e-01
-9.786926878098627103e-02 -1.056298168817192407e-01 4.675669928856919233e-01
-4.715191163198562824e-02 -1.123840695962242398e-01 4.814624583902074595e-01
-7.416876421198766167e-02 -9.492573779938591472e-02 4.373796128924825055e-01
-2.560174884343487459e-02 -1.151049529923695164e-01 4.857869569952291688e-01
-1.843113173862909182e-02 -9.323940073059584777e-02 4.505200887717710767e-01
-4.060113472633257448e-02 -9.483045474599689773e-02 4.465530402831704437e-01
-1.659067641397113033e-02 -1.207702057767591070e-01 5.411612994076115957e-01
-1.525579705348909486e-02 -8.243651318721245680e-02 4.445213368511133911e-01
-2.091775774330926346e-03 -9.671809893258846713e-02 4.551025708916706103e-01
-5.318811068706343764e-02 -1.155754325702140484e-01 5.200453855808890857e-01
-5.777620955718700685e-02 -1.139057791329177033e-01 4.897189384666286172e-01
-5.567411511116660688e-02 -1.158203583122743019e-01 5.129324717944107048e-01
-4.089622912819547429e-02 -7.989886729798233167e-02 4.360152627002306103e-01
-3.007312524579756896e-02 -1.196298118995260257e-01 5.090863249102673960e-01
-1.187828074506278031e-02 -1.244472630828302728e-01 5.161166478308101269e-01
-7.973234547284187290e-02 -8.839524366670382938e-02 4.468439108220463862e-01
-4.997566514435666796e-02 -2.993826226758697362e-02 4.390229002109299339e-01
2.396137254374039200e-03 -1.269947098136744168e-01 5.161332680762458214e-01
-2.608264655502842699e-02 -1.200760573627735750e-01 5.043778579324986744e-01
-1.432005233603768357e-03 -1.267638317484472976e-01 5.196503312568480082e-01
-8.863855528093264602e-02 -1.071980889467177289e-01 4.646092037510795025e-01
-8.139833700998824750e-02 -1.102776088698627366e-01 5.117236457631536561e-01
-6.925570879119768986e-02 -1.129104882982447239e-01 4.888466198309684985e-01
-3.661745938258497562e-02 -3.034897053542826365e-02 4.371522145094149936e-01
-4.640252617288156273e-02 -1.120918144461470617e-01 4.805074965446910484e-01
-3.040227900385427534e-02 -1.179544022362478545e-01 4.967012491276781572e-01
-1.927335811598017770e-02 -9.269280631272412696e-02 4.500861628090739863e-01
-1.042591044926751143e-01 -1.053304508609479301e-01 4.842281164831084284e-01
-9.186750183110831136e-02 -1.035438115139773740e-01 4.598091375756459542e-01
-5.391983904895515656e-02 -1.052240521649813187e-01 4.547237880867209259e-01
-2.643245383989779179e-02 -8.056743733470331237e-02 4.418807277345823681e-01
8.831234698266410277e-03 -1.265415446026967317e-01 5.162493916224442092e-01
-4.974330771063378842e-03 -1.179302922547985633e-01 4.812086574572406183e-01
-9.994832152816093829e-02 -1.086753682837963003e-01 4.950614788680805511e-01
-5.128957313829626830e-02 -1.132847622209883914e-01 4.842638200476865884e-01
-4.718237950613721199e-02 -8.662566577198707596e-02 4.315886055225793827e-01
-2.263950643855677791e-02 -9.509637357401469482e-02 4.527139806492314067e-01
-4.521217658602368766e-02 -1.002913851785292992e-01 4.495484127525445350e-01
-5.174125761333884382e-02 -2.811805303970624226e-02 4.445071822120033600e-01
-3.670200289081977651e-02 -8.048233011416314198e-02 4.388199641336559820e-01
-3.487569513544769989e-02 -1.185886082290894677e-01 5.250283081201995161e-01
-1.241933961425920052e-02 -1.240388600343183823e-01 5.244429102156918931e-01
-1.057034075602750200e-01 -1.042565092635161228e-01 4.941842126478468433e-01
-3.369562900768954816e-02 -5.855969874385647672e-02 4.372190840683651269e-01
-1.001796001808247412e-02 -7.575345461299679006e-02 4.429497821667954804e-01
-8.525794687248158810e-02 -9.127512802932009894e-02 4.522469988479111969e-01
-3.732213380084593163e-02 -1.170555391684727498e-01 5.350765409902495939e-01
-1.508681592899946584e-02 -1.086537979882091914e-01 4.672179358121195669e-01
-7.362845665016234942e-02 -1.068884208455781470e-01 4.569385201374364103e-01
-2.796323859328852385e-02 -4.771410907911387278e-02 4.388477808848713635e-01
-7.130968640616157372e-02 -1.085425653397781437e-01 4.616497847155678347e-01
-6.646657827482628511e-02 -1.106513336819816701e-01 4.722120334585138135e-01
-6.506976214975143669e-02 -1.083121324882590497e-01 4.623702812122122974e-01
-3.220129599403952214e-02 -1.165406704833152202e-01 4.923086659990612568e-01
-1.404602838918472991e-02 -1.229362551815816051e-01 5.336318716095181935e-01
-8.308877466435807269e-02 -1.011213347450765909e-01 4.508108711031268423e-01
-5.106075259189692128e-02 -1.087822776208352687e-01 4.663249167288373020e-01
-5.023159069753442563e-02 -9.882790654483857018e-02 4.402950778442349389e-01
-5.669835471647398893e-03 -1.197970918714850314e-01 4.868561107321459636e-01
-6.020575345496294306e-02 -1.083457044811574205e-01 4.634631566268355707e-01
-3.169472648562633027e-02 -8.958626406674297105e-02 4.453395063588673208e-01
-5.459749720473513340e-02 -1.159870423192407712e-01 5.121632598096773625e-01
-7.599766814507911972e-02 -1.119806081081221732e-01 4.799546279352993605e-01
-3.542740751568345531e-02 -9.224500325184703531e-02 4.467707092947681979e-01
-5.845875241430241454e-02 -1.054671439490602047e-01 4.522034969916449709e-01
-3.821061723037033619e-02 -1.169832181412548411e-01 5.342668086582570419e-01
-2.199132452426492620e-02 -1.183126262015265218e-01 4.942243466069909386e-01
-4.484559599462618895e-02 -1.100882586529887547e-01 4.736675647935732480e-01
-4.457412153793076370e-02 -1.074703951036902888e-01 4.644331471802801703e-01
-5.382464653573833246e-02 -1.156128635707026342e-01 5.033850603388824174e-01
-6.458335398698154817e-02 -1.095781388626668740e-01 4.672053887165554253e-01
-6.737939442719324823e-02 -1.121793494225183374e-01 4.811514504102560874e-01
-4.967344959249707370e-02 -1.039603985530947877e-01 4.545246604581059668e-01
-4.092210627352915742e-02 -4.786580359889167080e-02 4.359703860022901001e-01
-1.516414867357918257e-02 -1.208475063616539363e-01 5.419418173327681387e-01
-4.422240898719265872e-02 -1.100932153346693837e-01 4.740446671736599504e-01
-4.032859689831087141e-02 -6.898703000082045955e-02 4.357620410760076335e-01
-4.592455380335733889e-02 -1.170556735873743287e-01 5.164160961193530186e-01
-7.348980254204848239e-02 -1.121229269513128041e-01 4.817570226085015617e-01
-3.686403171816544228e-02 -1.185413549725000820e-01 5.114150512959477757e-01
-3.798822845042761076e-02 -1.135713457658393127e-01 4.851468880387395655e-01
-1.021254975622175182e-01 -1.082938324991145618e-01 4.904428771388135710e-01
-1.412528064113963144e-02 -1.177239353315791132e-01 4.844476540039907020e-01
-8.191669191434849950e-02 -1.012056995754729433e-01 4.493538486424516476e-01
-6.630174341010715289e-02 -1.142388250181519405e-01 5.014187223488489886e-01
-6.719724073507927012e-04 -1.242002160209750017e-01 4.998225410732058949e-01
-2.001246398370664509e-02 -1.221370829764892446e-01 5.110715963501678560e-01
-8.614743769947956487e-02 -8.988934303253559577e-02 4.548533996178849015e-01
-2.571905134343870428e-02 -8.759994733280870860e-02 4.452796457966694543e-01
-8.906202227023472806e-02 -9.916470056822251911e-02 4.537607564931253057e-01
-1.133487710262304216e-02 -1.182624728970410877e-01 4.843008073954568338e-01
-9.062174206715582769e-02 -8.860055351090125042e-02 4.628710911143668061e-01
-2.509591883209922464e-02 -1.202721345556416882e-01 5.040949535461214381e-01
-4.990022199646274026e-02 -1.156155247488694499e-01 5.249356504497025844e-01
-2.907123080352921884e-02 -1.145864131346242265e-01 4.848248682733858339e-01
-3.406504026209780656e-02 -8.875317886734547523e-02 4.442014690416429823e-01
-6.460589395016233527e-02 -1.037472796145139375e-01 4.370921374606764886e-01
8.461802655649127911e-03 -1.269465457804638819e-01 5.223617439811248930e-01
-9.568444767468047008e-02 -1.044427542000678499e-01 4.633162904135652571e-01
-2.942290872354336520e-02 -8.632174913366788549e-02 4.435050265756736998e-01
-5.164774224893089322e-02 -1.157929439901928675e-01 5.029604290359988017e-01
-6.059872799402061042e-03 -1.096537946818390841e-01 4.669870265101127571e-01
-1.794781279586859027e-02 -1.049564982796989260e-01 4.623419694797205048e-01
-3.304815350669751406e-02 -1.140178941830274073e-01 4.845848048122569085e-01
-7.786407066149889089e-02 -9.563386944538941614e-02 4.431394048110903761e-01
-7.465714721456602476e-02 -1.125085629360415840e-01 5.103733588298267065e-01
-8.776752224864139973e-02 -8.762898803127432135e-02 4.597776285023834619e-01
-1.985921848583822175e-02 -9.189598222073652733e-02 4.493578089764944661e-01
-4.382185028278288291e-02 -1.153089525431174461e-01 4.920318733115132681e-01
-2.711105564167743884e-02 -1.188223299714763481e-01 5.378824985567611794e-01
-5.175616997720208085e-02 -9.885035762649675706e-02 4.354593968330672249e-01
-9.626491372777710998e-02 -1.067659284012831694e-01 4.693962469043994057e-01
-3.010279956755760461e-02 -6.510733983450733842e-02 4.380181223870344143e-01
-8.749850018066011870e-02 -1.115226678005982464e-01 4.881871900202019443e-01
-4.640438304481745574e-02 -1.169816382423656820e-01 5.160453325972682581e-01
-5.390941747333636430e-02 -1.156601660997649689e-01 5.189518940776182143e-01
-4.533544460887107413e-02 -1.018847874131498660e-01 4.529076276057804051e-01
-3.421994660615629291e-02 -1.024722282869597739e-01 4.603564000014594426e-01
-4.805049370742807413e-02 -1.149081415197813066e-01 4.921167341980671739e-01
-6.163066210941779005e-02 -1.099814398732076731e-01 4.691680395651509072e-01
-9.299117006474819092e-02 -1.079366412360650146e-01 4.698179168243363790e-01
-6.957635964699994575e-03 -1.226640344105391356e-01 4.960470257564760788e-01
-8.765344846907968668e-02 -1.112921034016705335e-01 4.980371888420417892e-01
-6.805129260438860794e-02 -1.118695885695808190e-01 4.785113692677452346e-01
-4.048406059572896842e-02 -3.940651250127330529e-02 4.361989786789231549e-01
-4.975381970596327863e-02 -8.069815095758099688e-02 4.291741118763294227e-01
-4.718459563892696967e-02 -9.018999753460031632e-02 4.321739088355366354e-01
-3.465591434849023267e-02 -1.187996268809006772e-01 5.229898450607463056e-01
-1.572928695024981491e-02 -1.226078183811583899e-01 5.331833844412910972e-01
-1.135907637536087526e-02 -1.171208255838015050e-01 4.812542586711320292e-01
-1.190689110457382460e-02 -1.232972048754685246e-01 5.345871472624657006e-01
-2.452604746655938708e-02 -1.139354193740689108e-01 4.816814254688183139e-01
-2.767365267729368639e-02 -1.065106907983527362e-01 4.677391274353454031e-01
-9.916211498838201077e-02 -9.709711064364702493e-02 4.656918026448253478e-01
-2.805801359113216029e-02 -8.854606596514411065e-02 4.453787738027073506e-01
-4.259434795030325738e-02 -7.193808783380999106e-02 4.348576633724937635e-01
-6.335294920952638797e-02 -1.145657996017542118e-01 5.021248420466307705e-01
-1.433661414311285763e-02 -1.199414779824617694e-01 4.916511959223029415e-01
-3.591804972888888725e-02 -8.525004696726923292e-02 4.410168612388915554e-01
-2.890178302176135000e-02 -8.221847941002324855e-02 4.417640593209673505e-01
-5.921039853869904807e-02 -1.092406810844731846e-01 4.668102248049798564e-01
-7.795950700864807958e-02 -1.123952901358061807e-01 4.876799735816614856e-01
-6.871493617062637838e-02 -1.132361671429668454e-01 4.915833764259550098e-01
-4.097211950969573135e-02 -9.424164123048711650e-02 4.456056182732862081e-01
-8.332099963063337167e-02 -1.005421299442857963e-01 4.505298038763431157e-01
-3.201651092686906563e-02 -3.991724537651714089e-02 4.381944002921683845e-01
-2.155664106384085760e-02 -7.096409676354736851e-02 4.401075477487522147e-01
-3.855451695865131506e-02 -1.089774763207276703e-01 4.722331258139007559e-01
-8.097825559636122328e-02 -1.080245721268368458e-01 4.630767495668370315e-01
-8.493817682464821495e-02 -8.980979355792975682e-02 4.533100501253982118e-01
-2.829925711680725958e-02 -4.783240283907511103e-02 4.388022129259053217e-01
-3.222653509014958284e-02 -7.412392669274581181e-02 4.383506056006950535e-01
-6.294207311834822127e-02 -1.119087754780603711e-01 4.787135225038137709e-01
-2.753964835680706991e-02 -8.699548943579446525e-02 4.444203609643643249e-01
-4.373010254141491276e-02 -1.166923998174513311e-01 5.011491909783223342e-01
-4.348635314473067032e-02 -4.575777409651182737e-02 4.358716395920181896e-01
-6.413350730114926457e-02 -1.138629263449495999e-01 4.945272749992412620e-01
8.002998709564832988e-03 -1.243489458627273225e-01 5.022444984725733530e-01
-5.148297056900970337e-02 -1.080018177217314107e-01 4.641282573648861098e-01
-3.677946556746770207e-02 -1.179287716628436428e-01 5.288412257913102099e-01
-3.147388323486699502e-02 -1.194694115358924946e-01 5.103546982777668051e-01
