-3.320073289533986144e-02 -1.180876748845558488e-01 5.323346529841936903e-01
-7.175721925132409751e-02 -1.040407001468099946e-01 4.540880509235133422e-01
-8.802684906294870604e-02 -1.101808967357041508e-01 4.994612448713887654e-01
-1.523393261418379448e-02 -1.028551312748129803e-01 4.599188412095309153e-01
-2.797685336086812996e-02 -1.194388138818849865e-01 5.058111315429593136e-01
-2.078569327033754494e-02 -9.292713909873429046e-02 4.513910982973335928e-01
-7.321444468374530001e-02 -1.125926511402772640e-01 4.990739554486604557e-01
-3.629763854488951558e-02 -1.016928169157223782e-01 4.606876803159645761e-01
-1.055662133635342365e-01 -1.041563418575396499e-01 4.968379819343568538e-01
-5.199075254860309470e-02 -3.720936980494668478e-02 4.435216949474024006e-01
-5.795004215075558879e-02 -1.148319710992560805e-01 5.150466889608105170e-01
-5.926865253959781588e-02 -1.020249008501624283e-01 4.402383372693203234e-01
-1.159506688602748511e-02 -6.878800490295720882e-02 4.412083076498933831e-01
-7.205621008868681732e-02 -9.903780577354560910e-02 4.391039362963921611e-01
-4.838184370068417811e-02 -9.872423355019872837e-02 4.463400991210680901e-01
-9.180136716625687809e-02 -1.068843337234633428e-01 4.710642592037216914e-01
-4.439426973510231939e-02 -8.506212548632267889e-02 4.369702198631863488e-01
-2.105004217463268476e-03 -1.254221720926853578e-01 5.322188391293553034e-01
6.536273847891837900e-03 -1.261707418430359218e-01 5.354048157156512389e-01
1.450573261275358422e-04 -9.416612934198409501e-02 4.536963412686804697e-01
-1.606660650178190139e-02 -5.506615297686300037e-02 4.389894717447501704e-01
-6.776031320790949775e-02 -1.057248060597861944e-01 4.586260605124279910e-01
-4.236109287279891250e-02 -2.740646377077096685e-02 4.371584622775049889e-01
-2.772426032706513249e-02 -1.198963108702298941e-01 5.111555679790739104e-01
-2.294778853394994350e-02 -1.169354579708620917e-01 4.912869693233474222e-01
-1.588429326068672293e-02 -1.167680841086289611e-01 4.843659714064585953e-01
-5.170166109628486495e-02 -3.666884907262414617e-02 4.403394574628445302e-01
-5.249220756293716816e-02 -5.744895773365767122e-02 4.342880734737371018e-01
-4.266187841425583827e-02 -9.278834677790687158e-02 4.454629768670222978e-01
1.880262350984872842e-03 -1.256435471832968720e-01 5.070730869078249325e-01
-9.371549819933062270e-03 -1.020197455358806127e-01 4.590972740569680410e-01
-9.522122908462662960e-02 -1.087815933324550871e-01 4.885466758763219453e-01
-8.688396867055553363e-02 -1.049180485303814747e-01 4.627204882447484846e-01
-3.914427172677764633e-02 -9.606884616386256182e-02 4.511621865373423579e-01
1.532193756356698029e-03 -9.979293454507523475e-02 4.585347135009624209e-01
-2.128622463167189824e-02 -1.210537348755821863e-01 5.304069736634938748e-01
-1.301704052431136745e-02 -1.133897336730783217e-01 4.751490896188071411e-01
-3.382849580647778742e-02 -7.718584360520273913e-02 4.398295751058701741e-01
-3.171427116146521147e-02 -9.583647491598028256e-02 4.532620883198917316e-01
-7.679607590661627348e-02 -1.098723364116393486e-01 5.183963690120373391e-01
-1.548095582485010425e-02 -9.596168741540747615e-02 4.536827109084212162e-01
-3.004887216636515507e-02 -1.190836908591647175e-01 5.283890842177639824e-01
-2.947582792944707791e-02 -1.193368087237798580e-01 5.259774365936671359e-01
-7.811629241762124698e-02 -8.853545605776270977e-02 4.441315283640888678e-01
-2.915116933454676637e-02 -4.332559052492905571e-02 4.391486197516323298e-01
-7.304486330539934624e-02 -8.689671239795267177e-02 4.372378420559044909e-01
-3.582839381972499626e-02 -5.498290116731969351e-02 4.373134937096216923e-01
-3.006892797514870708e-02 -4.752965980163583598e-02 4.388810419105569349e-01
-2.181718004486793427e-02 -1.176927605607626798e-01 4.929850506487022943e-01
-1.166891638492376093e-02 -5.944827717288733715e-02 4.392115242879687242e-01
-7.331566806770067717e-03 -1.057540782717730776e-01 4.630798902210797041e-01
-8.115180210433681207e-02 -9.587773572793646670e-02 4.465962603032171963e-01
-4.519576164152842163e-02 -1.133509901810362541e-01 4.885053485086435221e-01
-7.140434047556046271e-02 -9.856634212908008119e-02 4.376327761014863205e-01
-9.043466895973822917e-03 -1.247781933841443647e-01 5.119037695197540261e-01
-5.269632218165727633e-02 -1.102723968556715145e-01 4.764038104229583181e-01
-9.968591265569613780e-02 -1.059150506717803919e-01 4.781224245976412046e-01
-2.763267005461910938e-02 -6.609255456301990628e-02 4.391099271836676476e-01
-2.066106745594449914e-02 -1.206271482583966270e-01 5.356581696899112011e-01
-9.014479057048556399e-02 -1.088364058742297968e-01 4.774418119337692223e-01
-2.588255728843003728e-02 -9.253229508395123537e-02 4.512809372524405616e-01
-4.952908885524082150e-02 -4.609296637857915324e-02 4.372333029877053523e-01
-3.379815345547868694e-02 -1.188224694793388603e-01 5.180105985030158955e-01
-8.538519071749148259e-02 -1.068307760098687748e-01 5.171672144134329407e-01
-4.050990992755965081e-02 -1.034549080581403518e-01 4.616354578299091127e-01
-7.840467957815953903e-02 -1.111149850023658570e-01 5.086978702897005933e-01
-5.368224498232904845e-02 -6.007783284021950970e-02 4.336641726622416648e-01
-9.538148841729406080e-02 -1.064949562849351467e-01 4.733335257120917516e-01
-2.527830692994903483e-02 -1.203479371848632934e-01 5.094998868739084585e-01
-6.760649993350097142e-02 -1.133581729276136180e-01 5.099117928758115648e-01
-6.722874543212006837e-02 -1.133935668252597506e-01 5.103296557781515919e-01
-4.867731510188259836e-02 -8.528940357543761397e-02 4.323289678081952414e-01
-7.172043038406297755e-02 -8.679035607776915129e-02 4.354713855295159752e-01
-2.529520584713823572e-02 -5.508114067545965414e-02 4.385748407054250730e-01
-5.437055408328916872e-02 -1.151737436669070247e-01 5.184596683016927665e-01
1.439214166802953252e-03 -1.262421033088150235e-01 5.321610733793969983e-01
-4.174876021410761640e-02 -1.170898342287934324e-01 5.089322726476551706e-01
-1.996344096630579823e-02 -1.092208965893893408e-01 4.711670884398252990e-01
4.216379678450191126e-03 -1.270706493347035504e-01 5.207902643322606107e-01
-2.378775750567739891e-02 -1.125979441134982301e-01 4.792976951371040184e-01
-7.758847806605216613e-02 -1.114360265780555553e-01 4.904995079938969660e-01
-6.072059078632680712e-02 -8.841799001917341472e-02 4.248119341271309746e-01
-1.002455391381974897e-01 -1.070318795019612745e-01 4.993198348703482559e-01
-2.859027699119772239e-02 -5.583342626337516740e-02 4.384956103493257151e-01
-2.168380020153577725e-02 -8.849621782893662969e-02 4.474724466236267295e-01
-1.385530242634022344e-02 -8.472934305831564261e-02 4.463310120942798331e-01
-3.483324762132420510e-02 -6.123825960028467935e-02 4.378526580751448405e-01
-3.904432928986262957e-02 -9.632436493162722935e-02 4.514993164411734705e-01
-7.228988145658918341e-02 -1.056127412245356917e-01 4.583841071622988816e-01
-2.753025034301066765e-02 -1.200204484994922133e-01 5.196598580952938029e-01
-7.050971659797931890e-02 -1.091546288628155309e-01 4.718816062220026475e-01
-3.410759153017732526e-02 -8.039267992888769754e-02 4.406487658196466262e-01
-7.112125563421239915e-02 -1.128227340892461045e-01 5.084176509401652222e-01
-2.938087129768691963e-02 -7.854622529279511878e-02 4.412670929977522416e-01
-5.222524478440691842e-02 -4.200272558138137130e-02 4.424654386278892293e-01
-4.112161058801125368e-02 -1.147835660620577375e-01 4.921335376734734535e-01
-7.139134154924854647e-02 -1.127988740348293828e-01 5.081020978659996912e-01
-6.930943901106435823e-02 -1.129252992530661304e-01 5.112021943387331513e-01
-4.431287231291854839e-02 -8.979183715283545197e-02 4.416816852900435908e-01
-5.795106991976880367e-02 -1.016840381075141825e-01 4.403354687382365351e-01
-3.757004026213774800e-02 -1.114924462958092888e-01 4.811100144566455294e-01
-9.140490275786970764e-02 -1.087681990034433110e-01 4.787645897833343600e-01
-2.849998763721732151e-02 -1.197669784484701738e-01 5.133329164410149748e-01
-3.434264656988461617e-02 -1.044691040316178404e-01 4.654532636059764417e-01
-4.085521862868075199e-02 -1.006944709635845259e-01 4.571386235207712256e-01
-6.379175741047526937e-02 -1.131781085742012138e-01 4.967608905680745424e-01
5.358558867883909949e-04 -1.268817591341886430e-01 5.249984784496847245e-01
-4.169553436288445103e-02 -1.147438135802948955e-01 4.921209297210200062e-01
-5.218011307140898482e-04 -1.018283548684768974e-01 4.599931911861053768e-01
-1.033669742305334260e-01 -9.441247867027989515e-02 4.737818410787342227e-01
-3.240103570848545944e-02 -1.141133780646088336e-01 4.866064072861469580e-01
-1.826032157696058991e-02 -1.219475534011911916e-01 5.305656386663946122e-01
-2.936018185677494868e-02 -1.042708857565658037e-01 4.660211125630357443e-01
-4.598408163288117412e-02 -6.685650358568086260e-02 4.341998141930334398e-01
-7.018449802428596007e-02 -1.128842994307211328e-01 4.994541735843613939e-01
-6.242232754066090461e-02 -9.730521596436143839e-02 4.251397122923951111e-01
-1.530546695329700578e-02 -1.234370367231621829e-01 5.150089890893304601e-01
-5.650011410782686261e-02 -1.026325419313119380e-01 4.482094124694002146e-01
-7.631915064695733719e-02 -1.113723237668020755e-01 4.881483791546724071e-01
-6.986124915204725006e-02 -9.612444909635356471e-02 4.327806405506181009e-01
-4.810648327227429188e-02 -9.163664330324194918e-02 4.359020148481381196e-01
-5.341037499199856320e-02 -1.137242874101446338e-01 4.922577260537811528e-01
-6.080155346056768592e-03 -1.048312256389240943e-01 4.623690093077069130e-01
-1.890361461109000066e-02 -1.105423263429665542e-01 4.732013972393901424e-01
-4.785172909887202425e-02 -9.105104007934393395e-02 4.357093575686435960e-01
-2.195927331986978481e-02 -8.073593359996385221e-02 4.435068891110074407e-01
-2.934203496806684491e-02 -1.082200157816604752e-01 4.722946679147408955e-01
-6.243630755813716487e-02 -1.029271186723945131e-01 4.453794047472181550e-01
-3.413485697280672915e-02 -1.166730163866034481e-01 5.393237477204116948e-01
-8.337937704661145533e-02 -9.063384912602026611e-02 4.493958483842409035e-01
8.687121755259133785e-03 -1.266542512220341921e-01 5.333800901799192751e-01
-4.086806356006004309e-03 -1.069085757146601978e-01 4.646887739599488976e-01
-1.074871233276270405e-01 -9.901931153559011267e-02 4.833387786098478633e-01
-4.387816489438493839e-02 -5.349756487920587222e-02 4.364159116012476525e-01
-2.624684624449636489e-02 -1.198786025926316251e-01 5.064205004901966012e-01
-5.204731770139897629e-02 -8.457910374967132772e-02 4.292423072369793147e-01
-2.026669880658961420e-02 -1.214566788830969968e-01 5.074829081585258139e-01
-4.545856439131921306e-02 -9.095749962346548478e-02 4.414626147381795485e-01
-4.402273965211072476e-02 -9.312626325623460377e-02 4.446471632764424919e-01
-7.409063979173494130e-02 -1.024083639336575008e-01 4.506196231296594190e-01
-4.638731499209032549e-02 -3.536529369823547542e-02 4.372618693152408587e-01
-5.914838698712868159e-02 -1.104503328396951312e-01 4.765578185928071031e-01
-5.284125466735925536e-02 -4.687094582533785775e-02 4.406685772902653730e-01
-4.483313269156437991e-02 -1.164509165145997394e-01 5.068137400505959844e-01
-6.156006112658703872e-02 -1.068039230282569613e-01 4.631718188017039384e-01
-3.995838672229625604e-02 -1.126719497897405581e-01 4.852040138110130241e-01
-4.278736831575216670e-02 -1.158787822613402407e-01 4.975978572555358470e-01
-3.602986641773395227e-02 -1.060103031639031274e-01 4.680328564084924037e-01
-7.565098845663512095e-02 -1.090187413724326843e-01 4.710328755922871258e-01
-4.818590508221125973e-02 -7.722800922471545482e-02 4.325032091261293843e-01
-3.454854602419642207e-02 -1.063155168233910763e-01 4.687403368643270340e-01
-3.220653815926145108e-02 -1.180648681397033078e-01 5.008426646738134425e-01
-5.125577472316419220e-02 -1.143897400000455089e-01 5.280945857584140590e-01
-3.253860442815166565e-02 -1.187395943757987293e-01 5.075545423751661733e-01
-5.427560795688834983e-02 -1.055251570398310912e-01 4.606111425016908290e-01
-3.002149929108516302e-02 -8.606559251353348983e-02 4.445421212515160425e-01
-7.154381044558003055e-02 -1.072577375537710348e-01 4.634539953320983563e-01
-3.298562319105436541e-02 -6.014597264737842064e-02 4.380065957038372648e-01
-1.061201158989865390e-01 -1.031511722975985146e-01 4.965828297647636447e-01
-4.471794429570708634e-02 -8.739454031702525993e-02 4.381797989341232324e-01
-2.005073213458405043e-02 -1.094268138577787763e-01 4.715893025910361525e-01
-6.031087848991250472e-02 -1.144729287967176934e-01 5.140317495249273616e-01
-1.038207984050675409e-01 -1.050007211787903211e-01 4.854715052840670730e-01
-7.775024519363328557e-02 -8.973050805291690746e-02 4.427905468846783377e-01
-5.743145718514994919e-02 -1.070841342057694962e-01 4.649363377944680797e-01
-2.234456352706608306e-02 -1.208236477798224073e-01 5.297590464453212356e-01
-6.816843562554328328e-02 -1.046656648248619204e-01 4.554045275616336874e-01
-6.002903296495944174e-02 -8.029532515019717487e-02 4.273870633352474524e-01
-1.821085396051417768e-02 -7.689148278042028106e-02 4.425083940907241220e-01
-1.347608646449319908e-02 -9.292127842495792600e-02 4.509883410817696059e-01
-7.774224593512676917e-02 -1.030582789836528568e-01 4.534638283923179136e-01
-8.660350260254150168e-02 -1.102018295636823103e-01 4.855510611803285914e-01
-5.440540006220444952e-02 -1.051574305843496204e-01 4.595850385116279635e-01
-3.311556144683025504e-02 -1.167095584065664937e-01 4.951298834654134784e-01
-4.559080306407475858e-02 -1.020890694100358292e-01 4.566603404829716051e-01
-5.099105376616866470e-02 -1.150046051654418228e-01 5.248869927527718415e-01
-3.831086339442309890e-02 -3.027934029641275379e-02 4.371569993640032070e-01
-1.867085261145366021e-02 -1.075925568168313168e-01 4.677068309954757197e-01
-8.711820220169094742e-02 -1.104987988101600593e-01 4.900292972307676576e-01
-4.749645996098353362e-02 -1.131286264097974559e-01 4.879722801525877562e-01
-8.950364236563271292e-03 -1.250640230251180984e-01 5.165038067931624344e-01
-6.057333566338547054e-02 -1.028969848875262993e-01 4.429984718628771634e-01
-1.047063724269876317e-01 -9.910874140592317028e-02 4.754940490835551925e-01
2.991673380076877338e-03 -1.130916874711630632e-01 4.737570677055345514e-01
-9.184989012126248964e-03 -1.166022463744525728e-01 4.796526838300685380e-01
-3.974618810281001224e-02 -3.386311099151885495e-02 4.367299464416314891e-01
-7.357773970776692284e-03 -1.237360314292335339e-01 5.347995395817313202e-01
-8.764001336730888048e-02 -1.016151689741081193e-01 4.567405095167696438e-01
-2.905880342727339138e-02 -8.946430946402887663e-02 4.476287846340188947e-01
-4.484855879401240808e-02 -7.510920931667244838e-02 4.350460113885204483e-01
-4.175190435142995399e-02 -7.986267206647534866e-02 4.371789973479647817e-01
-1.764222190255840261e-02 -1.157060710590832459e-01 4.833385689950365216e-01
-2.901899705798305709e-02 -1.194445448416712324e-01 5.089898646184302100e-01
-5.603560420338558196e-02 -1.041747768865540075e-01 4.552565970281372554e-01
-3.578146455527995290e-02 -3.741380238849433687e-02 4.369875933609019825e-01
1.037471335706028827e-04 -1.267891965005002730e-01 5.256245463318834910e-01
-2.744689877908431871e-02 -1.130307001294520580e-01 4.814438315500298993e-01
-6.488587333036453797e-02 -1.135798670067833249e-01 5.162374317870974672e-01
-8.598777096948570509e-02 -1.106750141183553832e-01 4.921567749393079838e-01
-5.941760945557333223e-02 -1.128144467268457629e-01 4.897161326606909726e-01
-5.520786068412885522e-02 -6.005430958555539600e-02 4.351620429004612323e-01
-5.446895377230449864e-02 -1.012523687263199024e-01 4.437423225344576116e-01
-2.682389319523914573e-02 -4.440794646936364887e-02 4.394651189288262261e-01
-5.623624299765386803e-02 -1.145757499984889072e-01 5.020452191939350772e-01
-5.408024399929245440e-02 -9.638482710177852242e-02 4.327597568929089089e-01
-5.205646352889279488e-02 -9.289239286215031366e-02 4.313930987698912367e-01
-6.043852911476068485e-02 -1.141751100553729803e-01 5.186875621325200969e-01
-3.910312338713005376e-02 -8.266509989153367211e-02 4.396181407927943763e-01
-1.018603080273816630e-02 -1.247486227677579718e-01 5.161946094325907675e-01
-3.366485030989548391e-03 -1.232664688234963446e-01 4.982473314244795226e-01
-6.165833558075486942e-02 -1.065929768580355652e-01 4.624055884169699371e-01
-3.745509351667099252e-02 -1.179533342736364260e-01 5.096519017736538260e-01
-1.794230080846777320e-02 -1.226280546115989384e-01 5.116005590255304769e-01
-2.314227232606917359e-02 -6.735906493270198137e-02 4.398462185768934329e-01
-3.562360922885737802e-02 -6.055757223230085612e-02 4.376982874571214155e-01
-2.571735048115187522e-02 -1.202448538620173035e-01 5.247937359419677650e-01
-5.657349822766070957e-02 -7.658340723398705807e-02 4.285303076384201493e-01
-5.849194307721602981e-02 -1.148114525493677401e-01 5.131213916034780276e-01
-7.887991634693480858e-02 -9.844639543402387838e-02 4.457024314345771066e-01
-2.024060107948564766e-02 -1.210968691099631733e-01 5.339160904512660899e-01
-2.779081310837144478e-02 -7.319227511405797248e-02 4.400805667461489823e-01
-9.294591989223743855e-02 -1.086183378500073377e-01 4.803119870617486575e-01
-5.475856237493369888e-02 -1.151205280001208614e-01 5.185361723041465032e-01
-8.864417952876540996e-02 -1.093404923063960726e-01 5.043224885105248578e-01
-8.456696095880060493e-02 -1.102665509814680506e-01 5.043859644236017292e-01
-3.237879755172233531e-02 -4.372085127222603146e-02 4.384920429185134583e-01
-3.603668748562086077e-02 -8.381266349828682405e-02 4.417563756845548362e-01
-2.351089441016590217e-02 -6.750670090388981304e-02 4.398188390579172991e-01
-2.546114536218576849e-02 -6.100679889352775970e-02 4.389085694969314111e-01
-4.020285982970421383e-03 -1.253609154452104135e-01 5.083501194812592994e-01
-1.260464109307813524e-02 -1.131611231876262641e-01 4.744746279227394781e-01
-7.820753150310059965e-02 -1.021527723554859768e-01 4.517421884486023109e-01
-5.596048554338746428e-02 -8.746689306713377465e-02 4.259491859202140240e-01
-5.358940975883141888e-02 -8.587033362907822709e-02 4.278954461773554208e-01
-9.632501039427397715e-02 -1.086521737096294293e-01 4.942668341543892674e-01
-8.941796171345045563e-02 -8.972212081622463198e-02 4.580795599237802440e-01
-7.903716081254265335e-02 -1.030836405327206495e-01 4.540973339524460584e-01
-4.985201871260213496e-02 -1.022868181917202524e-01 4.541561674305608087e-01
-5.568740108743559791e-02 -1.147407016531296620e-01 5.035250767117084303e-01
-3.316238955038831870e-02 -9.102907328796019937e-02 4.478379069322963035e-01
-5.117849933410334451e-02 -1.041749779939689785e-01 4.581943568708577996e-01
-6.383255586271827098e-03 -1.093104466920549744e-01 4.672493316620515702e-01
-2.536930006263429446e-02 -1.062422946373456772e-01 4.676212239291256956e-01
-9.514229085590455992e-02 -1.089416089208401217e-01 4.946368172911787542e-01
-1.047529678131663561e-01 -1.030577912590895512e-01 4.824440966357705363e-01
-9.657936897034091750e-02 -9.517412062449273624e-02 4.629099276824372167e-01
-2.321234172516161657e-03 -1.087048455253203511e-01 4.667541459656330272e-01
9.494209643865336029e-04 -1.264937712797211122e-01 5.130584941741195282e-01
-3.034153230598544970e-02 -1.191109543372067814e-01 5.265658210805823636e-01
-1.199257026685338762e-02 -5.372148470475790472e-02 4.385554386923674053e-01
-1.472670525917639181e-02 -9.531999274718963577e-02 4.531502453078508075e-01
-3.153384635006481473e-02 -5.405577986203369961e-02 4.381260565401653428e-01
-5.062511111237878725e-02 -9.613128336767143289e-02 4.393755593529709014e-01
-3.978358167551482999e-02 -9.559324626805923431e-02 4.502843536211893483e-01
-4.061378293500183395e-02 -9.750352224795423572e-02 4.519336457939482354e-01
-4.839762000864963887e-02 -9.873569839727419639e-02 4.463451259318890196e-01
-2.812534834950046816e-02 -1.052179472609466454e-01 4.670882630093757260e-01
-1.796676936874799096e-02 -6.787689966166662869e-02 4.405324644712337867e-01
-3.659012934721294491e-02 -1.183245733324744531e-01 5.180697189075004205e-01
-7.053805928898977673e-02 -1.114503112960038705e-01 5.197310997505633079e-01
-5.818640163021189353e-03 -1.220122015346961908e-01 4.945840837484166141e-01
-2.879934078059998709e-02 -9.270376204327138159e-02 4.509712804258147467e-01
-9.979058611959280845e-02 -9.921019811101240704e-02 4.664705815186230287e-01
-5.153156609681937630e-03 -1.259131372964620299e-01 5.211398620918202829e-01
-1.577728170031369309e-02 -1.233381186512735317e-01 5.139377406654473956e-01
-1.907864838979303479e-02 -9.113330213557861714e-02 4.494439620720984685e-01
-5.156990605923723880e-02 -1.135743838707039127e-01 5.302846771855158625e-01
-1.052288328308308291e-01 -1.022258052189830430e-01 4.812242052072748244e-01
-6.436713981373898275e-02 -1.128416473424249666e-01 4.930719462450922630e-01
-9.664901763023141246e-02 -1.060804813396016288e-01 4.734112473277784505e-01
-4.486586010833757548e-02 -8.751644756846689577e-02 4.379891008095297411e-01
-4.874244358806795879e-02 -6.140278786952475809e-02 4.337802964920133841e-01
-4.440763977941868806e-02 -8.637933462222643910e-02 4.378537939737511264e-01
-8.924474259551395949e-02 -1.100038206509692668e-01 4.992781251068660886e-01
-1.611336294751312612e-02 -6.274221949996178216e-02 4.397459997628234141e-01
-6.330312667473748933e-02 -1.129477202759512355e-01 4.936384815664142112e-01
-6.806835124773358281e-02 -1.112514068876948731e-01 4.832980407864861938e-01
-5.388487031812375788e-02 -6.927695271721573400e-02 4.306656235461444049e-01
-3.654441690331877626e-03 -9.778358192295762141e-02 4.564104637220501304e-01
-3.992273238099244836e-02 -9.476680919513362500e-02 4.492956266235163532e-01
-8.751901731796853101e-02 -1.010694012651319196e-01 4.559510671762944667e-01
-8.460609051100287381e-02 -8.585407893598004381e-02 4.550454351576048162e-01
-6.981059664167131584e-02 -1.024927843822510953e-01 4.484894843787279872e-01
-3.277589227514741271e-02 -1.185732498745679514e-01 5.268485930580164567e-01
-5.515997308578755171e-02 -1.015477577228100364e-01 4.435035483779533050e-01
-7.029449818317457313e-03 -8.261812813711771897e-02 4.465506041100709145e-01
-3.943762949209189683e-02 -6.317347856071763024e-02 4.368589155625086651e-01
9.073840679305179499e-03 -1.270106439359951211e-01 5.249282524232140590e-01
-5.194486710764638360e-02 -3.051195517604229218e-02 4.440875460420705689e-01
-3.748433843373787100e-02 -1.181313856042146559e-01 5.185894283551544248e-01
-8.677793439259300426e-03 -9.958928809392693371e-02 4.571163643147579947e-01
-6.419307552962353822e-03 -1.178344838641369602e-01 4.820012544396505283e-01
-3.545692285746032679e-02 -9.104075021199029005e-02 4.474335021912125288e-01
-8.657826727081943674e-02 -1.088335304896594635e-01 4.739460618165335370e-01
-2.828216684356566965e-02 -3.303713086539335209e-02 4.389550062904165051e-01
-3.220773294003927145e-02 -4.704824971167707870e-02 4.383976948837484677e-01
-4.538325811720822500e-02 -1.022390354547515895e-01 4.570338583073009220e-01
-3.686114360731172768e-02 -1.048397160442056802e-01 4.655634443762505792e-01
1.189904669124559888e-04 -1.266604961680146690e-01 5.148858184965048324e-01
-7.906593788423182945e-02 -1.111856630681803820e-01 4.875057556696480998e-01
-9.488771228481143738e-02 -1.089260104208810143e-01 4.984893600545826087e-01
-1.827992195778873133e-02 -1.086567558040767018e-01 4.694084058879346433e-01
-9.608050937305890812e-03 -1.211929539362788938e-01 4.937018614207954181e-01
-1.297257345664606931e-02 -9.767132384720880744e-02 4.550772636990830233e-01
-3.729249661269890687e-02 -9.182484735755097605e-02 4.475451805393125815e-01
-5.065605350035732451e-02 -9.678224325340734069e-02 4.406065443866483133e-01
-7.549574412327483830e-02 -8.713506625325280475e-02 4.407699591357510105e-01
-2.039685256699143995e-02 -1.215014229243345928e-01 5.264873829269088867e-01
-1.329365618659256003e-02 -7.695722325187527579e-02 4.433341267763473148e-01
-5.415807680237794131e-02 -1.036386848944157724e-01 4.550262866573238085e-01
-9.474986994921955064e-03 -8.594138255188447928e-02 4.473936321114954651e-01
-6.351894380878669866e-02 -1.046118048693773644e-01 4.546980165791793538e-01
-4.873099724241471142e-02 -1.146906218427348745e-01 4.957657196270444100e-01
-4.536878979747083901e-02 -1.116618944189931573e-01 4.830334352894923855e-01
-2.408342737008023829e-02 -1.206834708549172214e-01 5.100333428552936699e-01
-1.035708175049384477e-02 -6.009375453698580921e-02 4.392600074898270757e-01
-2.213742997444834507e-03 -1.229382187485624639e-01 4.967115691211914097e-01
-5.810299811218740118e-02 -1.141562794978567275e-01 4.991412676554511929e-01
-3.853931746136386727e-02 -8.383101668014314445e-02 4.407025100249836735e-01
-1.003867516460251602e-01 -1.045396481572759828e-01 4.737434926442682936e-01
-3.325738882542574049e-02 -1.184597779142663038e-01 5.270779923265729305e-01
-4.945172013742649836e-02 -9.399817769535402656e-02 4.369940769181771545e-01
-5.792961495176007086e-02 -9.050937517128983256e-02 4.251588210388641542e-01
-2.398383388766636357e-02 -5.721169303733821682e-02 4.385423300677426806e-01
-5.254677875653152724e-02 -1.017540636650830915e-01 4.498661351011031262e-01
-9.962988681584283857e-02 -9.976962128883222480e-02 4.663898172551056431e-01
-2.788692101479603100e-02 -4.011953785088232666e-02 4.393674921267741174e-01
-9.539326791317158383e-02 -1.088864658648504152e-01 4.942543350006511904e-01
-4.258854642055670547e-02 -1.163138827519104024e-01 5.288929876923001983e-01
-9.973716792127293104e-03 -7.993697989586025232e-02 4.450463982714819577e-01
-8.556261199376241633e-02 -1.075689579303632654e-01 4.690240407976171699e-01
-8.218996067508928249e-02 -1.096515625507646780e-01 4.756105493584963373e-01
-5.186193793388692991e-02 -9.798825746592021435e-02 4.407340811155113780e-01
-4.401599687225168922e-02 -1.045818374037691956e-01 4.619910338050227105e-01
-1.666827291826436866e-02 -1.116119444803293365e-01 4.738206494598717344e-01
-8.290514756877487290e-02 -1.093007889495283824e-01 4.737758426853598270e-01
-4.020503567859184252e-02 -2.948678100010771255e-02 4.369982337613965706e-01
-3.261738820119688964e-02 -1.186863120323905646e-01 5.253518430673627115e-01
-8.827419240540440408e-04 -1.231778755363118483e-01 4.972763993105857594e-01
-7.552978435598087237e-02 -1.038145901970344148e-01 4.546726289056456927e-01
-7.349412538120869698e-02 -1.024714460847499092e-01 4.505249733426879843e-01
-5.189357890995348332e-02 -4.621581217800038721e-02 4.377742268836893325e-01
-1.713894371743604830e-02 -1.054158041896600811e-01 4.635124130989195512e-01
-1.198326156453206198e-02 -8.313209707455632147e-02 4.458970440181993511e-01
-6.974548211178110968e-02 -1.126561943258306137e-01 5.146464538601959182e-01
-4.606191555181296526e-02 -7.581961951805335498e-02 4.343008807649343939e-01
-3.572540195219350845e-02 -1.037277098370786577e-01 4.639813493195863447e-01
-1.011315157503304418e-01 -1.049168666707427505e-01 4.768318459440671897e-01
-9.552589820713125457e-02 -1.079345695984348652e-01 4.800023602079655505e-01
-2.011928391451473647e-02 -1.181101923751101540e-01 4.922390218495479863e-01
-7.594769557098052237e-02 -1.069610563212519128e-01 4.633056930975519294e-01
-1.618949795170813999e-02 -1.220613476987598145e-01 5.047232839689432815e-01
-8.160571172096187098e-02 -1.099202940481129737e-01 4.769832409332229739e-01
-5.978259366951534787e-02 -1.134336065600688864e-01 5.234377132794192367e-01
-5.558536084852212095e-02 -9.195575260878356694e-02 4.271335960685515021e-01
-8.432771253863220740e-02 -9.937090552257929477e-02 4.523991370436814541e-01
-9.789867349292951174e-03 -1.191938899148408809e-01 4.875537341998628094e-01
-5.314128925239822859e-02 -1.154351411638827180e-01 5.099921539337923804e-01
-7.660022568030878942e-02 -9.787535115859308243e-02 4.430905000496061508e-01
-2.940396775679576455e-02 -1.196447402122865350e-01 5.168010336433660479e-01
-2.937050450414348257e-02 -1.189861334035476059e-01 5.323176173059677163e-01
-4.900838769954585922e-02 -1.150421945204237739e-01 5.280030443577546917e-01
-9.877244092800060993e-02 -1.078550625737170893e-01 4.975969673513794267e-01
-2.309034302601994416e-03 -1.141926253000612040e-01 4.748067067635972638e-01
-4.642728881169213423e-02 -7.978030678526652764e-02 4.340142392234030422e-01
-8.826283875332102680e-04 -1.045075217460611078e-01 4.625586564051721861e-01
-6.198247281287565941e-02 -1.031345602652770505e-01 4.489964714231299281e-01
-9.638279149862997996e-02 -9.003762917114979669e-02 4.679783203045682072e-01
-6.387563400152879156e-02 -8.588072613512401365e-02 4.259348411795251810e-01
-3.227866509757400248e-02 -8.673632521673428630e-02 4.445213873045659181e-01
-4.989299609822016313e-02 -1.141128993057411722e-01 4.928733179629375960e-01
-8.415780280538026625e-02 -1.102315437497752848e-01 4.819281381055059432e-01
-1.148588015854103833e-02 -9.009003657856436142e-02 4.492584269051858592e-01
-2.881501214749881273e-02 -4.271419353039230399e-02 4.392186311881844940e-01
8.455472855624130042e-04 -1.181663433032943411e-01 4.831023433180667848e-01
-1.046565355798723812e-02 -7.105299991970788487e-02 4.418631673442225960e-01
-6.301707733691500057e-02 -1.080250162339051467e-01 4.671548428591360547e-01
-8.160269850428070182e-02 -1.080153681909452601e-01 5.185111818101326708e-01
-3.575395212566552516e-02 -1.097814642848718436e-01 4.759324673513880555e-01
-1.270153812223112459e-02 -1.240917898547071740e-01 5.163599194453999397e-01
-4.948838721278580460e-02 -1.151768208114014036e-01 5.263092327344723875e-01
-8.611818061419998505e-02 -1.105698472934125293e-01 4.964364830012731877e-01
-1.995716714444390957e-02 -9.962584230590655621e-02 4.581990754138546285e-01
-9.852716526810700870e-02 -9.495136529414528737e-02 4.656188006909047772e-01
-2.741846892583541320e-02 -1.016661441115559589e-01 4.620195194349641654e-01
5.385400243171486676e-03 -1.256532284443054037e-01 5.085918411419499963e-01
-7.119378310977446389e-02 -1.038008228294579616e-01 4.531437313395429434e-01
-3.784178493657268383e-02 -3.540349290696508805e-02 4.368385551883828821e-01
-8.968064040084301747e-02 -1.100021688516667345e-01 4.891570088950767392e-01
-2.014767612405198027e-02 -1.145785583402692265e-01 4.824217749881379302e-01
-4.386367073887337958e-02 -1.167691263412593689e-01 5.095161349960821706e-01
-6.837661882946149960e-02 -1.115984023185410956e-01 4.863738691844129436e-01
-7.180968192960815455e-02 -9.381513531450860754e-02 4.340779590283996292e-01
-2.287980363149067983e-02 -9.969855684541992225e-02 4.588279990246899587e-01
-8.019833011617875929e-02 -1.089635195485421509e-01 5.166609817731764309e-01
-7.029718257929664510e-03 -1.186398564579878023e-01 4.845585586095186303e-01
-8.069871017122330625e-02 -1.110381145023905947e-01 4.877799789027288391e-01
-7.099407656609381390e-02 -1.115984015182751310e-01 5.184472567696202239e-01
-3.902318584661283035e-02 -1.007548432483952733e-01 4.580750385779139289e-01
-4.086467400225335389e-02 -3.763851361749294411e-02 4.365292130871838427e-01
-7.930743508259126273e-02 -9.421010030376346378e-02 4.450265657478852388e-01
-4.172592511833082829e-02 -1.044374421073099302e-01 4.626931607103366706e-01
-5.340511863736278897e-02 -9.943452120299414720e-02 4.404361420471020749e-01
-6.266981700759609655e-03 -1.018268674935450396e-01 4.594900399679022196e-01
-2.985623305691595397e-02 -1.195315456429850154e-01 5.168352578791615137e-01
6.589634824832005244e-03 -1.262284375523652635e-01 5.351017093627656873e-01
-8.494770535336065853e-03 -1.239129377443214247e-01 5.048369471034399592e-01
-7.023259261757551497e-02 -1.118031375161231133e-01 5.184264770545767842e-01
-1.388294251842209226e-02 -1.234392146038008481e-01 5.104639728217206240e-01
-2.941693875083987650e-02 -1.196167681679450451e-01 5.159938485476576187e-01
-2.270444296819950150e-02 -1.174680071648565999e-01 4.931410089867745428e-01
-5.235719403304839314e-02 -8.371289303312802466e-02 4.289172909085224861e-01
-7.825317394135685931e-03 -8.553846337069580252e-02 4.476014398908868541e-01
-5.978559409260422730e-02 -1.145714115234436753e-01 5.085969072591608464e-01
1.513243087503111798e-03 -1.007057838704669694e-01 4.592527776666988637e-01
-3.329916740585951718e-02 -4.347263408831331805e-02 4.382197368451151154e-01
-2.849484146270388207e-02 -1.156783181125155824e-01 4.903255739494244425e-01
-6.848030650234622485e-02 -1.087111153854459361e-01 4.694689190793752132e-01
-8.837579480692056566e-02 -1.021736637971161210e-01 4.582135423739199798e-01
-8.949652549744299690e-02 -9.307397185487951974e-02 4.556926449488893915e-01
-9.615910707518715572e-02 -1.051943432529018480e-01 4.695171443964858415e-01
-7.021543349474589080e-02 -1.129104984759893987e-01 4.998628680213690889e-01
-1.858270375498785598e-02 -1.223407156494814851e-01 5.210875707698101600e-01
-4.197805447786619876e-02 -1.074863429471539789e-01 4.696419293150386198e-01
-6.570019368486208766e-02 -1.027327228851730584e-01 4.481738781703266672e-01
-7.959672789257406234e-02 -9.225120077100996963e-02 4.447916531601817103e-01
-9.701406238506442986e-05 -1.268003827928577132e-01 5.246198725671393781e-01
-2.612752056943912563e-02 -1.204180255634663133e-01 5.175656724427032396e-01
-1.854166944934532504e-02 -1.022051840790708793e-01 4.599279902060098291e-01
-5.097462428180975225e-02 -2.710989021761512144e-02 4.399616867673349918e-01
-1.017655642387277209e-01 -1.022750788946001077e-01 4.728202059277523128e-01
-1.533942758872979158e-02 -1.125444927675880585e-01 4.748922086410118926e-01
-4.060018109781017050e-03 -1.213879332357071794e-01 4.923107887106899505e-01
-2.957941342733777859e-02 -6.806486945980746994e-02 4.389550573263878985e-01
-5.640166616565742835e-02 -1.052871138586217031e-01 4.594097285960534460e-01
-5.495114836554539084e-02 -1.110875374363182455e-01 4.802861198791470443e-01
-4.615121829766982015e-02 -1.089047113008775741e-01 4.728591091846520711e-01
-3.309940471169012244e-02 -1.021185316918096359e-01 4.620650906427214433e-01
-4.363536093597188137e-02 -1.092388519760040810e-01 4.749083823359632195e-01
-3.585774259161204902e-02 -4.705796153814507943e-02 4.373510725935994548e-01
-2.001697435172346273e-02 -6.979006242031109142e-02 4.407273410562820848e-01
-4.507154160838402340e-02 -9.032908116008037114e-02 4.413485059086953433e-01
-7.054182781540455083e-02 -1.115302785848710926e-01 4.869279484965160498e-01
-7.166096037545893749e-03 -1.255233657968360950e-01 5.153652528913705844e-01
-1.538904351884291984e-02 -5.819122617650567680e-02 4.392843272539783683e-01
-6.844757814487344161e-02 -9.585707906237417308e-02 4.307260161833275647e-01
-4.615927376076112837e-02 -9.001371697661036952e-02 4.382986483805566547e-01
-4.929219798109989170e-02 -1.148092303822650928e-01 4.967597370010313762e-01
-2.870964847243569901e-02 -4.634863764522337282e-02 4.391252037640561157e-01
-1.847777122484736342e-02 -1.167591531216867068e-01 4.866958531548150613e-01
-4.649564177413288701e-02 -3.132453295493432821e-02 4.373527531928814160e-01
-3.083331501582921297e-02 -1.189089201453286532e-01 5.059767138496912287e-01
-6.477257941728085423e-03 -1.233227221022259457e-01 4.997556495564841605e-01
2.818833306522225760e-03 -1.254911060016316859e-01 5.067197685060897960e-01
-1.673539640841873594e-02 -9.400957777840344975e-02 4.519864389758497802e-01
-2.086878734484751835e-02 -3.976406861527819608e-02 4.393181789754947442e-01
-7.742082835290382825e-02 -1.091709353034467783e-01 4.716777901985612087e-01
-2.696041022592311417e-02 -8.212369190363119631e-02 4.432553277905675326e-01
-3.657683852134219205e-02 -7.879374004917366614e-02 4.396410815780635306e-01
-5.044265048108022981e-02 -1.094478862917502154e-01 4.732101044981948390e-01
-9.840227159334621887e-02 -9.868427406392597800e-02 4.631430350372173765e-01
2.489522787455398286e-03 -1.007708258263581014e-01 4.593718270319368524e-01
-3.074364397122632958e-02 -1.170128400311682138e-01 5.408687809459935547e-01
-5.370325830654914395e-02 -1.143146344491124955e-01 5.250165232861261355e-01
-5.964263505570734612e-03 -8.621927134883491939e-02 4.483565737114474370e-01
6.162578049967164240e-03 -1.255089202716779817e-01 5.082106464404557711e-01
-4.275354788318688759e-02 -1.105655102491936576e-01 4.794688362177540464e-01
-7.040566632934940061e-02 -8.728690959223631141e-02 4.334126552643401409e-01
8.335680673100649696e-03 -1.268902174365609814e-01 5.228876993382655103e-01
-5.552236080621846676e-02 -1.139371248143546678e-01 5.252895811118986069e-01
9.885672124190938645e-03 -1.271334130043065003e-01 5.299729129081600654e-01
-9.176602172973419291e-03 -8.692473184461284308e-02 4.479190140183141877e-01
-4.968943570799369547e-02 -1.147423941601404956e-01 5.283377063627211490e-01
-5.137168067564767959e-02 -9.614573848968463454e-02 4.376202412462412705e-01
-8.239464667830266598e-02 -1.001683165005464726e-01 4.507476142468156421e-01
-2.460568556940658305e-03 -1.185783645997861707e-01 4.838985911517664218e-01
-5.312862600390355280e-03 -8.633026768727529443e-02 4.485625019418950643e-01
-9.098879781904017916e-02 -1.048862371959624895e-01 4.645560983893624596e-01
-4.605380638897887263e-02 -1.038261197070586839e-01 4.596102413336276005e-01
-6.438313977332142668e-02 -1.029261095873334059e-01 4.489058803778716578e-01
-2.981938737419592006e-02 -8.439195293023242506e-02 4.435454696898918914e-01
-4.326064441172353114e-02 -7.025447732430320502e-02 4.356199121160673760e-01
-8.571701950391599767e-02 -1.098142764901781226e-01 4.798643237149712859e-01
-7.676653317783624364e-02 -1.101371326805006129e-01 4.767931469421750057e-01
-1.234216496675609627e-02 -1.165517917715852975e-01 4.813157205471595423e-01
-9.428945426995881396e-02 -1.077674168482056494e-01 5.048778769987198878e-01
-1.294999678756821558e-02 -1.180778768408895923e-01 4.855587638357637958e-01
-5.362976442611316202e-02 -1.086732009268280424e-01 4.693822756875019042e-01
2.142562158518616401e-03 -1.208698282028618093e-01 4.903331226547117394e-01
-3.543866708595670018e-02 -1.110654778458142894e-01 4.790410823282699737e-01
-4.914392324706431253e-02 -1.160607559146775852e-01 5.163286068096851755e-01
-1.043707897223220826e-01 -1.002772129900392356e-01 4.758551330094798471e-01
-7.962122213073460908e-02 -9.905716800368893904e-02 4.469684802294467962e-01
-9.898128232302458307e-02 -1.025338618115742839e-01 4.676485031175220963e-01
-3.265965959152569709e-02 -4.138600659954144723e-02 4.383525666362254047e-01
-8.381149339134705278e-02 -1.102922912477462547e-01 5.053436852064741025e-01
-6.839770820281050601e-02 -9.642962433614286899e-02 4.310558238876219805e-01
-2.260205855326532370e-02 -7.340780966427205845e-02 4.410931983106420873e-01
-7.687191096411180591e-02 -9.757887559582552328e-02 4.431860269955972265e-01
-4.655601819173056655e-02 -1.158018195607173201e-01 5.022731393082395801e-01
