-6.530821095865627091e-02 -1.128194589574502277e-01 4.958023669719849869e-01
-6.194738317234118469e-02 -1.122973407530075268e-01 4.889721805250310527e-01
-1.515775332653178549e-02 -9.134418542785018025e-02 4.496884595995555012e-01
-5.207187154007626717e-02 -1.149824810942951941e-01 5.029098437711156944e-01
-3.543927635596169634e-02 -1.156016810850979543e-01 4.928671857536882084e-01
-5.391461918557611394e-02 -9.811353993547299035e-02 4.370237812037385261e-01
-3.250248138801999087e-02 -1.186383846233283329e-01 5.258873696658236119e-01
-4.211723927405976869e-02 -1.011591109689504303e-01 4.576886312516771915e-01
-9.886389471893261213e-03 -1.174474775313379404e-01 4.822134147718679653e-01
-9.869077491537979474e-02 -9.147755050333164495e-02 4.696044342412213912e-01
-4.725191523752687861e-02 -1.056940446167763392e-01 4.630404341674873581e-01
-2.987360751123109559e-02 -1.172652136937061274e-01 4.960862111174237365e-01
-4.922310572095743575e-02 -4.076708674819867761e-02 4.380127286588860747e-01
-2.225954809552928293e-02 -1.158085608814386352e-01 4.873245261138846596e-01
-8.114282222172201214e-03 -1.239790926583400066e-01 5.327007105358617656e-01
-9.115022843770942407e-02 -1.080797906174843365e-01 4.751939678722253979e-01
-2.139563527929290443e-02 -1.207949520002953997e-01 5.336231074556716525e-01
-5.054832262939245452e-02 -7.917022801150787326e-02 4.306728528628538388e-01
-2.935263496314904560e-02 -9.774457857560996110e-02 4.565637507613547474e-01
-5.303143247302103541e-02 -1.048060568852153818e-01 4.596598136294996473e-01
-1.088702159140868958e-02 -1.200566499255168590e-01 4.909954129023174629e-01
-9.459572458284613850e-02 -1.021021156789660989e-01 4.630467755977018540e-01
-3.974394395721506795e-02 -1.091994499624654863e-01 4.759383843515132551e-01
-8.399310249790745142e-02 -1.070634831359694727e-01 5.180990370953368895e-01
-2.447965695658876201e-02 -1.196830894716170990e-01 5.024337781766067268e-01
-1.120045450923128939e-02 -9.108995527629029643e-02 4.499599581739591736e-01
-1.221129169783589583e-02 -5.765664285373402892e-02 4.389860519717399545e-01
-6.295625856222923644e-02 -1.130190617222066179e-01 4.960042609703783079e-01
-4.297106316502560114e-02 -8.453098871570449702e-02 4.381755926746919716e-01
-6.775263564147245010e-02 -1.008374870435099768e-01 4.413503772786558921e-01
-4.264056918050963124e-02 -1.171121313485006532e-01 5.182137870098879606e-01
-2.927983585421731205e-02 -1.163427874593148531e-01 4.929574780319801452e-01
-1.536506074740311492e-02 -1.234173173518714334e-01 5.140074856436694928e-01
9.001742099798938287e-04 -1.261443904881981992e-01 5.323241394482349786e-01
-7.938839265961881997e-02 -1.037141456876632672e-01 4.563851355010087874e-01
-5.530010819777872455e-02 -6.956234861650892332e-02 4.308025997122741368e-01
-5.623660899161247312e-02 -6.570654279742257908e-02 4.327690973024609367e-01
-6.229925628198899890e-02 -9.243111684514150606e-02 4.243340162611440314e-01
-4.279963335489057885e-02 -4.498787744873662675e-02 4.363497887176797096e-01
-5.421883107455072182e-02 -1.143277076922339236e-01 5.238571280068838876e-01
-3.430832957476124406e-02 -1.184378020514651880e-01 5.242152457624998929e-01
-2.270334797838634983e-02 -1.077441140368977923e-01 4.697030069411516351e-01
-6.564779942077191011e-02 -9.263113674335350656e-02 4.263337474763158053e-01
-3.937671767939636414e-02 -9.590035902162304116e-02 4.512049517998982240e-01
-2.303013597386261921e-02 -1.145091296844512885e-01 4.841492315563168947e-01
-6.371273791164669409e-02 -1.136809180099664640e-01 5.036811365861302292e-01
-4.812555063327336735e-02 -5.063738167811696056e-02 4.363962126586564683e-01
-2.660608977346092668e-02 -6.065399819192256181e-02 4.388544868022453693e-01
-5.805562172142846034e-02 -1.049254451818302653e-01 4.582614219392517341e-01
-1.142388155700379757e-02 -1.242028859341799268e-01 5.235395129583845231e-01
-8.472864009133093677e-03 -9.094145532510827801e-02 4.503260109504102493e-01
-7.894917976547372040e-02 -1.067047725621874665e-01 4.640594956624914391e-01
-5.372728604457944340e-02 -9.274969938525357005e-02 4.299803720147676311e-01
-2.753273846827751503e-02 -1.194227307284796702e-01 5.048858064369904364e-01
-8.966670694115323748e-02 -1.100696356649092378e-01 4.941645108941356002e-01
-1.564748781559508264e-02 -1.073854331617564301e-01 4.662423024421987749e-01
-3.629637494508503731e-02 -1.139093029103806498e-01 4.879076712037633268e-01
-2.035360067098185635e-02 -1.213793868106510521e-01 5.285621683112279312e-01
-7.571018814107448314e-02 -9.729553002892707414e-02 4.419528875730330819e-01
-5.644983445724614801e-02 -9.035653379136163177e-02 4.266028409008402744e-01
-4.324079429892435655e-02 -1.170244684106642452e-01 5.172290240877487344e-01
-2.041074461690655859e-02 -1.192125744353633582e-01 5.427704703208696690e-01
-5.319806420165480720e-02 -1.152775261564015913e-01 5.177931153634264261e-01
-6.263271344994786327e-02 -1.047128088006078900e-01 4.561133656120478497e-01
-2.078768010177614242e-02 -1.212755449017730996e-01 5.282633744234681572e-01
-5.467367129382170315e-02 -9.999881088533096873e-02 4.390092688695115819e-01
-3.684335088662060026e-02 -1.174787658416738406e-01 5.035477712143830997e-01
-1.113426149067480581e-02 -7.694265433637477447e-02 4.437840870782492342e-01
-8.696704670036038698e-02 -8.783609550548245049e-02 4.564509391019148099e-01
-5.433846458972530630e-02 -1.119154600659635901e-01 4.842180210960915221e-01
-4.914341943506238264e-02 -7.972747359016711666e-02 4.320191215958102404e-01
-3.100456152992727907e-02 -1.072168869746950026e-01 4.710654135690087174e-01
-7.611824216389707909e-03 -8.215742843584690480e-02 4.463315477585395596e-01
-8.402576147317272759e-02 -8.630308797373872909e-02 4.530433976262147611e-01
-9.782026556480798163e-03 -9.667661459068728480e-02 4.545338640177921663e-01
-2.260769289673886934e-02 -1.065746703979175147e-01 4.675104104930406512e-01
-7.016308832689768793e-02 -1.126660064886728790e-01 5.111466046390886753e-01
-4.131068266727704746e-02 -3.310998119510809301e-02 4.367379136987165067e-01
-9.038063552096410602e-02 -8.994598528727161535e-02 4.588704139796634940e-01
-1.773218295362572611e-02 -1.136210834256911328e-01 4.789349867439220421e-01
-6.354532149059377577e-02 -1.126959015601677744e-01 4.923577321471021562e-01
-5.907287372157200150e-02 -1.031896705191343022e-01 4.497329456317054053e-01
-2.648170577203343146e-02 -1.127182680990945068e-01 4.804994817818354358e-01
-3.335064316580042126e-02 -1.122277241936766035e-01 4.817361576634510145e-01
-7.779655943775710958e-02 -1.030330684486344267e-01 4.541296076123508274e-01
-3.577448418037394717e-02 -1.067263838118772817e-01 4.698589310632368399e-01
-1.033813438046283784e-01 -9.810180515474767327e-02 4.731195119623508583e-01
-6.203995338946331067e-02 -1.116071818518224179e-01 4.850149324207169710e-01
-4.131710458983874762e-02 -1.008711586297312973e-01 4.575990695636065753e-01
-9.894629747232742967e-02 -1.015950557224564038e-01 4.668425798653892955e-01
-3.834987828064270743e-02 -9.553320343063131936e-02 4.513583008072195590e-01
-1.624217979931892250e-02 -7.689257873218466321e-02 4.428426710156789792e-01
-1.793228402827434440e-02 -1.098935977824946619e-01 4.717351335463236817e-01
-1.218135769611741921e-02 -1.227705971487215997e-01 5.034297139356987971e-01
-5.483565711201947301e-02 -1.045693707410679657e-01 4.585149394743888718e-01
-8.347062607317466687e-02 -1.085851033160064455e-01 4.719445187936415764e-01
-4.485001058580139616e-02 -1.151683187016352555e-01 4.949042555456295012e-01
-3.116527793415908507e-02 -1.186429595969133999e-01 5.315624833472084587e-01
-1.642327522931505412e-02 -1.223645559000955257e-01 5.321483753591932375e-01
-5.390916119525180489e-02 -1.098483333547621704e-01 4.749435923943091664e-01
-6.380146038706731304e-02 -1.138233098143848210e-01 5.134842180405582157e-01
-1.837902078969266134e-02 -8.022878541909735095e-02 4.438498300206081271e-01
-4.945503541351162907e-02 -8.728880177409474583e-02 4.320566181685647766e-01
-5.119099495592127624e-02 -1.145771048080266724e-01 5.271831093192439477e-01
-1.862151125153821765e-02 -1.132401641941485626e-01 4.786954431278654942e-01
-8.353199501454604270e-02 -1.014459965485950826e-01 4.538424915969180851e-01
-3.989110225013205169e-02 -1.093570633827571498e-01 4.763694522157933542e-01
-1.666558292209110309e-02 -7.500884633750470876e-02 4.421943248862265086e-01
-7.000377063900940777e-02 -9.332652534843748071e-02 4.313819887253355079e-01
-4.562779446758959828e-02 -1.095508986794291595e-01 4.758787808878444103e-01
4.203474813441691188e-04 -9.219524517094412897e-02 4.525377361485251604e-01
1.196090206554499200e-02 -1.261339791042468683e-01 5.173898395187415122e-01
-6.737553275578149481e-02 -1.102996151223608057e-01 4.782027655333008220e-01
-1.392438227235569953e-02 -1.057341460650985526e-01 4.632119193347761787e-01
-1.412660010783574165e-02 -1.074800699380907831e-01 4.658393369392269112e-01
-9.842782995565702020e-02 -9.789080877748958243e-02 4.628264144321760365e-01
-4.291074924582440053e-02 -1.165223023633627925e-01 5.261560167083879636e-01
-3.049062835659093612e-02 -1.038877551843756936e-01 4.656808537717859187e-01
-2.802871633724478284e-02 -8.678307018191494526e-02 4.456149016447537581e-01
-8.994041235184996319e-02 -9.088667756904446338e-02 4.573317699652290069e-01
-9.420807688049720463e-02 -1.079927406710016746e-01 5.038956085812713592e-01
-7.693014289673708039e-02 -9.217387796686701829e-02 4.411234941392938591e-01
-5.426150209525255896e-02 -1.148796967963441745e-01 5.050419793455288575e-01
-9.815708177147455804e-03 -8.564662737893422029e-02 4.472801785808004915e-01
-7.496424071461479932e-02 -9.052695620083550665e-02 4.379472487873069531e-01
-2.356034939458645505e-02 -1.160827739399542258e-01 4.891065283792226381e-01
-1.150451227520811644e-02 -1.238992045915731227e-01 5.300865468916846623e-01
1.203958534575323008e-03 -1.235794789041267244e-01 4.984015618402140579e-01
-8.147695756251793764e-02 -9.364163539787945245e-02 4.465122267288509916e-01
-9.511275367893083643e-02 -9.222451514718772725e-02 4.632543488062397241e-01
-1.810769731711010452e-02 -1.121680900845540702e-01 4.759125987884263997e-01
-8.492674115004757163e-02 -1.087844387783074990e-01 4.737227169460948573e-01
-6.444870398489101204e-02 -1.136557302137254227e-01 5.144265076829399597e-01
-4.851911037155186984e-02 -1.072585453641419495e-01 4.668582775055094003e-01
7.439340888128901166e-03 -1.268174915413593784e-01 5.314037250005980706e-01
-3.238439981212136443e-02 -1.188509625079688520e-01 5.224158191684870056e-01
-6.928752753620702476e-02 -8.859892827945042848e-02 4.311996663005147612e-01
-9.452624164027792833e-03 -9.374748173536773255e-02 4.522073080055767358e-01
-3.782671036900821931e-02 -7.703448472848622997e-02 4.388432596902604454e-01
-8.681836313587934506e-02 -1.097674074207698608e-01 4.833432352304234403e-01
-8.037966066668471299e-02 -1.111416672523920512e-01 4.935182003012394403e-01
-4.521440496325776492e-02 -1.123690152773241663e-01 4.855851950264520878e-01
-5.040368268508810257e-02 -9.691895330659888730e-02 4.422626414001108452e-01
-6.134953015048648373e-02 -1.109436359394778970e-01 4.808813946776358539e-01
1.193663150437364838e-02 -1.264268385507724413e-01 5.197433343588938603e-01
-6.481277645646106589e-02 -1.119395972254656063e-01 4.879501064551079459e-01
-1.052465593274469202e-01 -1.043006735636141519e-01 4.948269505061642648e-01
-1.012593896821689238e-01 -1.040125936198458972e-01 4.745927080679215870e-01
-6.144108131769396297e-02 -9.756137179937976467e-02 4.273774913548454846e-01
-2.578349272083301988e-02 -5.025152438218678796e-02 4.391670555569615053e-01
-8.153421342196566501e-02 -1.101713607096204139e-01 4.801850747956246668e-01
-3.691747598871888275e-02 -1.169408194141648150e-01 5.345604866679021239e-01
-2.258178087324192937e-02 -5.317120140849124904e-02 4.389278406877107908e-01
-3.148899003977116695e-02 -9.331595834762912434e-02 4.510075506200244000e-01
-3.007441939907062878e-02 -6.597908532706464602e-02 4.388255343730168567e-01
-3.487899064470145749e-02 -1.132570996269376823e-01 4.853566887480297298e-01
-1.211743910364141558e-02 -1.097926810698994921e-01 4.690863425544045673e-01
-8.904388929359265126e-02 -1.086755011430470680e-01 5.064064271852374288e-01
-6.476455680076464647e-03 -1.046960333932411558e-01 4.623083122059036265e-01
-4.872500519835740868e-02 -1.121961730135234703e-01 4.849828655325559845e-01
-3.790527522552067374e-02 -1.177934360776742573e-01 5.094884744743715110e-01
-2.499574681849451446e-02 -1.206410125906836606e-01 5.147265894662613750e-01
-8.068748393920928408e-02 -1.107277191898215912e-01 4.849148802944295844e-01
-1.271679512733357893e-04 -1.033617663360514999e-01 4.615813586518777711e-01
-3.181091032448423589e-02 -1.188362920552588631e-01 5.080527585428248338e-01
-3.812985083352420090e-02 -3.687659000870198434e-02 4.367727853811138594e-01
-4.705972879917135615e-02 -1.155179344555447990e-01 5.009506896581589208e-01
-5.391681097521264232e-02 -1.129190651161652709e-01 4.886437218134979110e-01
-6.123640787525403556e-02 -1.026477511348845434e-01 4.419329339988612992e-01
-4.075852640338523819e-02 -9.125274492789864356e-02 4.455509072406039217e-01
-8.047969173194016723e-02 -1.086178880228197974e-01 5.173863339510558212e-01
-3.811225345252951952e-02 -1.179228058084386965e-01 5.134164112479511211e-01
-6.694817245786295612e-02 -1.119887408160338826e-01 4.895791322499716269e-01
-8.028909987932619785e-02 -8.919882467536428827e-02 4.466251565693766246e-01
-4.091367958781504111e-02 -7.610677432677122323e-02 4.368353437604817757e-01
-8.800089421646688226e-02 -9.676964532335752267e-02 4.540795877092915211e-01
-1.318117773116610561e-02 -1.164013010249779073e-01 4.816691430757723547e-01
2.554238832919191425e-03 -1.088424216850291254e-01 4.676961770505838056e-01
-5.616362062951815379e-03 -8.536028709575435580e-02 4.481322162894846861e-01
-2.410267908413015955e-02 -1.153321142380163561e-01 4.873248309116830490e-01
-6.830524263588828859e-02 -1.062386156864531944e-01 4.609144374201384342e-01
-5.100942776347808238e-02 -1.146012187502579022e-01 5.273328853195964339e-01
-4.360854680747975470e-02 -1.020750309887537288e-01 4.583268754640405507e-01
-5.830875769433721545e-02 -1.143841491881174843e-01 5.044053837851496525e-01
-5.526170870068938118e-02 -1.083996453695939971e-01 4.691274511472978137e-01
-6.530557733512849621e-04 -1.159371368786391993e-01 4.780513431734339513e-01
-8.317582647524171535e-02 -1.097220891290935640e-01 4.785349309004376384e-01
-6.587427134985733568e-02 -1.019404419273004375e-01 4.427030627634883642e-01
-2.252883946739588431e-02 -1.202543457963672485e-01 5.032818009909515444e-01
-4.926614319078399806e-02 -1.146617841338028465e-01 5.288428013348744905e-01
-4.805953541274039093e-02 -5.774338466169313955e-02 4.350106776620365490e-01
-5.150245745612549303e-02 -1.023904654432749306e-01 4.537007741562044671e-01
-1.180939212635776989e-02 -9.537566442655953658e-02 4.532904399690960706e-01
-3.070696518274469711e-02 -7.714682120133085907e-02 4.404379845699355478e-01
-5.455797817830047164e-02 -1.039734680708315206e-01 4.567761273489909790e-01
-7.987337774759144249e-02 -1.049753918998481972e-01 4.596969568741397505e-01
-3.456071477480144455e-02 -6.056388904565382370e-02 4.379417078530083995e-01
-6.728073928028437123e-02 -1.134006954242533505e-01 5.077925769444571191e-01
-5.222534638458721512e-02 -1.067627291950682539e-01 4.650236014552648900e-01
-8.080182377718644893e-02 -1.087725433115427909e-01 5.161704398252472403e-01
-3.763087804516008529e-03 -1.241095862407144146e-01 5.356382946869682193e-01
-7.526556649370087781e-02 -9.427401438502766573e-02 4.393430637969212849e-01
-4.051883313131083436e-02 -1.173470906696823246e-01 5.109335035509817713e-01
-1.883870192864701282e-02 -1.216990784706633438e-01 5.314005754414103944e-01
-1.924779952024532545e-02 -1.219196849106275182e-01 5.245959224356074868e-01
-4.028992332415469446e-02 -2.912693149504814311e-02 4.370470616889181592e-01
-3.529469588823315462e-02 -1.184908062536265128e-01 5.185279790559084168e-01
-3.350335107817320034e-03 -1.255105776702895026e-01 5.306782092872758261e-01
-6.866000707419764315e-02 -1.131168909720663279e-01 5.054887669727521349e-01
-7.094306295521933536e-02 -9.000757903775473412e-02 4.326686395258350082e-01
-5.017896264580783139e-02 -9.988731471336986800e-02 4.481532326186659643e-01
-5.645416321258485415e-02 -1.132299048659247132e-01 4.916205819046357561e-01
-3.830851257173097102e-02 -1.071124433734809561e-01 4.700905011725440286e-01
-6.816294468600080092e-02 -1.051173882998344133e-01 4.576740018168998225e-01
-2.702893119696520019e-02 -7.437725196041843068e-02 4.407028345552581050e-01
-5.086848833566639388e-02 -9.598937756997513726e-02 4.395782399036520793e-01
-1.687218330875283473e-02 -1.068018998637546291e-01 4.657470217894854603e-01
-1.414396655106701407e-02 -1.118647508137938923e-01 4.728791826164363554e-01
-5.128185113989653515e-02 -8.625550647238651447e-02 4.303770690480194228e-01
-9.486831521656347022e-02 -1.087319791283670872e-01 5.002928296001901698e-01
-8.876967387038850466e-02 -1.075852255407894614e-01 4.719218635560459285e-01
-5.900488028505881249e-02 -1.075665375354675074e-01 4.669646966739730565e-01
-6.740431852973361067e-03 -9.688554741916961810e-02 4.552440253120553781e-01
-5.256422020803816486e-02 -1.035809707085667969e-01 4.571105834702957060e-01
2.119773658865342636e-03 -1.268334005102240980e-01 5.262406300571087492e-01
-2.642895043778312886e-02 -9.151315795965660194e-02 4.503031036733181613e-01
-3.773577389336897105e-03 -9.201704943612802612e-02 4.518948190185081426e-01
-4.660543966700440160e-02 -1.112783569133372896e-01 4.818466985923379742e-01
-3.687728442194665446e-02 -4.819288783033583851e-02 4.370941023296671668e-01
-5.782872679622783063e-02 -1.145188848907134349e-01 5.056914814178038453e-01
1.217150387552869487e-02 -1.260568503682124031e-01 5.359611840566685936e-01
-5.445140693455581549e-02 -1.150918435207118062e-01 5.182821012220293344e-01
-6.561879711480027300e-02 -1.090279643165364964e-01 4.717945946013823999e-01
-1.151438670513355196e-02 -1.236991771534052403e-01 5.083519297350999055e-01
-2.436321280203053094e-02 -9.821758316234648067e-02 4.574666407601677975e-01
-5.295257473008586901e-02 -1.143844685586604959e-01 4.968662762759099016e-01
-1.858343410212489472e-02 -8.570050772105236581e-02 4.462613678124718319e-01
-8.220294756752924425e-02 -9.561058082849420436e-02 4.474104605905998566e-01
-8.711191397761594568e-02 -8.528253285058499944e-02 4.595010785973673850e-01
-5.185394032239858120e-02 -3.669552225445047583e-02 4.417410910759314580e-01
-3.016429522769067603e-02 -1.148246397279047704e-01 4.884052973211231441e-01
-3.346073209278629251e-02 -1.180141446573363534e-01 5.322572097102166166e-01
-4.215779717772435986e-02 -1.117608886873776020e-01 4.832578585037676788e-01
-4.339668836273189584e-02 -1.046684216618291169e-01 4.627973793676826708e-01
-3.893168997670787800e-03 -9.725716874241079057e-02 4.560233071812816452e-01
-6.003895085957981770e-02 -8.711796834888878294e-02 4.254437768934739572e-01
1.620591241491824153e-03 -1.219964441333999811e-01 4.936489399218988439e-01
-7.455175939758904025e-02 -1.038962365747160693e-01 4.553332774242758729e-01
1.039045583876307965e-02 -1.271065788994825696e-01 5.312335636124726479e-01
-7.201764002861137104e-02 -1.112923158254195688e-01 5.182654329190174991e-01
-3.765525052747152601e-02 -8.878310544464408649e-02 4.450999985377355750e-01
-3.841177969544039283e-02 -1.094786354281165330e-01 4.762724653270300479e-01
-1.547223833192362327e-02 -5.705103596074093814e-02 4.391932037249770548e-01
-7.238400483556697851e-02 -9.582760725416279712e-02 4.364114083611385086e-01
-8.976079541607646928e-02 -9.074702035564723157e-02 4.572298196941271264e-01
-6.602787701245241281e-02 -1.133128163605727767e-01 5.017233692005751422e-01
-2.540083025452184728e-02 -1.183073350174631694e-01 5.413783506166216508e-01
-5.024855523628371512e-02 -9.277795516249713603e-02 4.343344754112065109e-01
-6.973044476220061072e-02 -8.353783077785682798e-02 4.355341626369372277e-01
-1.888155978048633790e-02 -9.335867637919917361e-02 4.516867948804219601e-01
-7.789966912047785463e-02 -1.111456991845778536e-01 4.880744531238934703e-01
2.173017323029032086e-03 -1.119789408392663083e-01 4.720271222951111234e-01
-1.883279150874271959e-02 -9.362718151987128867e-02 4.519372506394486178e-01
-5.949423483329398243e-02 -1.134792852571261945e-01 4.959243121228250617e-01
-3.594138051202437623e-02 -1.149514851541880434e-01 4.909895097737848602e-01
-9.946407557575565050e-02 -1.075483554504031991e-01 4.883648188986509653e-01
-1.206321305589748948e-02 -1.240315103479937009e-01 5.233678556647457514e-01
-6.024272126648996112e-02 -1.141347143928389957e-01 5.041122604033374532e-01
-4.867952217353137961e-02 -1.136271806218280001e-01 4.903680230920404171e-01
-2.164016482341938469e-02 -1.063505606923098867e-01 4.668042321985025889e-01
-4.861589320595485070e-02 -9.216012486248484348e-02 4.364675668273706455e-01
-4.338923456448867677e-02 -1.051493913262557672e-01 4.636642364005559847e-01
-3.291738633686753374e-02 -1.184481550395530824e-01 5.057604472019460173e-01
-1.860193359976431912e-03 -1.241093237505529884e-01 5.009196674014033679e-01
-1.085896824633148655e-02 -9.423236631593864820e-02 4.523225399642994415e-01
-8.941814156981848713e-03 -1.228041968100988673e-01 4.995341054498573241e-01
-2.201959522881740891e-02 -1.070815267629393608e-01 4.682609292003794832e-01
-5.283000995057161170e-02 -7.800364888982053158e-02 4.291602473868018630e-01
-2.487906356042542469e-02 -1.101889986375267083e-01 4.752106139849059940e-01
-3.635767453522068676e-03 -1.036224643920856947e-01 4.616013868239495221e-01
-4.483844509102261761e-02 -1.159375465335490268e-01 5.018967828700603429e-01
-8.750577011599981747e-02 -1.076563815265140223e-01 5.117923912093613747e-01
-8.270939347343761461e-02 -1.018841532226375940e-01 4.543434426145406824e-01
-3.324179859797173064e-02 -1.001003090131058898e-01 4.592413948672474100e-01
-3.340426588826526932e-02 -6.209704197094157579e-02 4.381512660348103605e-01
-5.766602532685965316e-02 -9.696183567523104785e-02 4.301400159721991412e-01
-5.430561659313797029e-02 -1.102655126986573364e-01 4.771959729080451629e-01
-2.823943983774917718e-02 -1.188059903599402167e-01 5.350118351422444851e-01
-9.073633746911402564e-02 -1.064730010031990359e-01 5.123245415264879865e-01
-3.940555017227657247e-02 -8.527390522137649753e-02 4.415059999964219828e-01
-5.464130625372749794e-02 -7.300048990312163477e-02 4.295547268050599055e-01
-6.467564223706133431e-02 -1.023572670299902343e-01 4.466873594961178751e-01
-5.580761779405544326e-02 -1.030328233580856401e-01 4.518327946995171485e-01
-7.071245880696913275e-03 -1.254186816810108906e-01 5.216069925374582361e-01
-5.167727663883046191e-02 -9.019341735670008409e-02 4.308512604070116603e-01
-7.773746831548707104e-02 -9.926545813767684301e-02 4.468421531257973367e-01
-6.355053007854073559e-03 -9.804366827669669382e-02 4.562896012856175187e-01
-2.000888270783010917e-02 -1.134739103602448590e-01 4.801661327142611180e-01
-4.398873700689104327e-02 -1.159968744028433418e-01 5.011878147317363474e-01
-5.020697859569907273e-02 -2.818849284169643032e-02 4.391083886236750167e-01
-9.482900939151091280e-02 -1.019561844626884067e-01 4.629977146119521603e-01
-9.595327516623442660e-03 -1.027632992440119380e-01 4.598243369192000496e-01
-3.596273817338704881e-02 -1.120032762694576633e-01 4.822262241738256017e-01
-2.226845352231748149e-02 -1.148992098463786360e-01 4.847196214818778603e-01
-2.476379849642572351e-02 -1.192638765960585684e-01 5.376737830182185540e-01
-4.861397452786387491e-02 -1.094713147637947637e-01 4.745762567093593787e-01
-6.663923193663641442e-02 -1.023579416011953513e-01 4.478948526180758782e-01
8.567758393249207474e-03 -1.270497753974039190e-01 5.293143256108082673e-01
-2.796702807862360557e-02 -7.337704907324324455e-02 4.402160193547117739e-01
-3.016013262095133471e-02 -1.185289744690114361e-01 5.338462810975074246e-01
-7.693924602068380469e-02 -9.717613700688215728e-02 4.432018493233861323e-01
-5.975553210760420342e-02 -1.143275931592815098e-01 5.181272123227123050e-01
-6.033775828855808543e-02 -1.140808667885578886e-01 5.034049043504986720e-01
-3.869762261713780710e-02 -1.099178900021024891e-01 4.774948676368492295e-01
-4.615499813213158609e-02 -1.164435345308261066e-01 5.114129642032930745e-01
-3.369413946237032054e-02 -3.986634670151224108e-02 4.379814389501507366e-01
-5.241905503139585726e-02 -1.144787578576221543e-01 5.257090471522799513e-01
1.086334238141780490e-04 -1.249006367867021156e-01 5.034117158057587194e-01
-7.456922358472400925e-02 -1.081371439319539218e-01 4.681262326391637529e-01
-4.922173804710493206e-02 -1.160853580059030554e-01 5.135208983767199920e-01
-6.931141395165317520e-02 -1.070029820009750082e-01 4.637636957237466495e-01
-4.288302783729368295e-02 -4.984005783400244360e-02 4.363812947289043565e-01
-6.205452166944511877e-02 -1.105265932804437856e-01 4.778888665453109863e-01
-3.951152987192812355e-02 -1.123901637503177259e-01 4.846769274208178047e-01
1.789076498789552534e-03 -1.245076353472604064e-01 5.016181504417583925e-01
-5.455200442623193285e-02 -8.204290088290099037e-02 4.275947958487815170e-01
-7.290104763437253721e-02 -1.113219108505456023e-01 4.879610292503301361e-01
-7.612899952271945381e-02 -1.011133221926924369e-01 4.494972864317690053e-01
-5.811991894282828031e-02 -1.124283484341996459e-01 5.288006276189274324e-01
-5.183288339148253016e-02 -6.349062270186084378e-02 4.327277668793751975e-01
-6.169324242001924391e-02 -9.763475299218189740e-02 4.280184412047395304e-01
-4.143284645990224363e-02 -1.172576330541560963e-01 5.216007814703387258e-01
-7.034268918143198046e-02 -9.174500490555338728e-02 4.310707991994554567e-01
-2.777760197719601407e-02 -1.196556698207199010e-01 5.265685906831191199e-01
-1.063887995228502137e-01 -9.696644437820094165e-02 4.791014207340381081e-01
-2.839893087295792748e-02 -9.951159327854018632e-02 4.590284292186856407e-01
-8.799927685349881457e-02 -1.066306423362100159e-01 5.142827079365432930e-01
-4.385684332110259542e-02 -8.481158877543897023e-02 4.377126210797686046e-01
-3.604457691215484649e-02 -1.111323545792314571e-01 4.797550641633406276e-01
-8.091665619846671875e-03 -1.247424432282006612e-01 5.099499918776155827e-01
-1.835462157238835004e-02 -1.033892543676056125e-01 4.613411254875790513e-01
-2.661991664271735197e-02 -1.151453591698328172e-01 4.882228040122631452e-01
-1.510299244869239485e-02 -1.149053350869905371e-01 4.798356886418344569e-01
-5.197145564270829604e-02 -1.061615698207763470e-01 4.632949542542348920e-01
-9.526137672291544109e-03 -1.248821111739370909e-01 5.173162882025448273e-01
-1.091140024937086242e-02 -6.817906572581115821e-02 4.412040048164192485e-01
-2.165994271163728183e-02 -8.696537228777823092e-02 4.465827774604980149e-01
-6.137211505591157537e-03 -9.474073731729096282e-02 4.535026824877749774e-01
-1.780243932449361230e-02 -1.037564099515075888e-01 4.616241747855735489e-01
-5.227092245772593099e-02 -1.153403332481794386e-01 5.083751230708718483e-01
-4.881633262767921810e-02 -8.029628229862485755e-02 4.323544652314096903e-01
-6.409607474055112331e-02 -9.892123360355536965e-02 4.306891918899438676e-01
-5.515546643053314407e-02 -6.256771238073981223e-02 4.340731044766457658e-01
-5.078786133847668777e-02 -1.141716094098022827e-01 4.944654731088548028e-01
-3.590942453236312115e-02 -9.875717013627027807e-02 4.567342438261238202e-01
-9.552567899698015397e-02 -1.073368292923973094e-01 4.780257622269075690e-01
-4.069546499594309946e-02 -1.149966725274577245e-01 4.932130703374531522e-01
-1.225979757574071488e-02 -1.241347523530341446e-01 5.190080618518881916e-01
-2.941111129190866411e-02 -1.012613772999511330e-01 4.615304550455114341e-01
-4.343842210891613043e-02 -1.168913953754782548e-01 5.216470229220082633e-01
-2.034267336853549935e-02 -1.218389134986747196e-01 5.208849654360784287e-01
-2.328291518647973221e-02 -7.179395339760581696e-02 4.407324529934284474e-01
-7.157789246044304887e-02 -1.109794615356104741e-01 5.203063054898660056e-01
-5.858228378895942445e-02 -9.980849034198496783e-02 4.347560429682712502e-01
-6.318399986738311436e-02 -1.132389807382286895e-01 5.196685218107366389e-01
-7.521442222307098135e-02 -1.030476955154521618e-01 4.534498339835895120e-01
-2.431485238829414475e-02 -1.166496124694571257e-01 4.918886393190274875e-01
-5.856836597925658972e-02 -8.869199067407762538e-02 4.251665740025119544e-01
-6.868505331659431265e-03 -1.212651299197044369e-01 4.929159636229240027e-01
-2.959185088978647654e-02 -1.191010400868124930e-01 5.292708553555796058e-01
-1.268235101068430903e-02 -1.240928299772716403e-01 5.153856624822449328e-01
-8.666352821050743449e-02 -1.096818233847172142e-01 5.039935370574486484e-01
-2.883776548528311709e-02 -1.135456662963709729e-01 4.836436510971089398e-01
-1.376944463982312204e-02 -1.015905997539022915e-01 4.587558139047526740e-01
-1.468016447417826859e-02 -1.051530324246269521e-01 4.626085881756368812e-01
-2.924321842597564849e-02 -1.049978672948632813e-01 4.673107694089142505e-01
-4.521311088540024004e-02 -9.296759086461620081e-02 4.437702514789133024e-01
-5.225839660427073624e-02 -3.767031429488326699e-02 4.445370819494398607e-01
-6.890516913191137294e-02 -9.064512815248511324e-02 4.298405459750567759e-01
-5.201012212667939505e-02 -2.812248305830417766e-02 4.442305126891890055e-01
2.599054482066090986e-03 -1.099461733379279854e-01 4.691591499453738878e-01
-6.503649981133405311e-02 -9.144946728166625238e-02 4.259577915002200066e-01
-7.083473921676601212e-03 -1.155963529382553201e-01 4.775082981557469131e-01
-2.230521923824706210e-02 -1.034991603197133458e-01 4.630282619894702245e-01
-1.562075400542954455e-02 -6.923463501937994480e-02 4.410494434252874574e-01
8.376619070445512349e-03 -1.267782043759888289e-01 5.220289512888295347e-01
-4.524791644475732039e-02 -7.535036984090583145e-02 4.350749507925665838e-01
7.297815112024323659e-04 -1.223631718954470982e-01 4.947637886875826396e-01
-1.056464717343734705e-01 -1.019163525004972426e-01 4.839825428025464338e-01
-2.984552526733502339e-02 -7.238344682330141722e-02 4.395154534384684841e-01
-3.829367349710110363e-02 -5.615760484901703709e-02 4.371391881423623005e-01
-7.431788276823322881e-02 -9.402140002066813884e-02 4.379258927140583513e-01
-5.142417099329081587e-02 -1.119870662680053780e-01 4.839313387503174635e-01
-2.925231935831981364e-02 -6.008461706849556327e-02 4.385457340733963649e-01
-4.007498552239660214e-04 -1.258407680334622802e-01 5.322379114227512309e-01
-1.060491557999518331e-02 -8.954774934097199657e-02 4.491819235351536821e-01
-3.559932555340711291e-02 -7.946416050794427588e-02 4.403377912287592677e-01
-2.471161132561949109e-02 -1.089755446223905494e-01 4.728382067037247838e-01
-6.081057757975039113e-02 -1.044125944421356172e-01 4.552910859967135848e-01
-7.330305435235447142e-02 -1.015089476695263115e-01 4.479519263841361121e-01
-9.300942934620144709e-03 -6.933643115748071295e-02 4.415447430864209988e-01
-5.273205016395748207e-02 -1.051397989969877211e-01 4.605609334398452215e-01
-2.109017007173614316e-02 -7.934482237268779270e-02 4.432233740449567083e-01
-5.859316509758573377e-02 -1.017583823511293423e-01 4.415628350570708349e-01
-1.007697328067571202e-01 -1.033010466719971182e-01 4.723478716601876015e-01
-3.100899204697824679e-02 -1.190999352449296084e-01 5.223064445020436652e-01
-3.557922570843099347e-02 -5.967951391740676514e-02 4.377506249029484153e-01
-8.391104943363786317e-02 -1.049225871402915261e-01 4.616167759670229409e-01
-4.909352395916684320e-02 -8.293107685143433216e-02 4.322257945845694449e-01
-4.280598536783438574e-02 -5.351914543501246763e-02 4.365073705169599250e-01
-2.394069198174676727e-02 -6.586682765390956817e-02 4.395561585230627344e-01
-3.095468109273854379e-02 -7.387551672942155312e-02 4.396174131503017835e-01
-1.998959794451106442e-02 -5.780255317579942320e-02 4.389604197027068833e-01
-2.376070244815316548e-02 -6.131396592742786172e-02 4.391310798896344569e-01
-5.464924097405022413e-02 -1.114945611528779523e-01 4.827576797465496505e-01
-6.237448229266349259e-02 -9.605965533600337170e-02 4.245299528288876134e-01
-1.223958103952599644e-02 -1.040896891347012632e-01 4.613178955233135370e-01
-2.584568638413471328e-02 -1.198643440454781328e-01 5.306434090683541660e-01
-5.989215988729030410e-02 -1.030002835853620485e-01 4.479969645405059153e-01
-1.565672490028388944e-02 -1.118344343450376477e-01 4.737345509004379784e-01
-4.834620100873259635e-02 -9.045845996658152810e-02 4.347123671320237692e-01
-4.330762777241887324e-02 -8.301594203109648185e-02 4.374896620939646708e-01
-5.118701174397212450e-02 -8.752047526154818624e-02 4.305303961481677932e-01
-6.155826643944164317e-02 -1.027525759789990334e-01 4.449492369780587708e-01
-5.196193142007434623e-02 -4.190151500846367449e-02 4.406042306648598750e-01
-3.241631039661641012e-02 -7.453806614689145738e-02 4.395029830712353092e-01
-8.725104603032446393e-02 -9.650581679326424023e-02 4.535328379148147460e-01
-5.938385964299611186e-02 -9.677321347283902864e-02 4.283258685492085660e-01
-8.873857723286265875e-02 -9.641499011137898145e-02 4.542638689009902420e-01
-3.368984878536103456e-02 -3.593229185101575601e-02 4.376814808004699797e-01
-2.762660526375652209e-02 -1.199559838881770479e-01 5.136748006975009329e-01
-2.931382786181972559e-03 -1.250143600726734139e-01 5.060073908478581739e-01
-1.029614978258918886e-02 -7.799968872676411868e-02 4.443308444333104457e-01
-9.945084573881408929e-02 -1.064819341990001084e-01 5.014413121895762160e-01
-7.281041260178527930e-02 -1.037857817684543216e-01 4.545339487985852744e-01
-3.725261068564246492e-02 -6.300228687847431175e-02 4.374305990349482975e-01
-7.938854268157113925e-02 -1.113977304222985021e-01 4.978351608807711215e-01
-5.432559714057671324e-02 -1.072959235451426824e-01 4.662600815460771764e-01
-2.501710087427122878e-02 -1.091978964558049658e-01 4.733855068978144454e-01
-9.942595490309606709e-02 -1.059081054872001992e-01 5.030658105215237708e-01
-2.382740643964354268e-02 -1.168968324610902138e-01 4.923304346584942426e-01
-2.831680815540824070e-02 -4.719222677723135251e-02 4.391967993328592668e-01
-2.342900942721152374e-02 -8.088765435376985002e-02 4.435456036065751340e-01
-2.166886547133514002e-02 -9.906305033567898433e-02 4.581245545783884654e-01
-2.990198208721004877e-02 -6.001586733285382835e-02 4.384369589986267246e-01
-5.510548479228632307e-02 -9.833216791186590033e-02 4.349269795127549409e-01
-3.352439266153754011e-02 -5.324787048020698105e-02 4.377794815180794386e-01
-2.412001559998497996e-02 -6.856375383221871567e-02 4.400179678873554212e-01
-6.395091849342536550e-02 -1.101007865119241480e-01 4.754717402042646923e-01
-8.211402015395269371e-02 -1.104160001573190469e-01 5.062227772850056429e-01
3.862703492842974647e-03 -1.270602129953345705e-01 5.198291106788283100e-01
-4.582488870689514077e-02 -5.945998876455466792e-02 4.350165693025447866e-01
-4.435494993287672494e-02 -1.012687265015544125e-01 4.565325696235426611e-01
9.032792719141306825e-03 -1.269596700087883834e-01 5.314196766810282968e-01
-3.056597531689001293e-02 -1.184393977897437583e-01 5.337981801948442628e-01
-2.271913161187176511e-02 -1.203682551023317476e-01 5.340866671339070670e-01
-2.069505488873217211e-02 -1.215333259928189358e-01 5.098849833681839971e-01
-1.162969574954646895e-02 -1.234891655101606339e-01 5.328504269476086463e-01
-6.781548157366742990e-02 -1.122272821931500214e-01 5.191475201635410430e-01
-2.527469492990122232e-02 -1.197744913938730144e-01 5.334508299046588631e-01
-5.595788924710057982e-02 -1.017334269930082746e-01 4.453731502682710119e-01
-5.771468241857530962e-02 -1.128886205600256321e-01 4.901698694594497363e-01
-6.271635617088849868e-02 -1.019077207418817993e-01 4.350385077624967511e-01
-5.483932311255325376e-02 -8.653159093213298736e-02 4.271664218272307467e-01
-7.357018289941620603e-02 -1.114648483441897792e-01 4.898541297923439397e-01
-5.920287862579338284e-02 -1.074226415602531348e-01 4.664657725892402129e-01
-1.737842517137515655e-02 -1.226491064308348339e-01 5.110045087699525146e-01
-6.602106519280516450e-02 -1.121302654456049902e-01 4.897725731720568021e-01
-6.345728614167650550e-02 -8.234499559268304569e-02 4.290258119371923029e-01
-8.285027848745300794e-02 -1.053331276706152009e-01 4.622155284066525871e-01
-7.932729882122457887e-02 -1.021441239312092381e-01 4.529143372370529330e-01
2.178622691027547967e-03 -9.825930987236149161e-02 4.574405509465282460e-01
-4.504163148019569435e-02 -3.754433787997285554e-02 4.368714261499151430e-01
-9.860955928018586003e-02 -1.079546194711261953e-01 4.916532615317327770e-01
-6.587900282907019345e-02 -1.050924386356977824e-01 4.579789393948180409e-01
-1.013891152479834967e-01 -1.065960924576596636e-01 4.852407099756949060e-01
-7.491517762928122381e-02 -1.120351369817698395e-01 5.061580022633778153e-01
-3.157832439035576297e-03 -1.069269125804153120e-01 4.649168805028051077e-01
-3.678679184577616362e-02 -5.863787863250655846e-02 4.375131811053685760e-01
-1.019760712817391855e-02 -1.212350721790161345e-01 4.941984274328232729e-01
-3.385273545290608255e-02 -5.394244940123076731e-02 4.376412824459813278e-01
-1.166113196513580454e-02 -1.146578454673622405e-01 4.769802832811452786e-01
-7.687432278858018220e-02 -1.100210482847826243e-01 5.172783556884278378e-01
-4.668717235172121366e-02 -6.669134264834707115e-02 4.340802201366060209e-01
-3.950649916035662776e-03 -1.037037190930553271e-01 4.616666193876674540e-01
-2.491336378800864879e-02 -1.206046274735468188e-01 5.123644667918594298e-01
-5.303054618674069021e-02 -9.351468316683199389e-02 4.314341621525843440e-01
-2.310273567497696679e-03 -1.262453714179515574e-01 5.269828539298876402e-01
-2.928008221458316615e-02 -1.195842895916580800e-01 5.191533578146778627e-01
-2.917434299629554154e-02 -9.735030904778978200e-02 4.561488887902218625e-01
-8.990427703683381844e-02 -1.086686457462999050e-01 5.057641177181564363e-01
-4.418239037580327933e-02 -1.164127522567171419e-01 5.248971282712675546e-01
-5.114867441732081493e-02 -1.127199873779206746e-01 4.868269497306138560e-01
-1.959844005340460882e-02 -6.217375778432849415e-02 4.395011688771999214e-01
-9.106826515817292855e-02 -9.120266707695055819e-02 4.584580825015753258e-01
-1.649837165353628191e-02 -1.230423796785489049e-01 5.124341193093145952e-01
-1.947165125661041302e-02 -7.827737777669271924e-02 4.430004627104015547e-01
-3.245710207739246206e-02 -5.267936713174537627e-02 4.380884446944679489e-01
-4.477837403286160506e-02 -1.105341838737637500e-01 4.795719404956560461e-01
-7.825615466106122797e-02 -1.099564044992376172e-01 4.771703404864084397e-01
