-2.233577436917751763e-02 -1.192186121026437562e-01 4.988056626904374680e-01
-1.899962976862670447e-02 -1.223165991361207100e-01 5.148454355506593139e-01
-2.566328487031870748e-02 -6.800582910841981854e-02 4.400016310972770239e-01
3.372349828217680381e-04 -1.261922018186368566e-01 5.109017725506993512e-01
-2.346350093358244224e-02 -1.070611426360431051e-01 4.692583690631102478e-01
-5.049421915170505815e-02 -1.024692493726305914e-01 4.570252603507941602e-01
-2.800076276820365195e-02 -6.133926115206839169e-02 4.390358572315682384e-01
-2.118116231124318218e-03 -1.176352360754452653e-01 4.821536958954087959e-01
-9.592024124501613569e-02 -8.773194798179048681e-02 4.694063288613541385e-01
-5.560237872521148900e-02 -5.979764416924613496e-02 4.355790239417356990e-01
-3.999552503972383932e-02 -5.226394098246011505e-02 4.370231884453215643e-01
-5.534087619281171516e-02 -9.425229064476652041e-02 4.315627764464014526e-01
-2.623661254073334989e-02 -1.097112142348072861e-01 4.752473026846896209e-01
-3.159904433080924085e-02 -1.164581381438006269e-01 5.417080872945304604e-01
-7.205750787520834311e-02 -1.117511931515588197e-01 5.140765226425704215e-01
-3.928134253324608999e-02 -3.708148714315576133e-02 4.367925583080378149e-01
-9.108090899254595030e-02 -1.064866094146290354e-01 5.113352504793826636e-01
-7.682888826743563063e-03 -1.163245390821574937e-01 4.793477774958479487e-01
-2.374440823891016059e-02 -1.069314095183653557e-01 4.691139473704820095e-01
-7.216860967811822292e-02 -1.102183333164551415e-01 4.821588791435219012e-01
-7.260351120730715313e-02 -1.015741945124669643e-01 4.509715273836250593e-01
-4.174957408934871356e-02 -8.245132574187950814e-02 4.390670548921039584e-01
-4.726778054915686117e-02 -2.937766163748590717e-02 4.377842602300687780e-01
-8.660993681684381329e-02 -1.095965274228088149e-01 5.011675089391192106e-01
-8.378358193786718255e-02 -1.079960763945107399e-01 4.727905400682914649e-01
-3.260209231748002062e-02 -8.839801584516455979e-02 4.466988065979896061e-01
5.472089012669743152e-03 -1.269168970812232233e-01 5.213050941743828659e-01
-2.477772156875159351e-02 -5.328239044381916784e-02 4.389977969081173548e-01
-7.709075670725567229e-03 -1.232148559920468872e-01 5.011496893098917882e-01
-8.333697916062753064e-02 -9.964345510750578783e-02 4.525379215742748040e-01
-4.697464643159111886e-02 -3.495534250325202374e-02 4.376167223648763094e-01
-6.530434550458578957e-02 -1.123347921224629870e-01 4.950977113170335620e-01
-8.433751290056236416e-02 -8.492082226364310038e-02 4.541831645828620645e-01
-2.246805535177042595e-02 -1.103921192595331557e-01 4.751285193723791545e-01
-9.928656385441586574e-02 -1.052241028699038849e-01 4.784561049468918359e-01
-3.205494987513917565e-02 -8.575525034841997851e-02 4.447595345669088096e-01
-1.560862432514589782e-02 -6.026158769753876820e-02 4.397411014609447499e-01
-2.278707124199284492e-02 -1.209567569002637233e-01 5.230644743089304383e-01
-4.796780980067880118e-02 -7.385606967787747279e-02 4.336481615170976189e-01
-6.397982385407058326e-02 -9.682032056616814153e-02 4.302426403540980382e-01
-3.373194073216275596e-02 -3.804618643789232230e-02 4.380509638439386011e-01
-8.353384634248632590e-02 -8.916406310285901471e-02 4.500119892677124089e-01
-6.421948908976521896e-03 -1.236231822660406182e-01 5.357809433445347436e-01
-6.821761578407815885e-02 -9.902238825634876451e-02 4.370750659341237077e-01
-3.294519983517231465e-02 -1.132100011125943551e-01 4.852608860715685868e-01
-5.760324556791329709e-02 -1.145416582679468914e-01 5.149790536462290902e-01
-1.341187600351816979e-02 -7.368626076324975849e-02 4.426432521904358763e-01
-4.608842293412374058e-02 -4.327376753682972421e-02 4.369098335118559717e-01
-8.785370504046194351e-03 -7.214404860676094933e-02 4.427199485939755652e-01
-2.595365821633462827e-02 -7.620368079761140334e-02 4.420045203917107313e-01
-4.718952646200899603e-02 -5.345872676220017605e-02 4.365692562988045533e-01
-5.177844654573560829e-02 -4.056221537958065032e-02 4.391995347287062090e-01
-8.428746152341543008e-02 -8.464309409565516640e-02 4.543941531445367388e-01
-3.851238108144947048e-02 -4.351383775820865524e-02 4.370040988666631376e-01
-2.606579187100217798e-02 -1.154434855081891698e-01 4.897662571258306619e-01
-5.149466258593604628e-02 -3.184884586795828920e-02 4.407764486463298104e-01
-6.006938621431862080e-02 -1.064339607645256591e-01 4.654365660583399955e-01
-1.078005563974017283e-01 -9.873660470542174050e-02 4.868769565668749078e-01
-2.518631108057451176e-02 -1.201099478250840652e-01 5.273657009147351138e-01
-1.550346565820251432e-02 -9.204117109683138120e-02 4.507023023058956412e-01
-3.064331124368176520e-02 -4.922825996580556390e-02 4.389716357268630964e-01
-7.373027538411668080e-02 -1.099592564945383738e-01 4.804749016120274940e-01
-8.856456597160101973e-02 -1.091682169945768638e-01 4.863111405377946173e-01
-1.460090414760370145e-02 -1.012888431543737255e-01 4.588808246178608941e-01
-4.444942985157344234e-02 -1.059512520638405952e-01 4.663172514740504537e-01
-4.966803799626805238e-02 -1.134314784246027996e-01 4.916350598791243143e-01
-7.326781571435071749e-02 -1.059863974972783535e-01 4.628965662698655281e-01
-3.376849871027397254e-02 -3.542023949116714088e-02 4.377588154987438473e-01
-6.277470721514505358e-02 -9.201817406804188582e-02 4.251384079080464118e-01
-3.516622295344787319e-02 -1.181772705130949702e-01 5.096989444438816408e-01
-2.629062588589221872e-02 -1.140449244669407836e-01 4.855353072452712193e-01
-2.817029107738415819e-02 -1.189354519683891165e-01 5.337698586369372666e-01
-2.463661348830322242e-02 -4.726140470872698673e-02 4.396899479141530009e-01
-5.196934418524979532e-02 -3.529552945930051339e-02 4.413243977073361135e-01
-3.487447406556613144e-02 -1.148582725150015804e-01 4.912089828364825106e-01
-9.740314301938363117e-02 -1.016462549480087740e-01 4.657697556222338831e-01
-1.854877850055360045e-02 -1.180748394214938685e-01 4.907435548118944668e-01
5.588009496266808582e-03 -1.250897397297041080e-01 5.065579415728166390e-01
-4.784033559495558946e-02 -5.611158619627492489e-02 4.357454025951018051e-01
-4.149188591970036366e-02 -1.061891880856062759e-01 4.681564719092652371e-01
-7.011417747291504021e-02 -1.122609714006663206e-01 4.990699565872738219e-01
-4.539094295829557146e-02 -1.047672038054126564e-01 4.635682623834322946e-01
-4.735361903308409059e-02 -1.161079297475709066e-01 5.131644416677850762e-01
-9.695094201589141147e-02 -9.045762916906693873e-02 4.672979679573443512e-01
-8.227096733815869589e-02 -1.085261997911749487e-01 5.142094511816498459e-01
-8.007569825866003160e-03 -1.202459915101570520e-01 4.907220492026307945e-01
-4.157242387797623756e-02 -1.159859594824872858e-01 5.311169159451809563e-01
-1.925947532534463824e-02 -6.804472622090509959e-02 4.407804947455595812e-01
-6.566673313229909326e-02 -1.057542694078793810e-01 4.627607499588566320e-01
-3.828620792211616386e-02 -8.503825430700169552e-02 4.427782762148977924e-01
-6.574633906939146566e-02 -1.088974401152073140e-01 4.739292947247015775e-01
-8.425340410595286156e-02 -1.030896187547616777e-01 4.597324897897105411e-01
-2.501515023083621114e-02 -1.195807932860041556e-01 5.347268267714335721e-01
-6.990609173629327988e-02 -1.018007881575371393e-01 4.501552694137982980e-01
-7.301992720824682093e-02 -1.079242850886173444e-01 4.705786015688374069e-01
-3.051360199670602458e-03 -1.165922310673264406e-01 4.796672264145537823e-01
-9.635248592836386655e-03 -1.118935472102417783e-01 4.720043080130320035e-01
-6.975809210807237815e-02 -8.884306736404470883e-02 4.314332073603405204e-01
-3.706864468476153696e-02 -9.082351311856345921e-02 4.479652886757143349e-01
-2.671711398227391565e-02 -5.805708729684685987e-02 4.387848313495544827e-01
2.333397532344808067e-04 -1.267419249585260144e-01 5.260538578640099328e-01
-5.046460664311779032e-02 -8.232190229132246850e-02 4.319093657408537013e-01
-2.595528251616071105e-02 -1.203083785949087270e-01 5.181467713862020208e-01
-7.732601597487327727e-02 -8.898397285959215586e-02 4.416380429378390926e-01
-6.273959129536720025e-02 -1.045604708218925566e-01 4.586690044616741346e-01
-8.104360167921302593e-02 -1.105146535566406962e-01 4.924993216251743466e-01
-1.823928769508001077e-02 -1.194444855669804795e-01 5.440774693952964425e-01
-4.725174428934003634e-02 -1.159082705589287582e-01 5.095075873817357381e-01
-1.239220415573777725e-02 -1.176604775066111275e-01 4.847377455854245953e-01
-3.745878385937779359e-02 -4.423271108104885607e-02 4.372316250376768187e-01
-5.064894047894537288e-02 -1.082792032068584931e-01 4.714977418848481094e-01
-4.631440650541247817e-02 -9.996337909417106482e-02 4.542811037546629627e-01
3.611523461431605762e-04 -1.149792669744129220e-01 4.767864342949637568e-01
-9.667025965075055904e-02 -1.077280358219687290e-01 4.896641840313704641e-01
-5.586723589716216000e-04 -1.155272966287192032e-01 4.776505223024798408e-01
-9.598739046338836123e-02 -1.077270784962932326e-01 4.871887614493871088e-01
-6.142971248076466856e-02 -1.002380133123708106e-01 4.357887224727840514e-01
-9.708804831535187974e-02 -1.076855607703167822e-01 4.905133023630768863e-01
-7.612602704808063558e-02 -1.049188898668944464e-01 4.604964741060157962e-01
-4.545814826207228432e-02 -9.104379040845664295e-02 4.433249011540170148e-01
-8.109518428343090446e-02 -1.100534810684990067e-01 5.079941521866468968e-01
-4.761743835180246021e-02 -6.079951117980925135e-02 4.347197477624385464e-01
-4.884572259666689759e-02 -4.293238934794181560e-02 4.376101356750795590e-01
-1.292497157020717699e-02 -1.229932372469294682e-01 5.338707919179824790e-01
-3.671427081248444801e-02 -7.807828670912134172e-02 4.401747961495035555e-01
-2.612338552495575145e-02 -1.110467368166390689e-01 4.776907779254065400e-01
-4.771055340921585147e-02 -1.135799858367916720e-01 4.916418215201295294e-01
-4.066293809029790374e-02 -1.167799252913615943e-01 5.265728319462558149e-01
-8.667011148533169951e-02 -1.089633390817268260e-01 5.060930121650314417e-01
-2.123281614743736251e-02 -4.815199836466284300e-02 4.394566826221814049e-01
-1.050435885791809049e-01 -1.045528915233858019e-01 4.987648817896260245e-01
-5.300765987055397477e-02 -7.081661192001630079e-02 4.309476378658187445e-01
-7.125593430499096992e-02 -1.112077553508806216e-01 4.906177760507060559e-01
-4.515031709376019636e-02 -9.371595456455092399e-02 4.457551869001719069e-01
-6.509434798260368971e-02 -9.262301344155392246e-02 4.261130606564268453e-01
-2.130148990185951399e-02 -1.046708935287993109e-01 4.646413011504073043e-01
-4.455740561794530041e-02 -1.065403187255731104e-01 4.681229454718836558e-01
-9.609111028197932225e-02 -9.994461936127498058e-02 4.632258050025513940e-01
-4.360998715572177165e-02 -1.100755436598789549e-01 4.798844950895318484e-01
-5.491940912377550610e-02 -1.120739454733726687e-01 4.866504302887340039e-01
-1.574439894415801885e-02 -1.231288477429942768e-01 5.198461275251151648e-01
-3.572119187697922471e-02 -1.164887621261003897e-01 4.978991041348341251e-01
-5.830458473226332594e-02 -1.114972394102920483e-01 4.849774106715065147e-01
-3.008299188324502216e-02 -9.541913833967870240e-02 4.543434448353160793e-01
-8.141994056996640361e-02 -8.820769333531157386e-02 4.482636008766959224e-01
-6.331961457601857635e-02 -1.136646917318266253e-01 5.090231126883770774e-01
-4.459416056851577687e-02 -5.592562584039437179e-02 4.363495768996913382e-01
-9.017021375747695522e-02 -8.791747368700587872e-02 4.601020827416203995e-01
-2.953151797479017238e-02 -9.561475782689329850e-02 4.547500349904137207e-01
-4.320199225621381214e-03 -8.249859531068927387e-02 4.473100913997640204e-01
-1.662493228386065225e-02 -1.214509253259150739e-01 5.029265603284570618e-01
-7.566045697106438261e-02 -8.774875339288309983e-02 4.395949612367579529e-01
-6.001015448796069574e-02 -8.970114237551454761e-02 4.256683288540719090e-01
-1.057774460661988075e-01 -1.035463348182059373e-01 4.987848447484046766e-01
-7.962328904342191871e-02 -8.999725071439697299e-02 4.449165318343672459e-01
-2.304873271541603430e-02 -1.064411814134060275e-01 4.679899497116999929e-01
-4.385765198894128747e-02 -1.159265378125469148e-01 5.031181219078008082e-01
-7.070222780852597477e-02 -9.332377555681230230e-02 4.328108685978999670e-01
-9.652482112309153373e-02 -1.059481993156695390e-01 5.066744881074277673e-01
-3.639503462180243565e-02 -1.085331634898649839e-01 4.743597631940406067e-01
-1.824118403591026057e-03 -1.210627027169726699e-01 4.916389058383951460e-01
-6.365539200828768118e-02 -1.127591193733620267e-01 5.204991929824459573e-01
-7.238209453388934345e-02 -1.086099111511645982e-01 4.737278437287459343e-01
-1.528382795825252924e-02 -1.221182346968036486e-01 5.356938070301977550e-01
-4.018318977293307975e-02 -9.977510418870294551e-02 4.575941665776551148e-01
-1.045687191084110901e-01 -1.039254649724742907e-01 4.871269659970471344e-01
-3.957543718625045753e-02 -3.242781606945134565e-02 4.370078191714871774e-01
-4.188678850445735902e-02 -1.165362344474462353e-01 5.265272019534502634e-01
-6.201991053897728395e-02 -1.015190064240532597e-01 4.376834611463857327e-01
-2.861552532830346010e-02 -1.056301010769865323e-01 4.687115201630253636e-01
-9.010705820282148559e-02 -1.061851303084940107e-01 4.710851325578523929e-01
-1.725735628891231915e-02 -7.389337417346936165e-02 4.421520745942912334e-01
-3.433706794201326490e-02 -1.177941964939568237e-01 5.038439796628907397e-01
-4.310035309650742108e-02 -1.020261950062041345e-01 4.598125984040751790e-01
-4.262668114046894163e-02 -3.461899783311871148e-02 4.367249060003294825e-01
-4.612559680838407283e-02 -5.245634182442378279e-02 4.367591000123174916e-01
-1.063344258306206103e-01 -1.017168303232668658e-01 4.880978204726498793e-01
-1.898663099654248135e-02 -1.199340730157135021e-01 4.984457834879983951e-01
-6.349204388217101480e-02 -1.041000122956448060e-01 4.567957651180125644e-01
-9.984078957430060977e-03 -1.202210993036571945e-01 4.915507433773370072e-01
-3.457895412583046613e-02 -9.909212809643812292e-02 4.583819561697690670e-01
-4.078137943005020333e-02 -1.170689875980307632e-01 5.238541731034165316e-01
-5.115177455457736028e-02 -4.717939190944209216e-02 4.377286352967736383e-01
-1.823757422486418922e-02 -1.087207109154341433e-01 4.701334906826473703e-01
-7.113003925526294180e-02 -1.116096484880433892e-01 5.168129400153443909e-01
-6.523263160296359497e-02 -1.128946542614885085e-01 5.180300856338525550e-01
1.321399725890697388e-02 -1.259347935845018251e-01 5.358914357061000944e-01
-5.968346628292640205e-02 -7.339683858252156468e-02 4.330411064376834540e-01
-5.491021711877659001e-02 -1.012875428146241541e-01 4.496614171892117096e-01
-1.039445067494597363e-01 -9.735665273654771357e-02 4.743686000657358348e-01
-9.930614085575893701e-02 -1.056000478079393845e-01 5.033839691491024393e-01
-3.214809848964978595e-02 -1.091842275925864886e-01 4.754866365244937443e-01
-5.438256438030189543e-02 -6.441348775715788344e-02 4.328882090921151171e-01
-7.851045064262435202e-02 -1.103647354401069425e-01 5.112755390959307089e-01
-5.334997131585964003e-02 -1.074170863814249838e-01 4.683192255166163109e-01
-4.793595553270649234e-02 -8.840055215494070640e-02 4.353592995066392080e-01
-2.377277004016260450e-02 -1.202617499003861001e-01 5.062845146214641767e-01
-3.112579138204956894e-03 -1.227642458016837135e-01 4.968340777838735622e-01
-7.115837162167888696e-02 -1.123281111595580140e-01 5.041944170309693440e-01
-2.596257010609126503e-02 -1.187959508556173382e-01 5.382333762252433651e-01
-7.315846951674991050e-02 -1.062215525199759203e-01 4.636001351659134184e-01
-1.784064761566924590e-02 -1.174194472784771265e-01 4.881342027406124773e-01
-5.175351004961909612e-02 -4.527656517971789113e-02 4.382060480899118704e-01
-5.209563637541814868e-02 -2.916229699106686474e-02 4.437557593616888729e-01
-7.154660401711539219e-03 -7.711586078812164569e-02 4.447413037006601733e-01
-2.172669322177209206e-02 -9.021090708794216040e-02 4.494636788804590721e-01
-6.731917391980761674e-03 -1.255393639009615703e-01 5.172555684045256896e-01
-7.231853982099771538e-02 -1.090421166145746495e-01 4.757127513284208908e-01
-4.119833629191306523e-02 -3.632590416153980151e-02 4.367222189566535850e-01
-5.350073520616001332e-02 -8.257162347774138489e-02 4.292319180978873550e-01
-4.888993896930376309e-02 -8.650396989214960419e-02 4.337159809150948897e-01
1.845564006503161349e-03 -1.270903304176749238e-01 5.185748036564093999e-01
-4.494674396844944297e-02 -1.133986937770948694e-01 4.903189355914678860e-01
-5.832829637513013699e-02 -1.030104550112324602e-01 4.532060273404389661e-01
-6.126862925041856762e-03 -7.832896662871446924e-02 4.453420991968539688e-01
-3.274810596798692630e-02 -1.160112456051978769e-01 4.939941821823659596e-01
-9.920157377831834156e-02 -9.917980849245586206e-02 4.654789987936703843e-01
-5.800322799950281827e-02 -1.145097697026112166e-01 5.138610494860643696e-01
-4.542709096685284414e-02 -9.532929566852582637e-02 4.467799229655216031e-01
-4.878874916633241937e-02 -1.157161917616239266e-01 5.211351956798717655e-01
-8.363882830137613078e-02 -1.077195229821372863e-01 5.152098262748862068e-01
1.332829888564093096e-02 -1.259610789632768235e-01 5.357044731144641192e-01
-4.615780608530562629e-02 -9.573607953884138988e-02 4.464255525337475494e-01
-2.996307948288572456e-02 -8.290829583926659363e-02 4.435809087640286696e-01
-4.414866514316469898e-02 -1.063711047114215269e-01 4.678192196340347220e-01
-6.633946121071555846e-02 -1.127529038767196429e-01 5.004482750396775925e-01
-4.254714130675429917e-02 -8.296776076397974209e-02 4.387740380526940487e-01
-1.540781370775368836e-02 -1.084104821593887269e-01 4.683985396425229819e-01
-7.515601575386156308e-02 -1.064502474661602610e-01 4.649332491117864063e-01
-4.156523789456760890e-03 -8.500737027251829836e-02 4.484518232146764705e-01
-8.168808000247231027e-02 -1.091496386438336602e-01 4.777346719704331224e-01
-6.048781533506795982e-02 -8.302669635421522365e-02 4.270754484758088054e-01
-2.659888070020137094e-02 -9.637804272294117625e-02 4.560282127579360356e-01
-4.608392813862655785e-02 -5.510665068622884466e-02 4.363152657737811579e-01
-8.197211547128863129e-02 -1.082203182190098478e-01 4.726463962951065745e-01
-4.460056831633717189e-02 -1.139892682433148036e-01 4.921886949605751016e-01
-9.268955663846550896e-02 -1.038415569130684557e-01 4.660381553494399309e-01
-8.190285111529763129e-02 -1.102477170764146475e-01 4.889778168647481160e-01
-4.552962632000823878e-02 -5.161438502835109798e-02 4.367135482845588279e-01
-2.841298922834090135e-02 -1.047280539998443477e-01 4.671776358342303870e-01
8.357915491470839335e-04 -9.063241462744145438e-02 4.518124370640005383e-01
-1.982068925433056600e-02 -1.063250456883815531e-01 4.666243255998213102e-01
-3.278843100003647065e-02 -1.185567792711596513e-01 5.246264268879532455e-01
-1.709150909945124017e-02 -1.228300126767395417e-01 5.170644255346769080e-01
-7.729892765806303800e-02 -1.049925155826354345e-01 4.610670134711076229e-01
-7.186898689245102556e-02 -1.106422462216631597e-01 4.857566381736313499e-01
-1.743946602718512290e-02 -1.225157779413203890e-01 5.223358610193594709e-01
-4.434374769971580026e-03 -1.244412511900984397e-01 5.048569509669252886e-01
4.177135190308494880e-03 -1.229099097925997752e-01 4.976097675263376763e-01
-1.979820318040526397e-02 -1.052370882061083729e-01 4.648504303496588941e-01
-3.368636111579408760e-02 -1.070321575950848314e-01 4.714886518990619169e-01
-5.844144822108417875e-02 -1.013829575573164526e-01 4.452493575575484641e-01
-4.918084820838308779e-02 -6.871266570524131589e-02 4.329943387790253229e-01
-8.712391434646896138e-02 -8.794133539394366483e-02 4.558112579847268253e-01
-6.773078408457060273e-02 -1.129401345406420704e-01 5.070251163876202671e-01
-8.054453959850875477e-02 -1.099607286876134460e-01 5.095460644683350582e-01
-2.652942910248644662e-02 -7.567912763163596457e-02 4.417147684982971612e-01
-6.184063903240609450e-02 -1.101371582801558141e-01 4.789148315200196793e-01
8.878779590072174988e-03 -1.266179284635086943e-01 5.206985072805162540e-01
-5.101615982538398181e-02 -1.132771541454326986e-01 4.914442499511652018e-01
-1.057771459468156705e-01 -1.022474332151871307e-01 4.867919881847552754e-01
-6.191947093342443920e-02 -7.836950021774180541e-02 4.305788651765140584e-01
-9.154993587015962386e-02 -8.620054451253721106e-02 4.646247830041549398e-01
-2.509692299287231629e-02 -9.843026654785778928e-02 4.583719138368143597e-01
-5.144622727764016495e-02 -5.669013910363962516e-02 4.350421766853194150e-01
-1.378132139404527820e-02 -1.076022642571208277e-01 4.663366981710780901e-01
-2.299985354828886636e-02 -1.122201865066978638e-01 4.792696125441084365e-01
-6.041465593669635703e-02 -1.115001298536211077e-01 4.864093093934170886e-01
-2.529791605697143814e-02 -1.146771378804886804e-01 4.869421961629068485e-01
-9.006453934073586909e-02 -1.024194504531022315e-01 4.620148591488950629e-01
-4.576009403256074692e-02 -1.151446608303505065e-01 4.978746405009134013e-01
-1.759164277612554339e-02 -1.221745049830667285e-01 5.288207635230878223e-01
-4.808162185599065136e-02 -3.406178631996591849e-02 4.382633515996436913e-01
-5.225093003752052934e-02 -2.521621529250216154e-02 4.458150421664414109e-01
-7.046708652764911707e-02 -1.121390787938875144e-01 5.131810256230867617e-01
-4.251550191930906358e-02 -1.125456986954308652e-01 4.868551430381213851e-01
-5.557826759855892529e-02 -9.906843781206936539e-02 4.383179392834685162e-01
-6.759825417933901237e-02 -1.118428591558218027e-01 5.202810835215222474e-01
-7.752830486322602466e-02 -1.110645528642332652e-01 4.961026088014233726e-01
-2.149322942463256086e-02 -1.130403838869514371e-01 4.806122424830070461e-01
-3.939763845981991003e-02 -1.174816339484031080e-01 5.134673830271012651e-01
-5.119247366131680910e-02 -6.540402179445073405e-02 4.327406781721533369e-01
-6.383402150855901902e-02 -1.098463631336075164e-01 4.774579352545195166e-01
-9.372359899629816027e-02 -9.294963459890301372e-02 4.603049436539866091e-01
-6.461399007735549316e-02 -1.100905039924175710e-01 4.795995792643981681e-01
-7.194804729433736112e-02 -1.105809160023134702e-01 5.206696336652014701e-01
-2.513834761596821926e-02 -7.252793456014981766e-02 4.410028082036212549e-01
-4.640258657626857713e-02 -7.347093493853648627e-02 4.349708699233100218e-01
-9.520865194457367453e-02 -1.030095689351323840e-01 4.660815841594055375e-01
-1.055174902488653643e-01 -1.034556347339761762e-01 4.922486678661828763e-01
-2.825677891342549819e-02 -1.192002709818730660e-01 5.061628650836710319e-01
-5.767993191454837132e-03 -1.200763805252275801e-01 4.891810776401093741e-01
-7.904850630261507638e-02 -1.105023472605040774e-01 4.879991357341908476e-01
-3.430965436679481173e-02 -1.185314729194670291e-01 5.180793886875998400e-01
-6.207708632652141761e-03 -1.204797188081609960e-01 4.906097009301111367e-01
-3.836145588274458840e-02 -8.458716514941115594e-02 4.425145794874225658e-01
-3.650298105502654267e-02 -4.366773878159705552e-02 4.375200458255725233e-01
-5.975923986946016231e-02 -1.122508480360444871e-01 5.274520984132342605e-01
-3.119330450771586397e-02 -1.027332353555550776e-01 4.645554719392071541e-01
-3.410697963102976571e-02 -1.174457008950149650e-01 5.343762061803573049e-01
-1.955248259687790424e-02 -1.182702230406705024e-01 4.926343731807344417e-01
-2.963153127619950339e-02 -1.147240732317278689e-01 4.887812598646587570e-01
-2.179402162817525510e-02 -1.140393271845398515e-01 4.828185626436214961e-01
-9.469550304897017545e-02 -1.072352624089369377e-01 5.049475742677317358e-01
-3.742048629153187783e-02 -4.590877940572769822e-02 4.372167290782082993e-01
-8.426687613148577463e-03 -1.249083764728491225e-01 5.262106713557106463e-01
-4.703364554913184309e-02 -1.151342855648768287e-01 4.996958718531192001e-01
-4.795941545518095372e-02 -1.066767411503837248e-01 4.670406600676113018e-01
-6.207302750221694448e-02 -9.656733649821214183e-02 4.287003979697061040e-01
-3.024742063090257033e-02 -1.131239781295892838e-01 4.838125345057277538e-01
-3.893873924511687817e-02 -1.140866668926140554e-01 4.904166885991477209e-01
-7.432042339255197361e-02 -1.115348822100034193e-01 5.098009085293607745e-01
2.189744895579379298e-03 -1.126805143797264819e-01 4.734298594404659499e-01
-4.041269487704540753e-02 -4.316188373283532526e-02 4.368171217684169161e-01
-7.720074507179454371e-02 -9.487087078779293803e-02 4.428683494082090721e-01
-1.755228699985197580e-02 -9.413044978553335163e-02 4.526507552266110235e-01
-8.527314161029336814e-02 -1.072739846218112025e-01 5.145777270816154214e-01
-8.502222345374554902e-02 -1.084820399302614674e-01 4.762707920596512823e-01
-5.725436266163904525e-02 -1.055469652085576637e-01 4.630928506118243693e-01
-8.674157497180052384e-03 -1.247132534055622605e-01 5.286425239338896631e-01
-4.243016975041562916e-02 -1.170101824425090892e-01 5.149851505167520882e-01
-9.225679818378675068e-02 -8.746695068489521163e-02 4.638428491433435608e-01
-3.955602932595777416e-02 -9.919169895950151472e-02 4.570085056333523799e-01
-4.361387735502145896e-02 -1.082107597141913624e-01 4.737115810807388527e-01
-2.655634448221083285e-02 -1.201417152907050118e-01 5.147847615993285109e-01
-7.124780290352895895e-02 -9.806627593600625303e-02 4.390980504968085563e-01
-3.245364173409443637e-02 -1.185680199502382876e-01 5.252231955462910440e-01
-8.618385543299895979e-02 -8.895281060170404097e-02 4.533543492677499787e-01
-2.611698046718681845e-02 -1.200722844464550132e-01 5.231698687815803384e-01
-7.131623158960415272e-03 -1.206350521629917794e-01 4.915051809397123495e-01
-6.036907707183773036e-02 -8.805874779891599557e-02 4.257089255871155942e-01
-3.731295526876529656e-02 -1.178824496986253662e-01 5.208856561489120240e-01
-8.358541971915910140e-02 -1.001727737703640014e-01 4.533244548650682271e-01
-5.789383690682670808e-02 -1.042990527901719866e-01 4.587849518725155007e-01
-8.347479967822313274e-02 -1.071984140696768673e-01 4.696740043629152317e-01
-4.849202729828946262e-02 -1.157985456941819369e-01 5.198338779012877664e-01
-2.297082304001852454e-02 -1.180681528093695531e-01 5.444347237385968041e-01
-2.975781496855166644e-02 -1.188934894758667399e-01 5.304312852644605947e-01
-2.378532722273782665e-02 -1.127422421396221675e-01 4.807740073932580960e-01
-4.558822904334093595e-02 -1.164431249610135832e-01 5.152664313902520776e-01
-7.203024690019149689e-02 -1.038256126947018909e-01 4.567848422203740766e-01
-9.029429719913192876e-02 -8.692517688590692404e-02 4.616467820807273470e-01
-5.796066424062687461e-02 -1.135717984662573121e-01 4.981110115878505384e-01
-3.737514691329610339e-02 -1.084809936330837915e-01 4.745319595618774922e-01
-5.885569791148722446e-02 -1.054239800027534785e-01 4.622376901361289758e-01
5.126849232779623865e-03 -1.226769490726866557e-01 4.971456104451595914e-01
-5.755275213969963943e-02 -7.951712529883712965e-02 4.283702216166523913e-01
-1.255535613864668110e-02 -6.197195889044042338e-02 4.398119726248573835e-01
-8.907446087929180023e-02 -1.052304211455261235e-01 4.676986531499341959e-01
-1.922251218377411461e-02 -1.013620767324079491e-01 4.598633431793863191e-01
-1.678394433944436354e-02 -8.932224873755119365e-02 4.486869422704189425e-01
-2.394818767096498768e-02 -1.202168966756680529e-01 5.062355193290362099e-01
-5.565571932068531791e-02 -1.099596075003745482e-01 4.782553742370260763e-01
-5.117954514237413322e-02 -1.155124204996242632e-01 5.136977598499364861e-01
-9.933557170521524482e-02 -1.053754870392358822e-01 5.041355151797426437e-01
-1.404802271981637520e-02 -1.236407076658381649e-01 5.167348204126425149e-01
-5.144546428317625653e-02 -9.117223696496570828e-02 4.333304097555079060e-01
-4.382811060903905181e-02 -1.007167590568501941e-01 4.573132501439433062e-01
-6.933795602419533244e-02 -9.055313234729973904e-02 4.304047936156976673e-01
-4.213859371034679030e-03 -1.154484406723840645e-01 4.770476009833539699e-01
-3.322878491938657114e-02 -1.092712533795974633e-01 4.756950933715713425e-01
-4.741896754218228455e-02 -1.036491557360609966e-01 4.605993116574790269e-01
-2.603664753416174912e-02 -1.183792209714757543e-01 5.403147732134594428e-01
-6.647103506799012518e-02 -1.098154078111767823e-01 4.785084134569407843e-01
-2.982520239040971008e-02 -1.180295462492032682e-01 5.370509748925301752e-01
-6.343089989518964356e-02 -1.135427891134121736e-01 5.071238239362664268e-01
-2.522641584623555241e-02 -1.089905861819722849e-01 4.736623280233345223e-01
2.743383468836332016e-03 -1.270195843203574537e-01 5.214819018888984248e-01
-2.276002032251570051e-02 -4.168502512158006601e-02 4.398610952432961407e-01
-5.746400097171195515e-02 -9.589336744039614335e-02 4.315298954596993863e-01
-6.010292944809804416e-02 -1.127155142348398864e-01 4.938681898186034203e-01
-1.032961839660491432e-01 -1.049725306465003338e-01 5.004653817480465561e-01
-4.616367345190175442e-02 -8.279297143654132385e-02 4.357863785219158181e-01
-6.050955605669518927e-02 -1.136037244153844522e-01 5.021526432484232361e-01
-5.429647371904834652e-02 -1.060067512458936489e-01 4.646042254137333627e-01
-4.996347715217227398e-02 -1.092685776353514715e-01 4.754686074644119964e-01
-1.413258830536310608e-02 -8.622561839075910950e-02 4.472385320812882203e-01
-3.234851602277355465e-02 -6.709812831034145386e-02 4.388754128941028676e-01
-9.552214783509389157e-03 -1.184913469733187147e-01 4.858288289279596439e-01
-4.565541175143875141e-02 -1.163119989635644225e-01 5.206669489812398854e-01
-2.465818321775735400e-02 -1.052046323938105599e-01 4.664123572658062655e-01
-5.256927453938954609e-02 -1.076892439830066522e-01 4.691323240417969997e-01
-8.031744089104088380e-02 -1.107185315271883574e-01 4.998569599581827450e-01
-5.733859826133448634e-02 -1.134876655253644895e-01 4.966570156417253190e-01
2.767010788783505829e-03 -1.266848765192161164e-01 5.158561926126281616e-01
-7.884886997765375161e-02 -1.105551941765343799e-01 4.887436982713458389e-01
-2.799460655388815236e-02 -1.173215187344156946e-01 4.962923296843229637e-01
-8.722364756014648612e-02 -1.095288898852478654e-01 4.878705054820470788e-01
-4.462697963965234910e-02 -1.103293615065277095e-01 4.805414463811161774e-01
-4.608204701425119842e-02 -1.153084348620579264e-01 5.000634208542149572e-01
-4.468145586557627225e-02 -4.915837525169631378e-02 4.365884927025874274e-01
-5.346057675275738517e-03 -1.182539640550326898e-01 4.836752441214318132e-01
-2.077171207993705818e-02 -1.209237227677036758e-01 5.055380761891250518e-01
-3.552526730590373910e-02 -1.057355167761861309e-01 4.688042969575516583e-01
-9.998366810634433388e-02 -1.034294819853812386e-01 4.720010421446643734e-01
-5.197878163318282035e-02 -9.501695570028577398e-02 4.382049267301288964e-01
-7.005676776059625854e-02 -9.499186972246015381e-02 4.332747812349255767e-01
6.688145155552467983e-03 -1.210908980930242296e-01 4.930954089573066912e-01
-1.055556899089128697e-01 -1.034058869607343140e-01 4.946657433280500782e-01
-5.718080493509974591e-03 -1.250192653929821374e-01 5.088678455426930425e-01
-4.831912369009938590e-02 -4.629002221108378945e-02 4.369140913811112026e-01
-7.925714335065346672e-02 -1.036904060841487007e-01 4.584092290481445731e-01
-2.379851602425596055e-02 -1.119867510387368287e-01 4.789708526589341875e-01
-4.765035945201059886e-02 -2.804035007780316183e-02 4.379741402359301206e-01
-3.255930213512985005e-02 -9.464791787942647416e-02 4.527885663425238461e-01
-5.464791155213589990e-02 -1.096053407922413514e-01 4.764292310941812825e-01
-2.505689653349904913e-02 -1.202164742562567140e-01 5.094095386675770998e-01
-9.460796034963357692e-02 -1.084008315436185838e-01 4.948993904292314228e-01
-5.927113596197400303e-02 -1.135547113569854855e-01 4.996158079287884579e-01
6.854711455333025935e-03 -1.268934094110968913e-01 5.291261316943877135e-01
-1.794084805312731734e-02 -5.999611821563996528e-02 4.395348120985944629e-01
-1.731869794796824305e-02 -1.181960590205505673e-01 4.897429470976039645e-01
-4.550705254629409252e-02 -4.037228933433190114e-02 4.370520854821445256e-01
-4.195611500840398800e-02 -1.118654785907581134e-01 4.847110990191597635e-01
5.721081129918315078e-03 -1.216988582969597971e-01 4.943984413150965818e-01
-4.521410254452303684e-02 -9.179367249440491261e-02 4.441543165617662936e-01
-8.299618927327812035e-02 -1.085748971402500929e-01 5.130758494194732622e-01
-4.312202075670060197e-02 -1.144844904804392660e-01 4.932506007712709195e-01
-5.082885638543117174e-02 -4.725223122956218047e-02 4.376926337774201814e-01
-2.356692954524113037e-02 -1.203354241687419612e-01 5.308534349600657620e-01
-5.462352848803762873e-02 -1.139925658360885496e-01 4.977900911792685346e-01
-8.848804260589521187e-02 -1.085017193613449921e-01 4.794542317799218023e-01
-1.064406562281619978e-01 -9.739590077589950490e-02 4.789440829590155824e-01
-1.036330605011997613e-01 -1.045626983601467830e-01 4.860030349873038502e-01
-7.106182520104083189e-02 -1.025414211065984738e-01 4.528000157576944629e-01
-3.424957945607026016e-02 -1.184664284391115929e-01 5.125617212330250139e-01
-5.225683848895605610e-02 -9.412881102327451399e-02 4.356564779074831306e-01
-3.168825932894450692e-02 -6.335600130599905455e-02 4.386905574097901828e-01
-3.274518179227903919e-02 -1.021406597953384843e-01 4.633481510050752594e-01
-3.681235751260318600e-02 -6.110316734174715825e-02 4.378756759677174815e-01
6.778636795952239225e-03 -1.268307578445235506e-01 5.226024288169364151e-01
-5.580891441704310257e-02 -1.147723385970996490e-01 5.158870644222117718e-01
-2.653946747571252554e-02 -1.184902335087086866e-01 5.392187534877110888e-01
-3.887206888901113822e-02 -1.171895688199989932e-01 5.263972352460841719e-01
-4.098757653607964374e-02 -1.168305827457926244e-01 5.074250012990854097e-01
-4.266581871284747668e-02 -1.135273624072357240e-01 4.899361714699887460e-01
-4.391455639951540729e-02 -1.166908550093991997e-01 5.180193805149855280e-01
-5.035002219227258102e-02 -1.050961334877048847e-01 4.627246755498005126e-01
-3.350143066518359442e-02 -6.795458744946009100e-02 4.387696461548998839e-01
-2.926648779959484595e-02 -1.143646670298737733e-01 4.874191226228653528e-01
-1.059406916758475342e-01 -1.009443428514802538e-01 4.830056231091673369e-01
8.183203872035596516e-03 -1.264497370501434792e-01 5.171480438958854231e-01
-2.463341576081731071e-02 -1.194957336704856737e-01 5.359842134906422917e-01
-8.506390927096055266e-03 -1.190744894436797652e-01 4.872657001063921967e-01
-1.820054505852913493e-02 -1.092625422779874289e-01 4.711287977214006495e-01
-8.441551745138950458e-02 -1.002537365893716170e-01 4.544032161551638249e-01
-6.606739498219228734e-02 -1.129636882701997441e-01 5.026662723958088552e-01
-8.702610454065574930e-02 -1.054207155872232543e-01 4.670415770499038999e-01
-7.422551317618930611e-02 -1.117937095999745611e-01 5.072395039355555024e-01
-2.456356783086144357e-02 -1.204989634173382063e-01 5.111655606540806973e-01
-9.575505671862555301e-02 -1.060518941143195892e-01 5.075590492523500696e-01
-3.451822428572699775e-02 -1.134034124264456100e-01 4.865621303721132662e-01
-2.662710814122214859e-02 -1.201415544716907119e-01 5.187416743508599382e-01
-1.011417856971584756e-03 -1.260790645872017501e-01 5.305651199669565443e-01
-4.242289518769558343e-03 -1.231999802922074394e-01 4.989285013179590167e-01
-6.073426048928826787e-02 -1.102545671880310330e-01 4.794387106047362512e-01
-2.949809565461613409e-02 -9.550249681706962646e-02 4.546254165209510090e-01
-3.682638249127719726e-02 -5.055987916955148598e-02 4.373259884358595140e-01
-1.005183982136787502e-01 -1.017692772034436421e-01 4.706150488075404592e-01
-3.017975389256517815e-02 -3.959189710999844874e-02 4.390989068055288769e-01
-5.006123230026174320e-02 -3.525411361013612577e-02 4.395715784061134945e-01
-7.801998442556699886e-02 -1.047944350231285460e-01 4.606469059025408153e-01
-8.387645804864032884e-02 -1.096920551896491958e-01 5.061958046364448682e-01
-5.157968449078060430e-02 -1.021212014579678251e-01 4.556595397966144434e-01
-9.227388259777323520e-02 -1.073389009347994888e-01 4.763786564393484024e-01
-3.883334321444703585e-02 -1.018798941559939109e-01 4.613694528976707288e-01
-5.644650389224086309e-03 -1.237221600246402875e-01 5.357019832976339657e-01
-1.298080917711989801e-02 -7.484763348938017202e-02 4.430262539061955440e-01
-4.476502164014085211e-02 -1.129296572769332152e-01 4.886501547165933990e-01
-7.665645685441591084e-02 -1.074796614278536455e-01 4.686216361480147752e-01
-4.465166729034282522e-02 -1.076378700159740798e-01 4.716819417173059303e-01
-3.809795416165314384e-03 -1.188553051482033052e-01 4.851797785959752751e-01
-8.034924990118269550e-02 -1.044975188982091296e-01 4.609849893396523179e-01
-4.181220286032753808e-02 -1.083169590818354039e-01 4.744047919448153849e-01
-4.438531771949277144e-02 -1.064109819002019980e-01 4.678109309848012543e-01
-5.811865785467356521e-02 -6.794454908227172407e-02 4.321946966219074038e-01
-6.711449649105165338e-02 -1.130232305209307037e-01 5.064425198656178351e-01
-5.027415270310882367e-02 -3.575050726059612882e-02 4.395588425734538451e-01
-4.252156478220881636e-02 -1.047685438147360620e-01 4.645017227414098282e-01
-1.467379444371435214e-02 -8.148801762449073283e-02 4.453478130865957674e-01
-1.394606530375942788e-02 -1.112783551451830000e-01 4.722725150413732420e-01
-2.628513313201378751e-02 -1.134701062017217515e-01 4.837205614913101526e-01
-1.240604414230742254e-02 -1.176718930638354504e-01 4.847754686948883562e-01
-9.559097499457960834e-02 -1.063609367533232125e-01 4.767867211250815251e-01
-9.287580058765387836e-02 -1.088491041634046530e-01 4.948504009457860287e-01
-7.474646676338242077e-03 -9.910842104446600243e-02 4.573482408804198651e-01
-6.939279650808044542e-02 -1.115098875820201701e-01 5.195313095034842510e-01
-6.434378421364003731e-02 -1.027878695371623047e-01 4.523005964989501027e-01
-3.081285169846871563e-02 -1.162925175443675768e-01 4.941695746944562706e-01
-8.908538436571920849e-02 -9.425831146304307351e-02 4.550333549888207485e-01
-3.576535902917737930e-02 -1.175089476272161843e-01 5.038550356114650519e-01
-5.615732513121406144e-02 -1.064577992814928764e-01 4.657565058499824051e-01
-3.467588430291530799e-02 -4.620596817435426024e-02 4.380150426440636569e-01
-2.678300577088565601e-02 -5.016046549169887736e-02 4.392447532985883640e-01
-4.520897730540914677e-02 -6.378461834854246004e-02 4.352886837610975834e-01
-6.760789117929075220e-02 -1.120422056979665099e-01 4.945432297087928308e-01
-5.413935231548752669e-02 -1.076579816695602959e-01 4.688983826420753953e-01
-7.019922236393430492e-02 -1.110060788502350571e-01 5.209180708398614135e-01
-2.623432172358694872e-02 -7.517741160621144170e-02 4.415958839037130157e-01
-2.904888695163964848e-02 -8.552805152442342906e-02 4.452104241369829185e-01
