-5.870750360636238507e-02 -7.164781852332828549e-02 4.312256410226024128e-01
-7.324760283295118912e-02 -1.035328500417635605e-01 4.586674901154450534e-01
-4.621350116302452848e-02 -3.843084093286977532e-02 4.373962031014388963e-01
-4.820472189404078484e-02 -7.973483825769564493e-02 4.345945127743400249e-01
-6.849782825763616780e-03 -8.061882422547900218e-02 4.463614162516058581e-01
-4.255278776732383805e-02 -8.033920289065714371e-02 4.387761092396479934e-01
-6.688243595690512855e-02 -1.110731667422940189e-01 5.238545388815079029e-01
-1.605447360660857900e-02 -1.032513318582043427e-01 4.614044352941445437e-01
-5.171663673008765338e-02 -2.662057607932863390e-02 4.411186877759325498e-01
-7.886504117229280186e-02 -1.097870426355444934e-01 5.126436031947947392e-01
-7.150973779607769365e-02 -1.018759854985584745e-01 4.536236505393120844e-01
-4.218156193893545652e-02 -1.139679267367014193e-01 4.924380599418611837e-01
7.223456182447626946e-03 -1.268924821358297650e-01 5.237510381619518984e-01
-1.520148446033161085e-02 -7.698024697486346990e-02 4.436763421871504631e-01
-3.290089477405998969e-02 -1.182389097765448593e-01 5.271719164908367228e-01
-1.504140707645271365e-02 -1.207561092668998776e-01 4.978533887132472469e-01
-1.850695022732109672e-03 -1.259949830002643489e-01 5.299998842928154152e-01
-3.637757251670167141e-02 -8.451815429988314421e-02 4.438005034943433569e-01
-5.611630786795075015e-02 -9.879374316229019848e-02 4.399013382556774543e-01
-8.389996483562307816e-02 -1.087244667877041993e-01 5.102077718269562023e-01
-4.207350127536222534e-02 -1.166500943182261496e-01 5.115242437196124703e-01
-2.102375093796813796e-02 -6.722683097724796442e-02 4.407356909478022944e-01
-7.605183623218997324e-02 -9.557075675341242249e-02 4.427127170482813567e-01
-4.854756540437480533e-02 -1.153038064743496655e-01 5.237535277009732759e-01
-5.776368279805155909e-02 -1.012423432533406109e-01 4.502161518372038151e-01
-2.717246445987729284e-02 -1.176700464956164094e-01 4.977486274434983482e-01
-6.826597996543443472e-03 -7.513232879786435614e-02 4.442834604996103165e-01
-2.217097551800069691e-02 -4.656146319339922457e-02 4.397294123874354033e-01
-1.049904150093010774e-01 -1.002008676174240831e-01 4.799383069872364960e-01
-1.200520074320333107e-02 -1.218211928376929376e-01 4.989161380847638161e-01
-5.207910169809801260e-02 -9.469143055941875442e-02 4.404673353799757329e-01
-6.135180613226942636e-02 -1.086619393619542850e-01 4.744149761949733035e-01
-5.864564654361392737e-02 -9.792709040094399464e-02 4.372539409465784899e-01
-7.575491678492479730e-02 -1.043247002023875714e-01 4.611763282074509140e-01
-5.582073349697495857e-02 -8.673230843254044198e-02 4.289478677489944602e-01
-5.016738285726010660e-02 -9.223400868720237067e-02 4.391688724084685247e-01
6.336325762231781455e-03 -1.268005021511498243e-01 5.296418765129436990e-01
-2.593166548592721471e-02 -1.137380791767015897e-01 4.853338843464288788e-01
-1.038283703918215228e-01 -9.461961355055362177e-02 4.743151197054578661e-01
-1.379245969603103313e-02 -1.234413603705285939e-01 5.236487462436688611e-01
-6.243921094292010504e-02 -1.132780951446663714e-01 5.184950974324151751e-01
-3.090534242764512649e-02 -4.396967032221601318e-02 4.392046507600891325e-01
-5.284332051806078789e-02 -1.060769502422967692e-01 4.666006112105271497e-01
-8.563439556413877940e-02 -9.195558537199052807e-02 4.510933437631156062e-01
-2.896654583885331299e-02 -1.150726115123202331e-01 4.905142635101143456e-01
-2.219397617125526759e-02 -1.184129970672387483e-01 5.437392367934177351e-01
-3.484259264373531367e-02 -1.078278403603967345e-01 4.738583735445345280e-01
-7.154226352023812519e-03 -8.440093726858988177e-02 4.478700017549359647e-01
-8.140097239841972976e-02 -9.277386611891191848e-02 4.473953497144069757e-01
3.894694574330650940e-03 -1.253460159766273119e-01 5.076326693986026317e-01
-3.250348012119223806e-02 -1.178700153802630796e-01 5.333177462550878767e-01
-8.418959914559639990e-02 -1.009224807918415595e-01 4.573025708575570447e-01
-6.591310158485283455e-03 -1.030788111445780919e-01 4.614417046702258274e-01
-9.972160425697202193e-03 -1.218503300171450560e-01 4.969279337691904774e-01
-7.873940836394588416e-02 -1.105195384935874769e-01 5.029051875709281694e-01
-4.744585102782269276e-02 -3.698162185972355548e-02 4.381682319393299108e-01
-4.779920151052035465e-02 -7.149256808246748363e-02 4.345095116835316351e-01
-8.266446743921822271e-02 -1.096922725099760826e-01 4.905137507303859445e-01
6.364928056758150212e-04 -9.738528959188264000e-02 4.570582883780925365e-01
-8.989610790374386040e-02 -1.042878182320374630e-01 4.679689201133154786e-01
7.250598224174693157e-04 -9.870438893902154509e-02 4.581279904055893804e-01
-1.813747384418561148e-02 -1.080438673270308070e-01 4.692901222896773139e-01
-5.134373790983597780e-02 -6.376888525172073885e-02 4.333979372913624450e-01
-9.688782227745755538e-02 -1.033772055764271419e-01 4.706445122561594974e-01
-8.412461997054263008e-02 -1.032517472178316742e-01 4.619378176152758031e-01
-3.645516107175771070e-02 -4.555389554382278244e-02 4.377305449159898942e-01
-7.637011998771243981e-02 -9.238778237905420632e-02 4.408534911730719319e-01
-7.906960796142289971e-02 -1.057651581999936169e-01 4.663829480846206632e-01
-9.034589955180223619e-02 -1.086587858509627802e-01 4.909713327931846116e-01
-1.318235927656451027e-02 -1.069593111856145667e-01 4.655472523964607756e-01
-6.849286388039702370e-03 -1.200259571340192011e-01 4.899192920592666534e-01
-3.545094462973945315e-02 -1.165629779503470076e-01 4.992922728166762636e-01
-7.446444770472289421e-02 -1.110251810513287890e-01 5.116485121155424087e-01
-3.581269350351003883e-02 -1.169242765812482238e-01 5.014432098309296038e-01
-8.769927143982031437e-02 -1.072680463850468752e-01 5.115452218614615632e-01
-9.996159420064130996e-02 -9.682812899742368473e-02 4.662134304742284741e-01
-7.836953977167669672e-02 -1.105258934444517394e-01 4.968851884473501901e-01
-5.329270138952739606e-03 -1.193279872011351328e-01 4.870946673816216599e-01
-5.425547804441577943e-02 -9.695907969881903399e-02 4.402257158505682999e-01
-2.669818757767184608e-02 -1.006294910772920770e-01 4.618934791977383769e-01
-9.030706715817549135e-02 -1.008575237505937999e-01 4.612440614805773942e-01
-6.757715717619376672e-02 -1.126737382429245510e-01 5.097863504223527631e-01
-6.599283194903568517e-02 -1.069633384228354661e-01 4.692732678252083955e-01
-6.630275660635417956e-02 -1.069525751211632125e-01 4.692446476483513318e-01
-6.134450361101259630e-03 -1.242313104530939627e-01 5.328161264673044739e-01
3.144393879171066344e-03 -1.266440289160422061e-01 5.283244134876619036e-01
-8.089473612821609233e-03 -9.789241504069129407e-02 4.565592147451071336e-01
-6.137178385279348086e-02 -1.067989196831382187e-01 4.686634430199372869e-01
-5.282435960059318064e-02 -1.131881239357119401e-01 4.942783513193034772e-01
-2.803564146052637748e-02 -1.105522988021484521e-01 4.778578052930316233e-01
-7.512685152821940715e-02 -1.011081432448707046e-01 4.532768559262717600e-01
1.212340230513149486e-03 -1.215827349585807127e-01 4.932329995015890534e-01
-6.009293277597321098e-02 -1.002106271123351378e-01 4.424976806690659181e-01
-2.415911400721465832e-02 -5.122946277779615032e-02 4.394468137348293557e-01
-5.349106619239337584e-02 -1.078238039630872863e-01 4.714451233896024829e-01
-6.863375998710090353e-02 -1.086341661967588912e-01 4.766812636349208598e-01
-5.975436129003879049e-02 -1.105879064398071210e-01 4.838199138510941300e-01
-2.507961321084230949e-02 -1.124711859835885175e-01 4.810298664688710812e-01
-3.642656515121937139e-02 -1.175968094497014116e-01 5.083725631069224704e-01
-8.362954431063911176e-02 -8.887420404957051268e-02 4.499661181697008350e-01
-5.980455183710436939e-02 -9.702096824924683061e-02 4.340568383352261250e-01
-6.744168294434166322e-02 -1.106894170690344431e-01 4.878775043577723847e-01
-4.735409566735554465e-02 -1.157577290932152725e-01 5.219098110748332520e-01
-1.277826870399379963e-02 -1.043010981187163233e-01 4.623214523959322531e-01
-5.216863550611432893e-02 -6.360442616404979321e-02 4.332730328410117626e-01
-3.685084762249830892e-04 -8.556124767936100495e-02 4.491010029829531902e-01
-2.027129069019463839e-02 -1.212239745810922004e-01 5.076717772451628807e-01
-2.681198041701839119e-02 -9.768842144340876554e-02 4.580073568114357285e-01
-4.539632208281012271e-02 -1.158209369717712461e-01 5.075100980291981090e-01
-5.145127561537119615e-02 -1.150210209475370782e-01 5.199559304781475877e-01
-2.642714667651638316e-02 -1.199753478807209783e-01 5.122319859791063523e-01
-4.020905787585854485e-02 -1.170617102439229784e-01 5.122799572211325092e-01
-5.158735673860376236e-02 -5.299680719033580262e-02 4.362474777362650991e-01
-8.477801864478856642e-02 -1.093560292628168867e-01 4.884891771626963530e-01
-5.489360625343524258e-02 -7.811292610579004259e-02 4.294865758674631384e-01
-1.641903441299569916e-02 -1.224869666526409578e-01 5.285083186134076350e-01
-3.529328042298672530e-02 -1.173444286087028665e-01 5.032902186392260724e-01
-7.822757568052024491e-02 -9.419368374657319243e-02 4.444320171031315159e-01
-5.476899599401700847e-02 -7.278244638312034165e-02 4.304149250284558526e-01
-5.932458512030999720e-02 -1.036853712037415359e-01 4.588705644567864783e-01
-2.767815416766216535e-02 -7.759560310967043850e-02 4.426080509702833843e-01
-3.028537682173903720e-02 -1.147100661922166170e-01 4.898606961891097122e-01
-8.528876172515918730e-02 -1.051199756686706788e-01 4.674572376242147054e-01
-1.081902998239777855e-02 -1.230262327180767362e-01 5.040815331699857182e-01
-5.477097509252381452e-02 -1.128087959829290610e-01 4.932058834799354363e-01
-6.388677064841009889e-02 -1.084305984191316768e-01 4.739230052801975956e-01
-5.064266545286961324e-02 -1.148359276152629282e-01 5.239657025486473829e-01
-3.748377672572496266e-02 -1.174299978310892195e-01 5.089119266670335540e-01
-9.826192896040165936e-02 -1.067619722911315044e-01 4.899294539679130978e-01
-5.998145585693349935e-02 -9.928773773165368299e-02 4.390152504665401079e-01
-4.588668435284000424e-03 -8.805337538808526154e-02 4.500636431516485958e-01
-3.922756200360943274e-02 -6.617243794893146180e-02 4.379802055262790317e-01
-7.442646118920256959e-02 -1.087588669621067372e-01 5.237687747618883227e-01
-9.965666423389425710e-02 -9.660928525253970056e-02 4.653745807447563498e-01
-3.070282108915755453e-02 -1.169131189246416097e-01 4.970532556001046043e-01
-1.936286666252463526e-02 -1.192543251887447364e-01 4.965299341335022709e-01
-1.286461913014124575e-02 -8.411743223321264951e-02 4.468179466738930183e-01
-7.540380879886804388e-02 -1.082709504301968134e-01 5.240471239299999695e-01
-4.281075587859933806e-02 -1.045716787636620793e-01 4.652572488797132588e-01
1.012739737735436282e-02 -1.263796854578268236e-01 5.183843571273361039e-01
-1.839852219556887755e-02 -1.154101118198243847e-01 4.841507397654591371e-01
-7.433927915811540388e-02 -1.027446655448484431e-01 4.569905124768999793e-01
-3.725740305322920026e-02 -1.160256136140137700e-01 5.382800910538642070e-01
-1.059797056971873291e-01 -1.025207893908590268e-01 4.938067152065371279e-01
-6.022017997497745162e-02 -8.676875481294728243e-02 4.266455460292455926e-01
-1.866159852274229536e-02 -1.214502414576165007e-01 5.338976250402595047e-01
-7.892733434411222659e-02 -1.047901576854809724e-01 4.634829046358004412e-01
-2.217665989126225978e-03 -9.756078653320023053e-02 4.569866866168439401e-01
-7.938697410439931809e-03 -1.116022250518714509e-01 4.717820855091330867e-01
-5.025248866775888779e-02 -1.106013931112841270e-01 4.824485714012246018e-01
-7.893564320812529456e-02 -1.085114730000806410e-01 5.185459308805157042e-01
-1.011718246512622044e-01 -9.521906112345721040e-02 4.681607556286334071e-01
-3.279588801207231064e-02 -1.071219314422558883e-01 4.725144522427614513e-01
-8.106130424183326244e-02 -1.081315812490430822e-01 4.751271663347063634e-01
-3.421997227212897341e-02 -9.734836180775131853e-02 4.568956063566040338e-01
-4.220225493684600510e-02 -3.155017426130087010e-02 4.370280223011269172e-01
-1.012169339935078821e-01 -1.036187526088659244e-01 5.063329353653551745e-01
-1.276267858895867822e-02 -1.135443816681648010e-01 4.760824085850074439e-01
-8.535560526359228795e-02 -1.015074721578071437e-01 4.591213223182715186e-01
-5.302011449709381069e-02 -1.150010889915450280e-01 5.138208750219217524e-01
-4.741881367150246884e-02 -1.159115155660059154e-01 5.152161939992158102e-01
-4.447625448581949553e-02 -9.794385255019262548e-02 4.534492853570232795e-01
-4.031082351965312865e-02 -1.008108838575656613e-01 4.602421635563595514e-01
-3.323705906575798869e-02 -8.640150412670212499e-02 4.457613299925986539e-01
-2.643433479501495348e-02 -1.198410707236965550e-01 5.247025108870438936e-01
-8.595545789451758401e-02 -9.073454723238352782e-02 4.520467654522093426e-01
-5.739404628922407242e-02 -1.064212096932573570e-01 4.674519398006600213e-01
-2.564460565257595595e-02 -1.051615403301106588e-01 4.672352880521988272e-01
-5.531966830156771070e-02 -9.995318187908906749e-02 4.473755428194349237e-01
-6.573629066276018285e-02 -1.004511361860640772e-01 4.445855837041267078e-01
-8.618129632167889631e-02 -1.062078777135156138e-01 5.162131856052274426e-01
-1.066892467970471936e-01 -9.921920931561714618e-02 4.821533521341339612e-01
-9.991073134264182726e-03 -1.162636480447149512e-01 4.801408593348113207e-01
-6.076963199500567958e-02 -1.124619065633124665e-01 4.957861607905532098e-01
-5.158172881686579753e-02 -1.010935366530696933e-01 4.547277168110634427e-01
-8.484335978592708050e-02 -1.092810928496174561e-01 5.050119263532244496e-01
-6.083812456706432642e-02 -1.132540528271821362e-01 5.029679245337622673e-01
-6.667172681180889848e-02 -9.931492514184570020e-02 4.366917767261568883e-01
-6.560574373649961238e-03 -1.181539934460988511e-01 4.839368300540835555e-01
-2.587977240868419293e-02 -6.422747595170393009e-02 4.397180736892561392e-01
-7.596140769391263037e-02 -9.974087922299587627e-02 4.502200924320207687e-01
-4.327786157118901356e-02 -1.088760744884791909e-01 4.774426685763025757e-01
-5.252292323801063118e-02 -1.055125570385326700e-01 4.650973120232941849e-01
-2.983412356413906938e-02 -3.793807837711053038e-02 4.391597299529735321e-01
-2.530477173811338659e-02 -4.727855815167933407e-02 4.397605104162336520e-01
-8.573771144022067359e-02 -9.440016160596199912e-02 4.515506561636459804e-01
-8.978331191407193379e-02 -1.079885402876680639e-01 5.059433762830617409e-01
-6.894007591615651520e-02 -9.147849378958386457e-02 4.311473867227810230e-01
-2.609295813774763564e-02 -4.852617174581686649e-02 4.396329234215327619e-01
-5.452947345911408200e-02 -9.826761270458896080e-02 4.441899053119764962e-01
-5.424197669561373752e-02 -1.137196190347290747e-01 5.253970578435692707e-01
-9.254845995801843153e-03 -9.215823228121428068e-02 4.517499762704478283e-01
-5.997760012872986601e-02 -8.534333625026055414e-02 4.270442102209168755e-01
-5.620957557879713296e-02 -8.423279105298869807e-02 4.281156995412359056e-01
-1.865575024380156099e-02 -9.933711869675061756e-02 4.582962732532711025e-01
-6.079414545845018489e-03 -1.256008221429764926e-01 5.203451097897198174e-01
-7.711750885988050142e-02 -1.053413386932794404e-01 4.646301502148521556e-01
-9.225413572206733748e-02 -9.496968559205035132e-02 4.580491991100364979e-01
-2.081338690753145246e-02 -1.207738326157795777e-01 5.340524829219017722e-01
-7.173463007670684288e-02 -1.107423348033090560e-01 5.190881812497107894e-01
-6.011589129543772059e-02 -1.073671472192914561e-01 4.705328646686772198e-01
-3.713255137038399406e-02 -1.083393798683985193e-01 4.750439222182679111e-01
-9.035187305188924212e-02 -1.081280033167314608e-01 4.849984870816169691e-01
-1.278316110669174173e-02 -1.163209746477326251e-01 4.818981857901193933e-01
-6.707363158524692892e-02 -1.004911813399669007e-01 4.474296622942370294e-01
-3.771111465555476282e-03 -1.241754739554594006e-01 5.034889002993729878e-01
-8.300628551376817987e-02 -1.097524749741742023e-01 4.930396183005723576e-01
-4.324862435926934284e-02 -6.961966968018579172e-02 4.368525694657450775e-01
-4.157012998045717111e-02 -1.101706504897824179e-01 4.809067521997471562e-01
-5.407612712651868603e-02 -4.989150252522322332e-02 4.376952764239315230e-01
-6.742042840947477800e-02 -9.888343032275598299e-02 4.370437656053818287e-01
-5.361657901571854901e-02 -4.726057667020573672e-02 4.393895772375555620e-01
-3.447764348817947133e-02 -1.183432866313485488e-01 5.183102095811721322e-01
-6.685128891331912349e-02 -8.814010329036368885e-02 4.285379455193285558e-01
-7.487272675748943285e-02 -1.048910696012187171e-01 4.626051082991255448e-01
-4.775253771887624787e-02 -1.095158744390433286e-01 4.787411123740347718e-01
-9.774974363205626848e-02 -1.070752743172922322e-01 4.939376519969574386e-01
-1.585737383623340990e-02 -1.175090460212459970e-01 4.867597224862912353e-01
-5.552921425623648377e-02 -1.107894338265244388e-01 4.840207341515102568e-01
-4.710302218670583269e-02 -1.159075099802543279e-01 5.170479941702202931e-01
-5.476425507836727574e-02 -1.120284277670631906e-01 5.316508753896536099e-01
-2.092090784465120215e-02 -8.227391095065737792e-02 4.452388411559666248e-01
-6.339772539181051658e-02 -1.118719313866088638e-01 4.930505010866081395e-01
-5.304697251466234525e-02 -5.686806288134516052e-02 4.350328155004447028e-01
7.564558822923454946e-03 -1.267514436166494729e-01 5.225464768703337315e-01
-2.787570232189506142e-02 -8.125754441700613895e-02 4.438671616985866430e-01
-6.581948001752331578e-03 -1.184392585600051589e-01 4.847915050597729758e-01
-3.411937032292240018e-02 -1.068130316017599640e-01 4.719356273378600419e-01
-8.469454376099373738e-02 -1.083602897674524057e-01 5.108457470191160033e-01
-6.695984054079660852e-02 -1.023394064310788470e-01 4.540099446343659473e-01
-4.583234440005490296e-02 -5.027507696102135465e-02 4.369330602218293724e-01
-1.794303371446976519e-02 -9.583800367734870984e-02 4.547696249669552215e-01
-4.429508212919157362e-02 -9.835311940275702491e-02 4.542912837411450799e-01
-7.056645750713991250e-02 -8.552791558392380811e-02 4.335448178714557121e-01
-3.713242251512989534e-02 -9.283078632802359287e-02 4.505170148596981949e-01
-4.007074401648536011e-02 -5.223535735233957727e-02 4.372880692371489686e-01
-6.356952043902328042e-02 -1.012045245693607987e-01 4.402152433197242809e-01
-8.030449263508759872e-02 -1.086004956950428757e-01 4.778611480867306915e-01
-5.555829522384049535e-02 -1.145617317768867355e-01 5.113412725749385546e-01
-5.952635796028332010e-02 -1.007150293872183383e-01 4.454612417194556695e-01
-7.599964660597045840e-02 -9.098367211420627099e-02 4.399934830958404652e-01
-8.906000307217465384e-02 -1.049823064331835976e-01 5.169462995518694370e-01
-5.291259314868321934e-02 -1.096755234544518204e-01 4.790833684998530573e-01
-7.199957977475641979e-02 -9.653843659111471798e-02 4.387232556362704039e-01
-1.229227789361639345e-02 -1.205561618041146865e-01 4.943599736432759961e-01
-1.004892051831419303e-02 -1.234828817466730871e-01 5.338628375896770084e-01
-9.140727799135731080e-02 -9.128750080353635610e-02 4.582601775246141762e-01
-8.443841253514119960e-03 -1.235113383165693801e-01 5.038395856193618183e-01
-1.487091633788027722e-02 -6.629241036595798220e-02 4.409553369169308401e-01
-7.493159390721422508e-02 -1.107908128253259905e-01 5.133255194388224307e-01
-2.930883858235099407e-02 -1.182233626406689747e-01 5.360280214224596440e-01
-7.324376672091235940e-02 -1.098364685698837995e-01 4.843313087729071986e-01
-5.113825236682422587e-02 -1.092672175585476524e-01 4.771474307304071627e-01
-5.240333178239116318e-02 -9.035785024541638510e-02 4.334964882642409756e-01
-9.056426026085444281e-02 -9.509375130465098913e-02 4.563466146042198246e-01
-3.889315085338163752e-02 -1.159223430664607646e-01 4.991802087966979995e-01
-3.803464902491368593e-02 -1.167015671437430513e-01 5.325959037614987901e-01
-6.368670920601671170e-02 -1.051688899585051656e-01 4.633168355888852563e-01
-8.019804148773090891e-02 -1.101959357386218391e-01 5.046946232804859767e-01
-1.285747190275373861e-04 -9.968779526976241645e-02 4.588649867730281162e-01
-3.760451519280669924e-02 -1.172007090279267721e-01 5.067576520343641810e-01
-6.908430877453905494e-02 -1.113599720312884456e-01 5.196183341257013533e-01
-7.273129966585635542e-02 -1.113567650512160279e-01 5.133091676061435349e-01
-3.401370190167472135e-02 -3.460591744211717613e-02 4.377399827034497704e-01
-8.179353933367418394e-02 -1.058154770048544691e-01 4.675489218733593910e-01
-3.371392672762165560e-02 -7.618904789932980093e-02 4.406890716616011505e-01
-4.870071232686626339e-02 -6.744471515116232108e-02 4.339301150496596704e-01
-9.107461799933228019e-02 -1.081101068049056813e-01 4.861449863666819082e-01
-3.780634186284742571e-02 -4.155287956076388761e-02 4.371878265723797563e-01
-3.862606896517688237e-02 -1.173506543569565047e-01 5.115188883270375131e-01
-2.104456875146073873e-03 -9.776834168953681126e-02 4.571752253224614093e-01
-9.393563165292174999e-02 -1.009591056445428014e-01 4.641710886577647410e-01
-5.699039412621446921e-02 -7.424552975516636455e-02 4.300867073670423535e-01
-7.866989503582921817e-02 -9.897175397721884316e-02 4.504770470680097283e-01
-1.976308917689467357e-02 -1.182956545283206928e-01 5.466589040040610303e-01
-4.478505495121530566e-02 -1.073424230377197364e-01 4.723575614317689908e-01
-4.741162568586462789e-02 -1.029348700204060357e-01 4.607600672444967516e-01
-4.132353500469518326e-02 -1.091717156046179554e-01 4.782928903581012969e-01
-7.884293440194049818e-02 -9.290763437364392419e-02 4.448138137649506607e-01
-2.885691931599381616e-02 -4.109925553639869750e-02 4.395246898318200812e-01
-4.375485573148760188e-02 -1.135193319429980141e-01 4.915074577450271875e-01
-3.102051785802517614e-02 -1.168865919731007785e-01 4.971257294085802414e-01
-1.104956422649158373e-02 -8.299319590231379884e-02 4.465770274856096234e-01
-3.563413989598784859e-02 -1.177120009488898944e-01 5.267984953923915414e-01
-1.028884031936262988e-01 -1.001132213567716145e-01 4.744251595867342020e-01
-2.934641619621085676e-02 -7.649851520657617587e-02 4.416685098183353864e-01
6.612292389638053242e-03 -1.210204154571842966e-01 4.932474169904478845e-01
-7.486931945741928662e-02 -1.102452614916020063e-01 4.892155444331684477e-01
-7.684689535641174574e-02 -9.268974526113446522e-02 4.417031144844993928e-01
-2.138396460278571554e-02 -1.183995422128933939e-01 5.445762238883700146e-01
-9.292124294615057567e-02 -1.062764752270759644e-01 4.758608046184015783e-01
-3.410398736408110087e-02 -4.115907923907032029e-02 4.382998286381544761e-01
-5.624711201133444916e-02 -1.141330623719584436e-01 5.069817789937367536e-01
-1.944514435568199875e-02 -1.009245003034866528e-01 4.598867771806557925e-01
-4.208822570933753310e-02 -6.705928733723416635e-02 4.370894907632326132e-01
-2.629340399745829990e-02 -1.196364229883161295e-01 5.294103993038959954e-01
-5.302511427540590461e-02 -9.565811746016467110e-02 4.403693901424300949e-01
-1.340636943000096844e-02 -8.147951789285716451e-02 4.458040393536449320e-01
-7.291761585213124564e-02 -1.114724496254158453e-01 5.112369051714984458e-01
-5.419848641511091324e-03 -1.251277799509818156e-01 5.300818764256243210e-01
-9.422451649728189743e-03 -9.626490013496213916e-02 4.549619410986865953e-01
-7.384920918743717588e-02 -1.096515755622607113e-01 4.830547889447999732e-01
-4.554449950978766565e-02 -6.257430879644182431e-02 4.356601713506128570e-01
-3.832286802954672222e-02 -9.924185479199539028e-02 4.587027954223228954e-01
-9.826588758914843111e-03 -1.245832660235602074e-01 5.230573527796075206e-01
-3.095525500456799278e-02 -1.188599596616678744e-01 5.108531159887765849e-01
-7.056961946096568239e-02 -1.079304586550725309e-01 4.737134453443220261e-01
-6.678398387465801951e-03 -1.223960405932279921e-01 4.971097726811687378e-01
-9.850695623438385229e-02 -1.027887616194877729e-01 4.707170859077346448e-01
2.564238191005723325e-03 -1.238638905344073560e-01 5.006278439968405714e-01
-1.758275709386182203e-02 -1.074441952755702395e-01 4.680220009188874042e-01
-5.921223165329434802e-03 -1.060803101675244359e-01 4.643470524792308041e-01
-4.105036007549185684e-02 -1.170255779234682242e-01 5.194113827770677760e-01
-7.383690442349843952e-02 -1.032848221214438117e-01 4.581883120969471590e-01
-6.963488135002610102e-02 -1.000396035285047863e-01 4.466492355569248729e-01
-4.471384944164439462e-02 -9.997849643437531353e-02 4.569602986092368146e-01
-4.539096974349902947e-02 -1.059713429094756298e-01 4.677324635958436394e-01
-9.233183396680935684e-02 -1.002621199506089494e-01 4.618790800466663349e-01
-9.735892305171256478e-02 -1.024694276599160958e-01 4.686788232521280073e-01
-7.357345649191300574e-02 -8.617636022381081062e-02 4.371660511280289763e-01
-4.471153605005548370e-02 -6.934853537404168933e-02 4.361934538525928384e-01
-3.784405588179449997e-02 -4.739239272558461863e-02 4.373791242803727330e-01
-4.566288413376089206e-02 -7.929139023522265017e-02 4.365124284536663346e-01
-7.914191827891863679e-03 -1.252224881442040583e-01 5.158365762450125569e-01
-2.456583634289860596e-02 -7.438068251671625664e-02 4.418589756155245629e-01
-8.651154869539376402e-02 -1.073988092105829517e-01 5.123767441352807817e-01
-2.760551974866997174e-02 -7.507094078748698107e-02 4.416103770549454355e-01
-5.236652596268826648e-02 -3.549295994162496304e-02 4.443872983681836364e-01
-1.063592007486847089e-02 -1.243427372515000795e-01 5.129531606795093568e-01
2.312694016883215867e-04 -1.263632410523974903e-01 5.137032695795223924e-01
-5.486860295694401951e-02 -8.727790113037899034e-02 4.298479339346488737e-01
-3.842462140830862211e-02 -1.174859360646621914e-01 5.212646007634011980e-01
-7.981144420019267716e-02 -1.103987228266432169e-01 4.996803279143018361e-01
-6.453864190404744183e-02 -1.048647811767965815e-01 4.624175065304166332e-01
3.990251264208495574e-03 -1.262646468038264580e-01 5.126856092834964906e-01
-4.300573290386445341e-02 -7.933542203988656893e-02 4.381982335473970647e-01
-9.957222900759357676e-02 -9.783860578289160781e-02 4.657676339087049033e-01
-1.036438243427193207e-01 -1.006027025723343765e-01 4.771457253925264208e-01
-6.589213655308176487e-02 -1.003492329104667680e-01 4.399659310059637618e-01
-4.422997315972281712e-02 -1.158219880587606221e-01 5.272740906234028024e-01
-8.839117394411867557e-02 -1.058047136447130276e-01 4.712662905551339154e-01
-5.341318047782434020e-02 -1.117317961376675106e-01 4.870185428888168522e-01
-9.099987643671099413e-05 -1.258735212413719384e-01 5.087100709655985042e-01
-4.320599184280978639e-02 -1.001160127220040164e-01 4.580216105601159771e-01
-4.182250740320407612e-02 -5.596556202274628050e-02 4.372505558855608876e-01
-7.284214267393117337e-02 -9.911853508275364488e-02 4.456841857377300542e-01
-2.354479874651937282e-02 -1.086802793212243712e-01 4.729280382827893425e-01
-4.621092379109102005e-02 -1.116209260407533821e-01 4.861230905207077901e-01
-3.749184744078720537e-04 -1.198151955818447939e-01 4.881808856476874681e-01
-7.407204098718993268e-02 -1.098290346755031455e-01 4.846811926721853458e-01
-5.264992643296637076e-02 -1.150271425628801580e-01 5.144721146431138203e-01
-5.276776656218205852e-02 -6.720551069548093281e-02 4.322107979482606721e-01
-4.257634749864325913e-02 -5.752795413342960684e-02 4.369874684098592477e-01
-4.755305694355237839e-02 -9.116158678114144598e-02 4.428563510945693893e-01
-7.513803810321564858e-02 -9.997499544389616688e-02 4.499428878189914438e-01
-1.547758707469324563e-02 -6.599114251040860690e-02 4.408563800037990643e-01
-4.815258745538977814e-02 -5.666568730579964880e-02 4.358017447305981840e-01
-7.957873589526842650e-02 -9.694541116481163179e-02 4.474302852388354346e-01
-6.547090343514128108e-02 -9.198200014270777047e-02 4.268244160095823192e-01
-5.253845467723034651e-02 -1.114998240720435629e-01 4.856709946153783264e-01
-8.806852615094315495e-02 -8.552859407583260354e-02 4.591162279074074148e-01
-3.876084516629785953e-02 -1.113030627906696629e-01 4.834226531279465777e-01
-6.915488223298146830e-02 -1.055735817993536524e-01 4.645097881711796051e-01
-5.480816704148994134e-02 -1.035591969891638681e-01 4.600620144250398003e-01
-2.652848638987386626e-02 -6.797691179335450806e-02 4.401941516903511431e-01
-7.637202249815132349e-02 -1.052420177436446669e-01 4.641443922920614473e-01
-2.784079167856733789e-02 -1.183314985170401956e-01 5.376389174614847333e-01
-5.041225608925169188e-02 -5.276678290847665320e-02 4.364655107442452220e-01
-9.305111927522258242e-02 -8.954511523792288430e-02 4.616094879056927280e-01
-1.313756376451796250e-02 -1.203567584075169589e-01 4.944197695742435505e-01
-7.198580309402792012e-03 -1.046962702798033135e-01 4.629000709431149163e-01
-2.286602401618019823e-02 -6.967766171148542798e-02 4.409751416462540097e-01
-6.332293381326296877e-02 -1.047766122978418812e-01 4.621315746103682454e-01
-2.845435522178107676e-02 -1.186817756485756964e-01 5.033585620102289937e-01
-7.222876478218279162e-02 -9.511774014493919183e-02 4.373767990516350124e-01
-3.173104946786118458e-02 -4.521753661311782302e-02 4.390124413056312180e-01
-7.872709161073460082e-02 -1.084036998566129811e-01 5.194466464842155684e-01
-6.103722306306004486e-02 -1.112172741054816560e-01 4.878402287093341338e-01
-3.767163537998564210e-02 -1.171785199866939575e-01 5.285331056623203683e-01
-1.081415583734535724e-01 -9.749814659291242136e-02 4.856804313462455003e-01
-2.682664054138707288e-02 -9.690395294384705760e-02 4.571782296247835498e-01
-7.315817265690295612e-02 -1.099449763367145727e-01 5.210488457378167348e-01
-2.356522110506085663e-02 -1.191228958993480885e-01 5.003595540016363419e-01
-1.153504773553426163e-02 -1.226026618283266173e-01 5.026493229130818419e-01
-5.449822011921331283e-02 -1.131113813912444643e-01 4.948270232666716617e-01
-9.099083924130665912e-02 -1.067692848345049295e-01 4.759444844887948944e-01
-1.050309920142468850e-01 -9.214970998157909210e-02 4.779530262534588125e-01
-8.105564200475519343e-02 -9.091056315496817697e-02 4.467923637786554991e-01
-7.628226926504280692e-02 -1.107345377546812976e-01 4.953155190457921853e-01
-2.117131839138134373e-03 -1.200213447128585104e-01 4.888345844358928938e-01
-7.618686844552494120e-02 -1.092610259015783375e-01 5.196528454646953676e-01
-6.279906784072174231e-02 -1.044250528345066764e-01 4.610659352863755167e-01
3.348697556560406574e-03 -1.269256625673136629e-01 5.230907198327001684e-01
-7.273665685663636450e-03 -8.160776681509483710e-02 4.466773643140449779e-01
-1.647127693370425972e-02 -1.210071837661829408e-01 5.396090944651426025e-01
-9.231325085006181208e-02 -9.914275930507454593e-02 4.599755200354906925e-01
-1.262249307221296329e-02 -1.239382671740073549e-01 5.179550741798331082e-01
-6.130173299011170557e-02 -1.123900640082645258e-01 5.244575283087122841e-01
-5.108470627187471774e-02 -8.766745132270374607e-02 4.333698230332416190e-01
-3.515247454179244724e-02 -3.567647354675002047e-02 4.374527992757084593e-01
-3.240413306519823559e-03 -1.234321667713984272e-01 4.997447962617644901e-01
-5.214372703136328085e-02 -2.999305197197305733e-02 4.426001456510498810e-01
-5.412474182095047132e-02 -1.118644158726055937e-01 4.878582114840807060e-01
-7.511504421410029886e-02 -8.716205599444892815e-02 4.384414373732939962e-01
-5.021438273885873299e-02 -5.253728950902004230e-02 4.365507844770699641e-01
-4.824707716276411401e-02 -4.216315696853483591e-02 4.375979147991820306e-01
-2.916641174487270144e-02 -8.877562899823461529e-02 4.485825235348136486e-01
-3.878809423686335051e-02 -1.168250997824312049e-01 5.053530642484229674e-01
-5.501851260468020727e-02 -6.291064447613509136e-02 4.339566326228807003e-01
-3.095823115564701189e-02 -1.181014277639535343e-01 5.024641653533277186e-01
-5.363669146935164805e-02 -1.136827046413067532e-01 5.267663469212132688e-01
-5.305856555672086583e-02 -8.191545835124658392e-02 4.306403634304677985e-01
-1.576337391891607237e-02 -1.224834769563284409e-01 5.314992784761204403e-01
-1.633030023146492954e-02 -7.830386900858324339e-02 4.440355783609812312e-01
-1.246191242265396251e-02 -5.878149861085633920e-02 4.394220167418933509e-01
-6.571850555076455547e-02 -9.512355900922032925e-02 4.302844603185878580e-01
-3.471180237450641887e-02 -1.181617847229182311e-01 5.222518374273947828e-01
-3.108208578254778587e-02 -3.266763534934812030e-02 4.383600441353646682e-01
-9.519853118575455353e-02 -1.076752459323633837e-01 4.995397416586517259e-01
-4.771075228006523700e-02 -1.109104759982825206e-01 4.837825986193111660e-01
5.265587341031610679e-04 -1.217159079012877371e-01 4.936697123534095066e-01
-4.748480588454645490e-02 -5.894080266015970515e-02 4.353192395369542833e-01
-5.534017912177556162e-04 -1.211589077674340709e-01 4.922094909831297160e-01
-7.264457495241370688e-02 -1.000570920548414788e-01 4.487032276785543061e-01
-8.992224706320627037e-02 -1.058243075413541484e-01 4.723133014666804907e-01
-7.669740026581942094e-02 -1.108342443954351969e-01 5.077282839227649225e-01
-6.063038087236100049e-02 -1.108377050895027055e-01 4.856695575037494605e-01
-5.608390527693605382e-02 -1.091269793573699243e-01 4.766539071945006811e-01
-6.974388438257957124e-02 -1.075040556852195767e-01 4.715325829615718556e-01
-4.487644068369110728e-02 -1.126770583618242477e-01 4.891316323072716354e-01
-1.546183775641901854e-02 -1.227662811724029995e-01 5.286337618804136662e-01
-9.590106126278094556e-02 -8.883543664811326124e-02 4.668232653197882942e-01
-6.088414891402438994e-02 -1.135094389652347713e-01 5.192019283743142255e-01
-5.315872606471643003e-03 -1.254760636057949408e-01 5.276828092605996279e-01
-4.110438017033676145e-02 -1.150503569615288629e-01 4.967774586821374627e-01
-7.990924191839546276e-02 -9.575734292527825209e-02 4.470040045154385355e-01
-6.662797816032742237e-02 -9.505984828654047425e-02 4.307134666415137758e-01
-5.223973288573618978e-02 -9.584191230554661711e-02 4.425041730223672753e-01
-8.551764112679274832e-02 -1.039884407841059621e-01 4.646542427578431722e-01
-5.017601892610987213e-02 -1.089732622284238645e-01 4.763312704149945676e-01
-9.734940405662700913e-02 -1.030107479396070447e-01 4.701292179348456890e-01
-3.074114166947708796e-02 -6.655559216205626794e-02 4.393976218385524102e-01
-4.009372157442594314e-02 -3.078429327613423430e-02 4.371674742293891747e-01
-9.029110175457817633e-02 -9.891392222654420141e-02 4.580072516937884197e-01
-3.727779160735560093e-02 -1.176981852236454740e-01 5.220609650507038735e-01
-7.354294607784434001e-02 -1.048748744398118604e-01 4.620969850067453422e-01
-1.583425588016706617e-02 -9.669161678124241210e-02 4.551578987811367716e-01
-4.323742997681981337e-02 -1.165336787283779429e-01 5.227361143203091975e-01
-2.731111180350042494e-02 -1.103642906997472084e-01 4.773359434286054692e-01
-4.042620283447964646e-02 -1.148240259735294477e-01 4.950202035953795709e-01
-6.732002938567542560e-02 -9.901786817263243112e-02 4.376344176316308010e-01
-1.809571514233052417e-02 -1.221174028960444469e-01 5.253098396428043104e-01
-4.423848560413292524e-02 -1.162990685414286018e-01 5.120226214548094790e-01
-3.512578407330989305e-02 -1.174711076730102499e-01 5.318977351379163832e-01
-5.058601289222196956e-02 -9.347543840585938180e-02 4.408148462483126306e-01
-1.519165465795086802e-02 -7.985563849849615370e-02 4.448702011068827455e-01
-8.231016518221431766e-03 -1.246958224453694475e-01 5.109587560292411235e-01
-5.885080151283884203e-02 -1.108112692952989004e-01 4.843060090687436037e-01
-8.005746998368346024e-02 -1.085242366613159704e-01 5.164454988356323994e-01
-2.264120007858269612e-02 -1.204203935681859711e-01 5.064900209397737996e-01
-1.009408477606461296e-01 -9.097699968636882573e-02 4.723402372118331027e-01
7.352194759316227346e-04 -1.237970340262856822e-01 4.998804768246286612e-01
-8.952686460893696796e-02 -1.070429314162833906e-01 4.759526934184012403e-01
-2.522275784680714020e-02 -8.308309452389256444e-02 4.450283536596524314e-01
-5.750003375006138701e-02 -1.009526197437565637e-01 4.490672443107265321e-01
-9.799426799420837830e-02 -1.048249354484591250e-01 5.073365964424173535e-01
1.655642040047095769e-03 -1.262627420595200389e-01 5.314778186534797610e-01
-1.213609117045485672e-02 -1.220073836915732540e-01 5.000982502947504127e-01
-2.021308355279614194e-02 -1.210690341472888398e-01 5.326006989833614869e-01
-6.378664816628296097e-02 -1.114445449928772452e-01 4.905753933497694064e-01
-4.617576248881973683e-02 -1.102102102561965807e-01 4.814737518625560320e-01
-3.697048589525913503e-02 -3.709402798907317222e-02 4.371885332201483343e-01
-1.211059770531436840e-02 -7.306876901221402709e-02 4.428005878476912738e-01
-3.623548576836020663e-02 -8.437566573293717176e-02 4.437191571040094429e-01
-7.256086893270575697e-03 -8.442602556228137600e-02 4.478601673551024231e-01
-7.104200028784067589e-02 -1.003823015681315350e-01 4.488386306719957530e-01
-3.350124247340267869e-02 -8.770834930586147993e-02 4.467475571414021851e-01
-3.040451712563982736e-02 -1.026445277106525639e-01 4.653097731283008520e-01
-8.910536096316275245e-02 -9.875123331923651993e-02 4.574419876841026023e-01
-1.069440806987408295e-02 -1.237539123947014597e-01 5.317282896137973669e-01
-8.409282362650603686e-04 -1.153175984763626649e-01 4.775896482931299425e-01
3.510612730975339046e-03 -1.242567089029788657e-01 5.022424840652979228e-01
1.001164328354504744e-03 -9.804905430560797996e-02 4.576205765253305024e-01
-4.039498920172369945e-02 -1.161779725245156436e-01 5.020015881121889789e-01
-4.344532918714511666e-02 -4.962753110391032729e-02 4.368675582358493292e-01
-7.004611652890023465e-02 -8.861818076414366974e-02 4.315013247606860336e-01
-2.541407373577414530e-02 -1.186086826400093303e-01 4.997168547288469709e-01
-7.376473158517363182e-02 -8.487929689367629260e-02 4.381872233204993083e-01
-4.616541439911708844e-02 -1.158527673007941627e-01 5.097453164587952834e-01
-4.224990719288888169e-02 -6.015369052522719084e-02 4.370109885720253606e-01
-1.628605374427917127e-02 -7.806936765183371263e-02 4.439464032281991157e-01
-6.525040221498709311e-03 -9.560311043720935709e-02 4.548287916239735496e-01
-2.471614456760837589e-02 -9.354431460372610030e-02 4.535419638103386775e-01
-1.042894160617606619e-01 -9.592236438525526820e-02 4.752310068159344980e-01
8.254436922572748643e-04 -1.154746721447058311e-01 4.781036037842327779e-01
-6.985546285642041386e-02 -8.298567245232656153e-02 4.344684308569010667e-01
1.924432242480379751e-03 -1.198650931062335973e-01 4.883853506699915581e-01
-7.393136952509742066e-02 -1.096876555405666975e-01 5.212712065787700189e-01
-1.908968737806516439e-03 -1.264927737059447221e-01 5.229416042839197809e-01
-1.040545087018213966e-01 -1.001890675989150076e-01 4.775800771318688964e-01
