-5.676234958067769010e-02 -1.060863361357032991e-01 4.687891752286156288e-01
-8.402518248495279007e-02 -8.347585979616413410e-02 4.534059635452771797e-01
-8.931263140664061351e-02 -8.869474315260772457e-02 4.568051664430340386e-01
-8.231415617431833698e-02 -1.089326406840461503e-01 5.085026186034141693e-01
-1.963419263788715105e-02 -1.168300926330518713e-01 4.893064458798932481e-01
-3.078991265337176209e-02 -9.969736599640621755e-02 4.616983585164296522e-01
-3.929091596518201335e-02 -1.033286018342223500e-01 4.659246299832550675e-01
-4.836977435373464307e-02 -1.147531289558939710e-01 5.051672923747156929e-01
2.540627746743719106e-03 -1.234685757626399066e-01 4.998948315967623457e-01
-3.490442670289552185e-02 -1.180930713996309611e-01 5.176808729306493495e-01
-2.771657052411916414e-02 -1.187898285305475504e-01 5.342499346638938107e-01
-8.175791586565080149e-02 -1.028830665329436983e-01 4.627409563437024365e-01
-8.300156258223102823e-02 -1.036363200084725739e-01 4.653572363508282628e-01
-8.653602661247650207e-02 -1.087613111560394308e-01 4.972523538303272317e-01
-4.943935547380983592e-02 -1.061243760993435398e-01 4.692608107385584093e-01
-2.538328122108543874e-02 -1.201988957488567683e-01 5.188165331498246768e-01
-3.365330377876313978e-02 -8.741349981475714237e-02 4.474062662075931063e-01
-2.810245839950860705e-02 -1.188483457870434662e-01 5.332574951153611353e-01
-3.908731734210438291e-02 -1.162329854180837591e-01 5.028251543944082247e-01
-2.324376333532783903e-02 -9.740525799268817675e-02 4.581509216700255238e-01
-1.017163080792045787e-01 -1.051833021182820016e-01 4.961953113705594443e-01
-5.560502849487736210e-02 -1.096356153243609743e-01 4.821203849568766464e-01
-7.937970742411600000e-03 -1.221501657960806508e-01 4.972386162599015669e-01
5.494932886774156824e-03 -1.267824839499625544e-01 5.220775382983040558e-01
-3.139729517239255030e-02 -9.305677994964296762e-02 4.533048570374984543e-01
-5.701244588482792287e-04 -9.238728083603399421e-02 4.532524857236958082e-01
-9.734696826636729527e-02 -1.064849236117381692e-01 4.951549474047396981e-01
-1.016339666655211721e-01 -9.680123745680474512e-02 4.700005094221971214e-01
-7.354586245257503652e-02 -1.106314491311814890e-01 4.973929567115206729e-01
-3.873485277461472670e-02 -2.960345194899768190e-02 4.375130274720576695e-01
-1.923988592880929160e-02 -7.872632091714844293e-02 4.442086752862019483e-01
7.372169348766399906e-03 -1.262601930408423501e-01 5.157427217269089370e-01
-4.777320720908988932e-02 -1.053731822715068683e-01 4.673097404317245185e-01
-4.186184567711085519e-02 -3.749729626810700822e-02 4.370687945657303897e-01
-9.186368826399332610e-02 -1.055044932933868196e-01 4.758407799373890468e-01
-4.082654377383366368e-02 -6.981383965985388240e-02 4.383584277610933500e-01
-1.058695882063526994e-01 -9.963841991202151971e-02 4.825766615789033875e-01
-3.714803644706053676e-02 -9.187235155708717294e-02 4.506284727119455602e-01
-3.408007603433142740e-02 -5.730680943695354301e-02 4.386991925413800120e-01
-5.572655099218009472e-02 -8.821799850407316401e-02 4.310771026890818924e-01
-5.252257097510692335e-02 -9.488830758945278332e-02 4.440651086677382953e-01
-5.215903076306759034e-02 -1.069537749770672341e-01 4.711681483287381011e-01
-1.395015944074879527e-02 -8.401004183930711744e-02 4.470690827187302485e-01
-9.165440094259170306e-03 -1.236401173989857549e-01 5.058398032876327832e-01
-4.317890081402781660e-02 -1.014233819755266802e-01 4.615949860936981453e-01
-7.429937073896539235e-02 -9.045189680729917581e-02 4.376571113171837113e-01
-3.495019144529490362e-02 -3.740579741882728293e-02 4.379566835713962769e-01
-6.326046897944345715e-02 -1.067514919742831303e-01 4.714541298218831722e-01
-3.514399445081892170e-02 -1.151842965235022748e-01 5.427023671454743736e-01
-8.046948312426698002e-02 -1.090296327969727808e-01 4.869129573772920105e-01
-5.889496925158021340e-02 -8.684406482830088481e-02 4.285059547390557277e-01
-6.016954659972384434e-02 -9.923970985791154276e-02 4.441240129442189377e-01
-1.248878781247578056e-02 -1.198127943285519220e-01 4.924856188497697684e-01
-2.446683117618246583e-02 -1.200660322926748874e-01 5.093691223146163960e-01
-4.596857862303487668e-02 -1.157739569563459997e-01 5.131481174169221227e-01
-4.423666751791418411e-02 -8.955023279304957784e-02 4.459199008419321153e-01
-8.414990151088126702e-02 -1.075338497383411807e-01 5.136638707458532904e-01
-4.224883577036754774e-03 -1.121888951822693353e-01 4.727909550782096737e-01
-4.513578740846162923e-02 -5.282821075153124046e-02 4.374333962789547781e-01
-7.313218384296306385e-02 -1.106419819174413732e-01 4.971185965864640677e-01
-1.026688029144846442e-01 -1.041088406068100963e-01 5.021361415239198323e-01
1.187603234044153251e-02 -1.258893919146719109e-01 5.365421946518903473e-01
-5.750741395715536913e-02 -1.097572681437874037e-01 4.829060629063715582e-01
-2.502874314551872814e-02 -6.954203316168124094e-02 4.410856868437411094e-01
-3.708522088573779074e-02 -1.152152603768067662e-01 4.956633182099657309e-01
-7.177709649715446893e-02 -1.091901787906583432e-01 4.843467506654067223e-01
-5.055602169581717431e-02 -1.133033636739706057e-01 5.309629650254570343e-01
-5.489323202155990677e-02 -5.659720264299900744e-02 4.357931519221183159e-01
-8.944286410000483467e-02 -9.734276868317037756e-02 4.580521040872323479e-01
-5.759324623395733339e-02 -1.059817047765873044e-01 4.685935539009964401e-01
-5.975458602205260122e-02 -6.786959074804448100e-02 4.347829741312148610e-01
-8.327623924362073660e-02 -8.850905380842630232e-02 4.493712773913849379e-01
-4.077959029050957918e-02 -1.077760020978312944e-01 4.761503521663647542e-01
-4.841821684876220638e-02 -6.882723489925184068e-02 4.350617565415352272e-01
-6.617325196057084746e-02 -1.121552332622599985e-01 5.045167679448451237e-01
-1.238042057837853739e-02 -1.109866569088134858e-01 4.720454885477725071e-01
-3.043503158218516594e-02 -1.067378509612658122e-01 4.723655105891766404e-01
-4.226077557790632044e-02 -1.157541096692453059e-01 5.046172338549370640e-01
-1.772584855355358036e-02 -8.943511845903080737e-02 4.495798388608507334e-01
-3.182853411110824621e-02 -1.185333555066894889e-01 5.220228845585609401e-01
-5.128423312469865963e-02 -3.930892911693559255e-02 4.394104765319377659e-01
-3.936665171925234075e-02 -9.722835222614510664e-02 4.568699061741894885e-01
-4.326372388510026090e-02 -1.156440996987972564e-01 5.053982165358978929e-01
-4.800306960806273449e-02 -7.488128255064713246e-02 4.355760720383565210e-01
-4.738815928298355240e-02 -1.140390210993454251e-01 4.969775125168874319e-01
-6.577817415770553788e-02 -1.021334225559986236e-01 4.566679836332859788e-01
-4.316717189299071333e-02 -1.002422585250868914e-01 4.597976302622659994e-01
-9.395375556214120849e-02 -8.643016271955969443e-02 4.657614498736680209e-01
-3.932441391672520520e-02 -1.171622821121472424e-01 5.158834409544184041e-01
-8.200688313737412860e-02 -1.029576096691425663e-01 4.630650481353509873e-01
-6.348401155129966555e-02 -1.075370066368683125e-01 4.738784078947567702e-01
-4.685811087827320559e-02 -8.351420051236549402e-02 4.377942209080323277e-01
-5.996073766508679646e-03 -1.245625451738721079e-01 5.074622396629667742e-01
-9.407679131647257720e-02 -1.072865382666913781e-01 5.014908371024235922e-01
-1.182831453068072455e-02 -1.080673170750727358e-01 4.674390228418523474e-01
-1.088344767816767401e-02 -1.231515406204778534e-01 5.349532406952369756e-01
-7.383977130387546495e-02 -8.928613179325234350e-02 4.359971944620883999e-01
-7.534115053765712278e-02 -8.448675576749690996e-02 4.399392032731807567e-01
-6.999467697525009469e-02 -1.115885884878244361e-01 5.044947128018988369e-01
-7.327013751218232340e-02 -1.094258395664005901e-01 4.870654568114879401e-01
-1.042793149107554967e-02 -1.240372286686970832e-01 5.297562350606911385e-01
-4.570344425605940564e-02 -5.909217880047174659e-02 4.363501459312632003e-01
-3.811002785189266523e-02 -1.123119142590312119e-01 4.871815479264930970e-01
-2.356487603125331787e-02 -1.203051881470564577e-01 5.277847747305781656e-01
-4.905833145230407283e-02 -7.278736498985913239e-02 4.345192548752420114e-01
-7.388261678916233088e-02 -1.043497558931584801e-01 4.638667725887440918e-01
-9.638117454336786460e-02 -1.064388280572590578e-01 4.900683984949651406e-01
-1.053309916151244294e-02 -1.026804818131580727e-01 4.608988360245787064e-01
-1.016388952661071432e-01 -1.049001745212287395e-01 4.891596995458953323e-01
-5.262169815862033362e-02 -1.143085808650310120e-01 5.080312843291718838e-01
-1.539461688408333244e-02 -1.122620562579576819e-01 4.756878285645084747e-01
7.542265738075144658e-03 -1.266808676167693881e-01 5.320456263563592136e-01
-9.416427150335572593e-02 -1.026985927378375740e-01 4.695258559772653717e-01
-1.609076954788513786e-02 -1.200259887543813353e-01 4.966374464471191019e-01
-8.549523051148485986e-02 -8.350454083803740546e-02 4.557505582784294740e-01
-7.905643823260040393e-02 -1.092760690432352799e-01 5.130774321129966120e-01
-9.718357188955621673e-02 -1.050087556669427880e-01 5.067906505079691204e-01
-9.950353888920757117e-02 -1.039009304703458203e-01 5.068859306303508117e-01
-4.520309687767389006e-02 -3.926784890774400599e-02 4.374468327507503584e-01
-7.749230313058561026e-02 -1.054766162809765012e-01 4.683040014776758131e-01
-3.164956863362285155e-02 -3.756999910860400055e-02 4.389451281054790321e-01
-4.168009294794255970e-02 -1.164661951791485517e-01 5.117912437171606710e-01
-3.501150580790719780e-02 -1.174186639273406968e-01 5.308734850635452585e-01
-6.242838016678409901e-02 -7.387476536359735557e-02 4.342353236645840608e-01
-5.013821017847983064e-02 -5.278423920453666901e-02 4.368100376688213715e-01
-6.475104246977045341e-02 -8.102494241661800656e-02 4.291753224235919095e-01
-2.290816075191124540e-02 -1.188557741478722118e-01 4.994215793108116586e-01
-3.734888647591454169e-02 -9.386547625824365193e-02 4.530675381434633442e-01
-6.053276900412172395e-02 -1.092297308677043777e-01 4.809328109196108203e-01
-7.233128183216457063e-02 -1.094203062780309960e-01 4.863998723891644338e-01
-4.236263455934061867e-02 -1.097937276542714641e-01 4.815371822545431169e-01
-3.522252253328735094e-02 -8.025834982270416140e-02 4.426600229253607188e-01
1.416061072248827636e-02 -1.256915680541679514e-01 5.363584461532096004e-01
-1.380116945710469466e-02 -1.234171459394769466e-01 5.226270885236730113e-01
-9.805395629715507599e-02 -8.755835915827045457e-02 4.710543347818373916e-01
-5.362575304787925434e-02 -6.749669631195794051e-02 4.324662381372641473e-01
-3.872359804665977817e-02 -1.053591390931026966e-01 4.701632397561876786e-01
-5.541053184052313618e-02 -1.084575355860901980e-01 4.767543340745701297e-01
-1.092554263242592749e-02 -6.739552165690393393e-02 4.416091436587339936e-01
-7.219986615733108015e-02 -1.113448358509989689e-01 5.083043003573833873e-01
-1.124980587379574917e-02 -1.227270597236777283e-01 5.036112068560139043e-01
-7.825343673710405401e-02 -1.083016858868569299e-01 5.194173554289289729e-01
-4.413173983017577157e-02 -4.454866928024419498e-02 4.370710921620677425e-01
-4.903648997611381732e-02 -4.633748783062859727e-02 4.374652147716459050e-01
-4.766395470280424679e-02 -6.358041631090226298e-02 4.355104505543381244e-01
-2.963553392512126294e-02 -1.067939555680962188e-01 4.722130000390121762e-01
-1.366912445168512978e-02 -5.407145958496649418e-02 4.391313438197145813e-01
-8.630169153827300932e-02 -1.078653095107898474e-01 4.838247698693855514e-01
-4.288943895758402097e-02 -7.991715139899457920e-02 4.395232035626185918e-01
-6.801364552688460297e-02 -9.399119240754524873e-02 4.328963266837551616e-01
-6.613842427880269048e-02 -1.070148731026977357e-01 4.725941552169752313e-01
-3.200692165477268120e-02 -1.179320229878278170e-01 5.329106029428061220e-01
-1.177460987028314601e-02 -1.092274119989664616e-01 4.692099079897373293e-01
-2.878112587678766793e-02 -1.157798886405732308e-01 4.936403287328857137e-01
-2.767563280646714169e-02 -1.045388197618727366e-01 4.678452721604980380e-01
-3.549429916158191450e-02 -1.153486372749992633e-01 5.419669661133998950e-01
-2.219241745280023381e-02 -7.285332511029540825e-02 4.421278400920051754e-01
-6.992918512736029379e-02 -1.041310306757778498e-01 4.629742015619900397e-01
-1.581495008451419548e-02 -9.778663475295058805e-02 4.565280442623674828e-01
-2.520919543945050398e-02 -7.370930938825509537e-02 4.420643672526052836e-01
-4.074184182151206757e-02 -1.060949160741473801e-01 4.712068034593462351e-01
-2.624939886673112108e-02 -7.292144211436857315e-02 4.417697817504310787e-01
-1.095335581824535831e-02 -8.179102020221162839e-02 4.464918323842674841e-01
-7.876310087577459429e-02 -9.947664780044196409e-02 4.538504517452315867e-01
-5.195855293336321817e-02 -9.969628346406694819e-02 4.539647520650806900e-01
-1.018484317847851393e-02 -1.030683028425785769e-01 4.613551503685344723e-01
-1.009526624371437226e-01 -9.651286986285982639e-02 4.685174353956219062e-01
-4.214422714199342335e-02 -1.163832184451841917e-01 5.244440391056508499e-01
1.773877212154699500e-03 -9.925781761650491475e-02 4.588874500598325579e-01
-9.577910210724233098e-02 -1.048461747927542098e-01 5.097205612720273615e-01
-3.431409382119048751e-02 -9.859862093424318075e-02 4.597918522778156603e-01
-1.956347078262813538e-02 -4.609558591782407511e-02 4.396339805096666775e-01
-4.236274596493273814e-02 -1.165058071412495566e-01 5.205828153724947338e-01
-8.380100247851940409e-02 -1.078151435905276428e-01 4.807967025513779635e-01
2.149553821155643710e-03 -1.209293916304830657e-01 4.922216856329439949e-01
-4.646749901139067551e-02 -5.608263393763104204e-02 4.365546758686162376e-01
-5.709168105247482139e-02 -9.631286850908141184e-02 4.383462136881585702e-01
-2.078813820522436989e-02 -7.320115293260172351e-02 4.423493493900398366e-01
-5.799154393969653543e-02 -1.041000630383168285e-01 4.636309514127950893e-01
-2.136393842726183948e-02 -5.206436993499468507e-02 4.394100847955352274e-01
-8.375777093858591954e-03 -1.244344881570036282e-01 5.098438564592780997e-01
-5.535711817615428243e-02 -8.323106975596347712e-02 4.302472986350048267e-01
-8.694980625502657379e-02 -1.064676738270322887e-01 5.139018174388034765e-01
-5.257304020606581862e-02 -1.126235952978617005e-01 5.312934136171383326e-01
-3.027967791553086083e-02 -1.185750905845281283e-01 5.292853655489221376e-01
-5.308922540275611002e-02 -4.369893935712602234e-02 4.409927561020969833e-01
-2.677160559172775400e-02 -1.145886942751193349e-01 4.892073651107971544e-01
-9.572953534202463532e-02 -1.069056990927749473e-01 4.971431399688582831e-01
-8.417141014195535231e-02 -1.088488501361732502e-01 4.912421823520749520e-01
-4.235849680314658638e-02 -1.165957974709408707e-01 5.161142571729544493e-01
-7.660527739744260600e-02 -9.450690013054374727e-02 4.436073114435634679e-01
-2.433307959331974454e-02 -5.896315505125596795e-02 4.395426038425392923e-01
-8.851301933119615217e-02 -1.031284789751463343e-01 4.670632665108914172e-01
-4.170108595095054632e-02 -4.208542052743680095e-02 4.371595402691814680e-01
-6.210684368292558599e-02 -8.464361167788646279e-02 4.277646470681845670e-01
-1.891523693446220053e-02 -1.178180502304863736e-01 4.912735714001008058e-01
-4.353081856011521700e-02 -5.630465625787239164e-02 4.371533738240974132e-01
-2.569381828553911687e-02 -9.896677691740246585e-02 4.604277246833166637e-01
1.860457027248032863e-03 -1.131639309456044934e-01 4.748199362939888868e-01
6.234327793720500360e-03 -1.267005935356478596e-01 5.198076643577811407e-01
-6.793351822609805524e-02 -1.061170405046973492e-01 4.697202157540522061e-01
-1.968192359730479984e-02 -5.751956682168410384e-02 4.395663370313682150e-01
-9.479755271943038353e-02 -8.765909482810843589e-02 4.653144781907301852e-01
-5.362103252601791575e-02 -5.732666486268134243e-02 4.352028320311110976e-01
-2.522159210175777683e-02 -8.438322160344251255e-02 4.463135169818536752e-01
-3.578358699571456119e-03 -1.118659180153536437e-01 4.723441651633614180e-01
-6.866279333116863393e-02 -9.885842895133371833e-02 4.445797059747971791e-01
-7.028476558834471921e-02 -1.020816825932612804e-01 4.573598703247048203e-01
-9.594456625132452565e-02 -1.040381491081744936e-01 4.751936742366065780e-01
8.774435611817184939e-04 -9.073420768422996163e-02 4.523383577409320067e-01
-4.191041112563328314e-02 -9.885768144534974600e-02 4.581702685232598160e-01
-3.283221897255278986e-03 -1.243513119769408537e-01 5.350296214762447766e-01
-1.896639512287335476e-03 -1.259299905763363314e-01 5.301359689652745955e-01
-3.347553222030718451e-02 -1.171801247668781409e-01 5.017466258851901451e-01
-9.034704349421168734e-02 -8.740476153751178257e-02 4.592720380366982491e-01
-6.973788220158141926e-02 -9.414733990208429271e-02 4.345448943339039749e-01
-4.543599386505536852e-02 -9.409092734920693202e-02 4.486206616864568120e-01
-6.500100404471935434e-02 -1.110012128233431872e-01 5.253809927412839142e-01
7.442810459682165820e-03 -1.267883863891166030e-01 5.311408160586889027e-01
-4.885512243470119947e-02 -1.042343249076111700e-01 4.644458854832212436e-01
-2.800714356963152421e-02 -1.064047179055038761e-01 4.710383176343218015e-01
-4.614361805593970162e-02 -1.076691003428166399e-01 4.752200299103138681e-01
-6.549807997776511959e-02 -1.080088766113166260e-01 4.757821574745108584e-01
-8.563745752759069699e-03 -9.237744531104852275e-02 4.524423954389492630e-01
-5.674749474985472594e-03 -9.936361374434346527e-02 4.585652574761478473e-01
-9.332528249212007632e-02 -1.071419189070168809e-01 4.896718257700741761e-01
-1.068345742672748150e-01 -9.905664884532548731e-02 4.845258990779077179e-01
-9.268149377948538270e-02 -1.051787359143951106e-01 5.122408989715742100e-01
-6.455313220499017679e-02 -1.118189271100177851e-01 5.217900502358348014e-01
-5.626406183769754737e-02 -1.078985389676655887e-01 4.743549750163007506e-01
-1.903300938826962482e-02 -9.480327504093408186e-02 4.544511873075062769e-01
-1.129243574048090747e-02 -1.234524992767615098e-01 5.080340473118332145e-01
-6.674425822630877803e-02 -1.115536813397741966e-01 4.988462304119714030e-01
-2.819878980456699130e-02 -4.447148866973257841e-02 4.397696910197778641e-01
-2.555943699567415212e-02 -1.186433417450407785e-01 5.011708624306568938e-01
-7.435342042734469081e-02 -9.320661126734879065e-02 4.396279556828922574e-01
-9.392139112107411592e-02 -9.785351757348637047e-02 4.618992729776316697e-01
-5.396521400471755020e-02 -8.294100830224819532e-02 4.313759968221720920e-01
-7.593143840375850273e-02 -1.060512754501548027e-01 4.701155824169051534e-01
-4.123245054390475839e-02 -1.145286915295365276e-01 5.375614875014426142e-01
-8.870188537908157977e-02 -1.075948456434515921e-01 4.850650902105289597e-01
-1.589634794097247519e-03 -1.256585036263563881e-01 5.090712168033794116e-01
-4.855875758587521740e-02 -2.673724359281415969e-02 4.385026034834820785e-01
-2.507033813433144284e-02 -1.107652017217227169e-01 4.783339491292896151e-01
-2.852971418702078543e-02 -3.756188356787902582e-02 4.395347080797633588e-01
-8.188499821564618197e-02 -1.074858323772801966e-01 4.771770882253428270e-01
1.153427130144569004e-03 -1.209494344992821380e-01 4.919774277000711904e-01
-1.234125954018698221e-02 -1.184072204105943577e-01 4.879548742302686204e-01
-2.027162472714010358e-02 -1.216845255932010872e-01 5.153026021220563635e-01
-5.435157272924902305e-02 -1.129918954468286246e-01 5.286442885419047055e-01
-5.255460226179824168e-02 -1.142885201738550877e-01 5.076623314846683277e-01
4.081475824252799901e-03 -1.266307351300068329e-01 5.282833671455295921e-01
9.880173617247494343e-04 -1.267202512043573426e-01 5.172751255767256140e-01
-7.322924342136880038e-02 -1.074379595908164786e-01 4.757810012759320362e-01
-5.982589926238131295e-03 -1.173742453159897503e-01 4.825324088320231408e-01
-2.365248506347706822e-02 -1.195203024904179928e-01 5.034072198125962849e-01
-1.145614698977048297e-02 -1.079018457649794371e-01 4.671356283030648759e-01
-9.585012431054560494e-03 -6.694362581861657002e-02 4.415282839160441508e-01
-1.050959788644477144e-01 -9.953136786706855144e-02 4.806018759116809091e-01
-6.796636524407058400e-02 -1.067700668571256312e-01 4.719217932322396503e-01
-9.592246881811623826e-02 -1.033743649763983058e-01 4.728545763468717245e-01
-4.070430342594723305e-02 -9.964829595345252311e-02 4.597789964705120136e-01
-5.954584010758108559e-02 -1.130896237944032379e-01 5.046209841062313517e-01
5.922822742551215290e-03 -1.258149654175498566e-01 5.114617533907234170e-01
-1.059345568271173182e-01 -9.479772367764460750e-02 4.789511915378859008e-01
-2.165346093474618261e-02 -1.209865734428037382e-01 5.249575701069201239e-01
-3.302455814552105601e-02 -1.034411739881266057e-01 4.672395151543921044e-01
-1.112696488528272347e-03 -1.264546743366911918e-01 5.257796081137849908e-01
-2.176876441489436834e-02 -1.100879004737183864e-01 4.753744646675490682e-01
-4.817318332374795342e-02 -1.144939905538558678e-01 5.020358344162785258e-01
-6.932915522974522626e-02 -9.939972660876446320e-02 4.484819664139186313e-01
-4.759814125789553485e-02 -1.149690684253680262e-01 5.060449136131961456e-01
-6.582591578296802248e-02 -8.507621732926713698e-02 4.276425132002700247e-01
-6.966695170733717968e-02 -8.375289684361911235e-02 4.324898132448964372e-01
-8.756533973897545620e-02 -1.081950629370947575e-01 5.049883431564269332e-01
-4.540847017198106766e-02 -5.323439002565721889e-02 4.374321775708958637e-01
-9.292505182379411088e-02 -1.076392319781450668e-01 4.992727492050446081e-01
-1.426671843669004985e-02 -1.231319069886073897e-01 5.114439943669620847e-01
-1.329811682335793610e-02 -6.847469546276097052e-02 4.417189847201829500e-01
-4.489715433306389059e-02 -1.151829050528381665e-01 5.034379537812431193e-01
-1.066397417959405736e-01 -1.012127426741492864e-01 4.971350383280152552e-01
-4.497456759584764902e-02 -6.755183979252324389e-02 4.366658746209690634e-01
-9.657421570952982870e-02 -8.654062913006262125e-02 4.699868787485143584e-01
-3.496416603163807202e-02 -1.165117730190582956e-01 5.001565328635974028e-01
-3.804256155720132232e-02 -4.431067678102709045e-02 4.375869768371040136e-01
-7.551159069451794659e-02 -1.088779884478500021e-01 4.835683940650768453e-01
-9.837760744146320513e-02 -1.052532190426314074e-01 4.840980423689860146e-01
-6.657925060317144983e-02 -1.107889465691125064e-01 5.243587732641087351e-01
-2.965773888823455481e-02 -1.093616372162277139e-01 4.769093705304328634e-01
-5.205238973366025507e-02 -6.352105863145267317e-02 4.337949529220940237e-01
-9.947216023899503601e-02 -1.058153476820868771e-01 4.983725674553334262e-01
-6.064875977626332099e-02 -8.809728984968229204e-02 4.278385614050624342e-01
-3.599190751023271378e-02 -1.172065038952558313e-01 5.307010118146845423e-01
-9.154506235075948739e-02 -8.463305017030568755e-02 4.647233763211394697e-01
-6.132721155459741266e-03 -1.228826592000544227e-01 4.995538307084184670e-01
-6.022168465958794431e-02 -1.133392288059748426e-01 5.094549010359070706e-01
-1.495185180464067218e-02 -1.114829192776888439e-01 4.738090523268848608e-01
-7.441104521487883726e-03 -1.193748935903496816e-01 4.887420240985149711e-01
-3.975838968815488539e-02 -6.318489226303257433e-02 4.380890593117754417e-01
-4.016722159402622699e-02 -1.166796646736744242e-01 5.255565219142277478e-01
-5.310119750232858427e-02 -1.122338783852963456e-01 4.918689154090645221e-01
-7.184767451539064709e-02 -1.031440010028629589e-01 4.601270128076783150e-01
-3.178190710755899456e-02 -9.754023117384742758e-02 4.585105648989221683e-01
-3.113613139512758435e-02 -1.127846823589694347e-01 4.851352336568949264e-01
-3.396776059384506996e-02 -1.038918117195430230e-01 4.678054177756239551e-01
-2.284724193294079830e-02 -1.175712655378946259e-01 4.956122261125084361e-01
-9.712963765341131595e-02 -8.536242156878219578e-02 4.730597762600347589e-01
9.708541851524081501e-03 -1.267461092305377235e-01 5.234642094960088032e-01
-6.683660233383729998e-02 -1.120404571044802539e-01 5.041124471473943380e-01
-1.039777827526158771e-01 -1.043060115371192836e-01 4.973582734700146557e-01
-5.840028127302743927e-02 -1.086628351212217541e-01 4.779392711455685006e-01
-9.404089372505990141e-02 -8.999128750435485269e-02 4.620027657211661642e-01
-2.205314032087379167e-02 -4.230107725856752099e-02 4.400300198928642770e-01
-7.555235451723887885e-02 -1.021140118110037548e-01 4.586445555421043707e-01
-9.001590344320005432e-02 -1.025166466656547981e-01 4.664005719206726908e-01
-9.014790828109704030e-03 -1.246285274370729917e-01 5.127238743320270409e-01
-6.263291615152664915e-02 -1.110221826840336601e-01 4.910958138295106190e-01
-3.626056511058339121e-02 -1.154043232002605196e-01 5.413301530228219471e-01
-1.278522293021880710e-02 -9.064826109659455955e-02 4.505914823953011683e-01
-9.346667627818497359e-02 -1.050820049257278205e-01 5.116407082494355274e-01
-8.873228703897786951e-02 -1.066719069172502449e-01 5.110726514635940410e-01
-5.776958103007365231e-02 -1.119494790354879227e-01 5.292813229846887735e-01
-2.485485910387726788e-02 -6.120622734862473519e-02 4.398186795176385333e-01
-4.306967258337741911e-02 -1.162740302362114536e-01 5.130256452647768972e-01
-4.841941054917085069e-02 -6.727131333181589345e-02 4.349600376533389601e-01
-8.857521376475736841e-02 -1.012044247910846573e-01 4.628325458346788102e-01
-4.456097853180115281e-02 -1.121883477019171571e-01 4.890392983766551072e-01
-5.736043627945953266e-02 -1.126094456621837825e-01 5.271918058776875471e-01
-3.009515417493846545e-02 -1.189362410151840882e-01 5.214617815933149103e-01
-7.855596446751173662e-03 -9.591002321174182943e-02 4.553232969864910440e-01
-1.413917686857615180e-02 -8.308782231996773848e-02 4.467120093869728636e-01
-2.922371446801471512e-02 -3.855998564923009131e-02 4.394984715220856542e-01
-3.353981617084607347e-02 -9.714323300821554874e-02 4.578035148049958702e-01
1.927268821274081504e-03 -1.269385029779116492e-01 5.195647608499867065e-01
-6.413322412567744671e-03 -1.227700463368483069e-01 4.992304339711424732e-01
-5.983144949754400782e-02 -1.118656244792375215e-01 4.943392123241554525e-01
-6.144683193603750482e-02 -9.157713512545379020e-02 4.280193893939696625e-01
-9.461703642366883771e-03 -1.244760125583837945e-01 5.280578121375714140e-01
-7.546886163500516123e-03 -1.228108245443849528e-01 4.998375139634687603e-01
-4.253338997843311708e-02 -1.107880274005434568e-01 4.844127541926268599e-01
-7.311123797908662680e-02 -1.094887990195325261e-01 4.875411530471075450e-01
-4.264059978466014367e-02 -5.529828128509247515e-02 4.374991516090173116e-01
-3.150484067868117993e-02 -5.300806056092769586e-02 4.390205751577155868e-01
-2.351359506469146224e-02 -1.185822641014283724e-01 5.416215397605207427e-01
-7.354805897822351557e-02 -1.059529555632708619e-01 4.695821149160945840e-01
-3.245045713807644117e-02 -1.127880018010299495e-01 4.857851779406816006e-01
-4.549928841543567082e-02 -9.013804567480825092e-02 4.455349592239910006e-01
-7.577058427073661562e-02 -1.090163383018448590e-01 5.200681046867816626e-01
-5.662856598863707375e-02 -1.111490864554357111e-01 4.878550586576079207e-01
-9.388589513059593383e-02 -8.674428249512627920e-02 4.651609828308365113e-01
-3.158869841384608079e-02 -1.181407089504757646e-01 5.060760551802945262e-01
-3.810377265774769068e-02 -1.159715826390644577e-01 5.369018872699414802e-01
-3.616144094006758236e-02 -1.167907079093086081e-01 5.342032304407864363e-01
-9.435426714650960167e-02 -8.713617982396229533e-02 4.652992399051560368e-01
-8.689747185974958099e-02 -1.086488792195228342e-01 4.934774063401292099e-01
-2.055486446852074905e-03 -1.146216055737038497e-01 4.767592223560585540e-01
-9.303238485914361311e-02 -1.076343341477114940e-01 4.971887612277261503e-01
-4.911399180381549601e-02 -8.763283570049119897e-02 4.374947787997203186e-01
-1.199778875434602500e-03 -8.871931974962293799e-02 4.509805494240297641e-01
-2.151269921318872680e-02 -9.701162375803530635e-02 4.573374885168426385e-01
-7.587989845456909188e-02 -9.524129418903884425e-02 4.436026922006465756e-01
-9.997676762526000460e-02 -9.949719358397796087e-02 4.692090932580161855e-01
-4.889676566261967616e-02 -8.272491224573107205e-02 4.355151017831069282e-01
-9.661982387071803291e-02 -8.637658640538123378e-02 4.703571043692781894e-01
-7.553134940340441861e-02 -8.501647797906830561e-02 4.397966887825385252e-01
-3.772492845465406919e-02 -3.335492191955527486e-02 4.374259902196334648e-01
5.800510960248455444e-03 -1.265212083173283819e-01 5.163043997323485401e-01
-5.644570177815393108e-02 -1.134094791079788139e-01 5.235357914161705706e-01
-4.893667678033666868e-02 -1.090928259658429378e-01 4.793249163309349359e-01
-2.089632990846324381e-02 -9.205083603564331862e-02 4.520836312066778273e-01
3.951315514307959451e-03 -1.225515740382330243e-01 4.973488991215666566e-01
-3.378914052700856402e-02 -1.182059809948859397e-01 5.144518871319876396e-01
-5.389029138466279456e-02 -1.119128172758769718e-01 5.323200654094971673e-01
-4.528487154096546424e-02 -3.344170405391558992e-02 4.371752481176081617e-01
-1.066588127108645812e-01 -9.844984308736824674e-02 4.824014192234049037e-01
-1.742080050267001690e-02 -1.221357488988480677e-01 5.098807823180350196e-01
-4.283456026367878783e-02 -8.561023799936716416e-02 4.434499339275387864e-01
-3.138989421389373063e-02 -1.118050939800526999e-01 4.825637057299728139e-01
-2.153561823453398541e-02 -1.168621718903514739e-01 4.915052728896245338e-01
-9.388859780108251701e-03 -1.142758724692107819e-01 4.768328299860011277e-01
-4.203463720492921218e-02 -3.324655823517975312e-02 4.371104411947344115e-01
-7.897825761486713947e-02 -1.079110622595967489e-01 5.198724746290567245e-01
1.213532515755293747e-03 -1.247549924198590732e-01 5.045208516645490748e-01
-8.047908239640215455e-02 -1.028191217838310551e-01 4.619075973633904875e-01
-1.135697310783470582e-02 -1.241482351394301437e-01 5.215814453034797182e-01
-9.632052369342949949e-02 -1.036116430672031630e-01 4.741787116717357531e-01
-8.718855473675608814e-02 -1.017078197403346734e-01 4.630377323156548153e-01
-2.302265091346894499e-02 -1.138759492174804960e-01 4.842866865881938487e-01
-5.733475709079733501e-02 -1.133451514008145949e-01 5.229733510101300942e-01
-7.802189115527553842e-02 -1.101689655435861698e-01 5.012975795490337561e-01
-1.270372856857367519e-02 -1.205511260216104302e-01 4.952840571216869936e-01
-7.877189046833570074e-02 -1.085493679060759303e-01 4.823431420698292560e-01
-5.305816838214176545e-02 -4.875184364136365273e-02 4.379376220266473219e-01
-8.772505601610830483e-02 -9.886280363040118868e-02 4.582414081966382224e-01
-4.749184608325844603e-02 -4.813206608713366252e-02 4.372208532410498671e-01
-3.257451194137740008e-02 -5.183736840237255367e-02 4.388568977377820257e-01
-4.040752514092450093e-02 -8.808719190234447216e-02 4.464014701988029965e-01
-1.516518565016033646e-02 -8.817809295994216701e-02 4.489662868269810314e-01
-1.266310840299421370e-02 -8.997435900307169943e-02 4.502065097905295077e-01
-2.387521054891368621e-02 -1.109876287673178807e-01 4.785020321333590121e-01
-3.511090307632657326e-03 -7.999174963472223399e-02 4.467472878338930586e-01
-8.801795009050240870e-02 -1.083970562845163882e-01 5.010374567992298411e-01
-1.370409954872462213e-02 -7.293536655474507080e-02 4.429330193921637293e-01
-7.511694148886108313e-02 -1.040987907059129081e-01 4.635653826564129498e-01
-1.900353382421994183e-02 -8.953391794751028310e-02 4.496992833253297128e-01
-9.445716222458043487e-02 -1.072429771001043863e-01 4.979952696439066129e-01
-1.681294176386987325e-04 -1.180839515568640474e-01 4.842570626952328317e-01
-7.257749448934776304e-02 -1.084239984677991264e-01 4.800405744104383476e-01
-3.968659753115440919e-03 -1.256073177204535818e-01 5.294822911991605707e-01
-6.745570231337871814e-02 -9.922920399215419407e-02 4.453981705044454120e-01
1.632593963164442191e-03 -1.203036946840533722e-01 4.902164079039973421e-01
-9.198944672351050400e-02 -1.057077171326163134e-01 5.112997087697669363e-01
-8.205351312651122664e-02 -1.066376780845999378e-01 5.199877211515535613e-01
-8.426634704763977246e-02 -9.058744741130723976e-02 4.496060825858254062e-01
-2.882969575885612964e-02 -9.452799289398858273e-02 4.554429478108509843e-01
-4.198425024219705481e-02 -7.853531927315419991e-02 4.395325407690548469e-01
-1.370524671419314985e-02 -1.224003960613927050e-01 5.052596496937259429e-01
-1.668652515535413647e-02 -1.019403580082443028e-01 4.605802132446940034e-01
-4.347206468611520408e-02 -1.153327969101838324e-01 5.025594045584440561e-01
-1.613983775124208653e-02 -1.212300241066015527e-01 5.023274849044713219e-01
-6.216571118565892423e-02 -1.095567328256505102e-01 4.832612941858545064e-01
-5.636666075233143919e-02 -1.121845832384134323e-01 4.936788367694464608e-01
-1.081273981760549202e-01 -9.551972184638402030e-02 4.824627986605624641e-01
-7.479689774919728862e-02 -1.018712898940461464e-01 4.579152787634830912e-01
-4.398523421493331226e-02 -4.787296384240008473e-02 4.371156702185136078e-01
-8.237829456888803858e-02 -1.039204204406672521e-01 4.657682769165400472e-01
-3.481171460944963714e-02 -6.582620224561874789e-02 4.392625512434249480e-01
-3.882921818032064598e-02 -9.530112116024799795e-02 4.543051205229418632e-01
-1.053321858988972431e-01 -1.035669685677018947e-01 4.985670700012967416e-01
-1.062302442758712301e-01 -1.023007445480961508e-01 4.994430861502283103e-01
-5.279718618139090519e-02 -1.040471791644410476e-01 4.636801424222373735e-01
-8.059846008399193518e-03 -1.055746201267534490e-01 4.640837229247145035e-01
-3.305340623564315128e-02 -1.095391781286660510e-01 4.781532981705124419e-01
-1.497742939962240158e-02 -1.209456654875215448e-01 4.991604332342772787e-01
-8.921684146510502900e-02 -1.076824871846453480e-01 4.867112173300075506e-01
-9.773148540233585896e-03 -9.238109916723577508e-02 4.522635767340714152e-01
-2.227558017477378194e-02 -5.423210221137016174e-02 4.392836323334165516e-01
-2.266551665109705835e-02 -9.920541099753721337e-02 4.599005420381223064e-01
-4.841756870092877446e-02 -1.106113104725076346e-01 4.848661495618437622e-01
-1.046925476256342080e-01 -1.030251642181658628e-01 5.025884927254825607e-01
-4.734394495663530461e-02 -5.087366304025807417e-02 4.373706252306001629e-01
-4.755038781615996551e-02 -7.888336234625965837e-02 4.360503321639839780e-01
-8.553958818204621117e-02 -1.086077580956747307e-01 4.898677415366249344e-01
-3.940663487821075700e-02 -1.077611522891293999e-01 4.756630600057277225e-01
-5.314375368494238250e-02 -8.846531280609214176e-02 4.338038092233644782e-01
-9.016889767294013203e-02 -9.827831157415728436e-02 4.590113580186565012e-01
-6.351619597840336886e-04 -1.194048100055537243e-01 4.875485243115812439e-01
-4.540279463307003716e-02 -7.791803164831698214e-02 4.375340054622147701e-01
-2.863071757794042466e-02 -1.193450021322885052e-01 5.156458065550597603e-01
-9.781493749424309547e-03 -1.236687090995887972e-01 5.325190598032240041e-01
-1.069092166659648367e-02 -1.032775330365675870e-01 4.614967122019570933e-01
-5.475206246177218711e-02 -7.050264687619695048e-02 4.315642232202889783e-01
-6.835602323262074398e-02 -1.106743068516859163e-01 4.930161578578974857e-01
-2.468322984939909023e-02 -7.662041423308403598e-02 4.431319148883383630e-01
-8.888567569414970726e-02 -1.051503647613387105e-01 4.727289980212232012e-01
-5.447999722374997911e-02 -1.128586207192619068e-01 4.963424727093396771e-01
-2.788646740321581302e-02 -7.784507400370838104e-02 4.432328768187214774e-01
-3.926869096524246427e-02 -3.541024147380056331e-02 4.371685910567782996e-01
-4.677789200316559426e-02 -5.836826247039519910e-02 4.360753524409157200e-01
-1.405350672636846050e-02 -8.245806425903472181e-02 4.464786927088180146e-01
-3.461247756452576901e-02 -3.875827594922207769e-02 4.381956173541200483e-01
-9.449689039823162828e-02 -1.049160867739633851e-01 4.764401598700037654e-01
-2.863748784056875663e-02 -8.187194138617578942e-02 4.445717868996720834e-01
-1.597252162257416230e-02 -1.201554777431605436e-01 5.432601895925526225e-01
-1.649243068486914293e-02 -1.224594320653386997e-01 5.270514528477253657e-01
-4.346105427767325141e-02 -8.564702233601187431e-02 4.431812279134917376e-01
-1.504205995580849484e-02 -1.119798742130950903e-01 4.748766989486090107e-01
-6.516449991183677348e-02 -1.118654853044741965e-01 5.001903987179346922e-01
-6.522738400630505307e-02 -9.863669501486296842e-02 4.375510829612638819e-01
-4.591962725561757330e-02 -1.090939873391639087e-01 4.797887476377178384e-01
-5.948897190008067826e-02 -9.844959704389399935e-02 4.417168244371834085e-01
-7.460793883384388148e-02 -1.101235485410443637e-01 4.938431356873720923e-01
-2.859355325059853223e-03 -9.468050363765899424e-02 4.547758446715928216e-01
-7.955427081205972140e-02 -1.097742309446070874e-01 5.056388901795092483e-01
-5.004626324586215064e-02 -7.341192864131497464e-02 4.337309948611756671e-01
-8.334179786647648303e-02 -9.626739550300712767e-02 4.511835500353376105e-01
-3.541393127549469916e-02 -1.163051424708779619e-01 4.995456336163155431e-01
-9.366804124410687757e-03 -7.155483584452446144e-02 4.428987830256700953e-01
-2.537082334337948178e-02 -1.114827977654279240e-01 4.797099608814642258e-01
-4.341492522388725600e-02 -1.157641337270677723e-01 5.068852640029370971e-01
-7.069714573796585799e-02 -9.633479948698261963e-02 4.401571823303619402e-01
-4.403237709950075240e-02 -5.692515042297966593e-02 4.369692860277378244e-01
-3.998397211528490619e-02 -1.054766515005862992e-01 4.698657630276313335e-01
-1.992765569733567083e-02 -1.149771141975885896e-01 4.850271672020537994e-01
-6.744443671921532268e-02 -1.062206299595692960e-01 4.700325368480515187e-01
6.610658610880915456e-03 -1.240627924371072999e-01 5.030862074870694478e-01
-8.418017370552699496e-02 -1.090537546146373993e-01 4.998389086197939091e-01
-5.977571135894477888e-02 -9.531607814269554835e-02 4.348348361250559124e-01
-9.392774973637739444e-03 -1.200394909635710133e-01 4.916798567930173447e-01
-1.078707547749688800e-01 -9.438308127248658252e-02 4.825358576226871921e-01
-7.397553097314001069e-02 -9.788544517531724831e-02 4.465656244550326726e-01
-2.310211229806302322e-02 -1.196062958251546821e-01 5.032350821271899255e-01
-4.249568805502085961e-02 -1.163849097814479150e-01 5.131090309036271391e-01
1.910891650735747687e-03 -1.109038410616686038e-01 4.714282636420781825e-01
1.632977654487195642e-03 -1.027364197310161736e-01 4.618820827346182822e-01
-8.351632729472255323e-02 -1.083580390428291601e-01 4.840383001436146526e-01
-8.180957960399001805e-02 -1.082810037163013661e-01 4.821652382853526264e-01
-5.195085056750927549e-02 -2.410776884858256350e-02 4.416786062016204717e-01
-5.475536420304970980e-02 -8.519462631748878079e-02 4.311188619211812623e-01
-6.953144740869257601e-02 -1.113611636961717444e-01 5.001493236897552874e-01
