-2.333762113090825235e-02 -1.200384982111642879e-01 5.329743331325297317e-01
-7.040250834664493751e-02 -1.101199446543371790e-01 5.220503023806650766e-01
-6.856289546303394322e-02 -1.095865623882758960e-01 4.875718647974763842e-01
-5.378638333549663059e-02 -6.429803735598507708e-02 4.333305726380610734e-01
-5.260879862549164981e-02 -3.400778416090702305e-02 4.447408154920707291e-01
-5.631669565502208513e-02 -5.821459577228624976e-02 4.367243741121019096e-01
-7.199210180487932917e-03 -9.944488999026249165e-02 4.585954212140861408e-01
-6.336531195918414239e-02 -1.030699349379023549e-01 4.609585979634993058e-01
-4.243772664770131126e-02 -3.166279731209833970e-02 4.372231152514891028e-01
-2.991266303103260610e-02 -4.977012462071760818e-02 4.394946420155515510e-01
-1.258313068416741683e-02 -1.061815635652509360e-01 4.650311600680571145e-01
-7.393177977153130020e-02 -8.682327854331799155e-02 4.365043755292838390e-01
-4.329187123585895303e-02 -8.316697597778120732e-02 4.412961108174214830e-01
-1.299983114005820624e-02 -5.592561280544044305e-02 4.392693063306165047e-01
-6.640022881895829565e-02 -1.074583813061420617e-01 4.753087597902537764e-01
-4.956100409920017463e-02 -1.047738513952520129e-01 4.663242664951077754e-01
-5.665453563442637841e-02 -1.025440015843951252e-01 4.603570054603033368e-01
-6.784848806868538917e-02 -1.000127270855451500e-01 4.518738966489430076e-01
-8.716585688171356316e-02 -9.812625506543201648e-02 4.580215262553216093e-01
-7.353341346723189786e-02 -1.104985859016276994e-01 4.982209770615899647e-01
-1.033334114410000004e-01 -9.974873258084650252e-02 4.766241950227517177e-01
-5.559590939007263283e-02 -1.072539548350342486e-01 4.729765422517943629e-01
-6.895844745712238766e-02 -9.571351566025530777e-02 4.361308613759984909e-01
-2.539999787090534492e-02 -1.195832668038330632e-01 5.071973145252078874e-01
-2.289103309512233175e-02 -1.170191572174399675e-01 4.940083088584532045e-01
-1.137995052168473339e-02 -1.110548170360318165e-01 4.719607009700237388e-01
-3.423259038883154359e-02 -8.727956550076584885e-02 4.475714093562583873e-01
-8.107358845507242617e-02 -8.336794946657495597e-02 4.493692976973394648e-01
-1.236431089773987017e-02 -1.238730288704042865e-01 5.201026756648371441e-01
-6.227897195869912250e-02 -1.020045297540499163e-01 4.573888275764224631e-01
-5.143649969630009755e-02 -2.623997925712757279e-02 4.403362799092019331e-01
-7.661677189228621732e-02 -1.015527765364874074e-01 4.585858289873592786e-01
-7.879869022202277973e-02 -1.059876780108003486e-01 4.714960960612504248e-01
-4.628401603696292999e-02 -1.151851283442647117e-01 5.265851372408242304e-01
-5.923351686015923545e-02 -7.839769126482493133e-02 4.298720390948873038e-01
-1.654429138586944320e-02 -7.596954636187977505e-02 4.435898255633967668e-01
-4.052707025523532430e-02 -1.130005401028724293e-01 4.906561675306865822e-01
-3.910539156803556626e-02 -5.622453972671882100e-02 4.381979609887745597e-01
-4.003641652517700433e-02 -1.162292742790813210e-01 5.059008905181736626e-01
-1.643918009527275265e-02 -1.047379514627799907e-01 4.638220255375041234e-01
4.076327416521905757e-03 -1.264287108201362919e-01 5.313410168669111533e-01
-3.641864154630571060e-02 -4.389485779384406927e-02 4.381302557438361833e-01
-9.372651704503361103e-02 -8.427002943711550675e-02 4.683228651503398843e-01
-6.829307858027967859e-02 -1.093048318616671732e-01 4.857626063783612724e-01
-1.012085045341413608e-01 -1.045214952082086091e-01 5.024552266621842289e-01
-8.040258025193747909e-03 -1.230395688852531644e-01 5.018439965719465601e-01
-2.750395621462077902e-02 -1.193789365290413990e-01 5.257010077969799244e-01
-6.620173778390693597e-02 -1.101254304747586732e-01 4.893253263441858514e-01
-3.558524056859490442e-02 -1.152073829913204533e-01 4.951851663958332095e-01
-1.275037875563510108e-02 -9.384456890496377379e-02 4.532372051938479141e-01
-4.267576348532599317e-02 -7.840837941058657889e-02 4.395009379197585830e-01
-1.061118904717721356e-01 -9.823203650996262248e-02 4.813299029514424010e-01
-6.559456312406584944e-03 -1.240008428475652957e-01 5.053917332032399345e-01
-6.688457494983189588e-02 -1.116938184047393673e-01 5.190905263202200137e-01
-5.494764119316643269e-02 -6.411890287052279813e-02 4.333740410095250906e-01
-3.946791532087919052e-02 -1.169627974527149006e-01 5.141738949765185529e-01
-1.978099549192382373e-02 -9.569251894331896879e-02 4.557506672338625942e-01
-4.111001102472285756e-02 -4.138414825149990678e-02 4.372869147590377481e-01
-2.787859618838459119e-02 -1.194988655546932732e-01 5.197073297115860635e-01
-8.736296542345187155e-02 -1.073003764129302623e-01 4.829423049022076309e-01
1.337772231267925216e-02 -1.259998217706384815e-01 5.351915167507383941e-01
-9.480616842610156692e-02 -1.060288468770084619e-01 4.848147453009691854e-01
-4.204901237138356646e-02 -8.487283085215084621e-02 4.437083361155559347e-01
-1.004399637508460452e-01 -9.601079227762020218e-02 4.671977491089426837e-01
-8.488202818262528815e-02 -1.052141567328130078e-01 5.204372813034907619e-01
-6.968485989803943625e-02 -1.051950425717164267e-01 4.679481181868885842e-01
-7.283020818452995773e-03 -8.069585451189943692e-02 4.467229088598622666e-01
-3.788919106453204899e-02 -1.037067280373659001e-01 4.674434783137319527e-01
-7.819962768234998973e-02 -9.003854911439801434e-02 4.432288695199138040e-01
-7.717600595190042545e-02 -1.100600877176441533e-01 4.995322303795978747e-01
-1.483746063937738807e-02 -1.098272653312623026e-01 4.713863429608331490e-01
-5.262216577521161565e-02 -4.001661306788797945e-02 4.413683688459466015e-01
-1.012300486906489161e-01 -1.008510098375873937e-01 4.731546221910398753e-01
-7.231245723023566052e-02 -1.089654240355326931e-01 5.244714483823016415e-01
-4.323568231408105034e-02 -5.590435462100793590e-02 4.374305421428680840e-01
-3.618940039685618337e-02 -1.067670821748392673e-01 4.734077991621199466e-01
-7.257074553088641022e-02 -1.048636791861901063e-01 4.669525941078286335e-01
-6.922675382374035569e-02 -1.062673582649261983e-01 4.714784726248212876e-01
-3.104820105244333536e-02 -6.067862934277483411e-02 4.393737638002856993e-01
-9.023593724752929091e-02 -1.034519218115685230e-01 4.700552170498679683e-01
-9.810821899280355862e-03 -1.065762722160543685e-01 4.652091303830209745e-01
-3.110152197377000736e-03 -1.189909519943472965e-01 4.866900037956641278e-01
-1.009303018885628067e-02 -1.233469956096927139e-01 5.341713155710094973e-01
-1.063672402460690697e-01 -9.254949517727492636e-02 4.807042812232598106e-01
-1.028996571200307096e-02 -1.185198225791255361e-01 4.875805907121174565e-01
-4.252340016780100512e-02 -1.016234584534425750e-01 4.626698703814772773e-01
-2.320120689154335503e-02 -1.102404810078733005e-01 4.767855563484150738e-01
-9.950371236643151818e-02 -9.289680790869347948e-02 4.668063309215615964e-01
-8.137079835051362620e-02 -1.046912910936117214e-01 4.682542189343470995e-01
-3.617811655375291480e-02 -7.880653237809508160e-02 4.420418681316573006e-01
-1.910074624155720657e-02 -8.324414398005758331e-02 4.464024840267497019e-01
-3.958018022146424231e-02 -1.170113848818122165e-01 5.156341298972646481e-01
-5.842101567966908465e-02 -1.127466656470288292e-01 5.249316021329053505e-01
-6.225620697949121873e-02 -1.128015235514267800e-01 5.082005185874928221e-01
-4.045823059851644254e-02 -3.266156904497646840e-02 4.372362066273021153e-01
-1.992932917338833751e-02 -5.796772407611517491e-02 4.396892458690028205e-01
-8.859064734083059445e-02 -9.880533720133691244e-02 4.594304268237229816e-01
-2.436097213605314254e-02 -7.064685215961818976e-02 4.415143690329816906e-01
-2.116267316480019423e-02 -1.192214260300571982e-01 4.996639673044206975e-01
-4.135534793971231554e-02 -1.157169238964630836e-01 5.035542322153442329e-01
-4.826518321548468188e-02 -7.004140025260321978e-02 4.354095856398513265e-01
-5.455792670131776739e-02 -9.259285201959351064e-02 4.373110592528201002e-01
-1.741406324399633748e-02 -5.072362171536264064e-02 4.394669893068447464e-01
-8.880983735830445466e-03 -7.395885117042169665e-02 4.439263860439468523e-01
-5.465846574260609450e-03 -1.248704396328341043e-01 5.309311315815268273e-01
-8.744431013246264928e-02 -8.582685816909192689e-02 4.564222127481765701e-01
-6.226811566290670757e-02 -7.630431914784389924e-02 4.309824087607894705e-01
-8.275814603964542701e-03 -9.085937854085025800e-02 4.515059232746845286e-01
-2.756128901199706924e-02 -1.140754567480004589e-01 4.882390581691435916e-01
-8.509452375391585166e-02 -1.083275195341791564e-01 5.069957029989632380e-01
-6.683525169636740648e-02 -1.108036668939251096e-01 5.234580512041281386e-01
-7.083585157758495732e-02 -9.537251206461018482e-02 4.380121442595161230e-01
-9.574186692555869405e-02 -1.066159147740607938e-01 5.029420237314355946e-01
-1.406323452769234986e-03 -9.325676835000927534e-02 4.538274831654436903e-01
-5.887055185694115012e-05 -9.597788902546024181e-02 4.561853463047786938e-01
-6.577145498280345670e-02 -1.028185984293367161e-01 4.603401945786726457e-01
-9.065316729385482220e-02 -1.026934600965816041e-01 4.682754178759158670e-01
-8.866498789324962770e-02 -8.845792525208219514e-02 4.561833263984319542e-01
-7.367695581046473929e-02 -1.085669629345444170e-01 5.243387299102919563e-01
-4.204419428820650728e-02 -1.165635788841970361e-01 5.169335209591249258e-01
-3.201697252306463098e-02 -4.883189082037495826e-02 4.392098560724947420e-01
-7.722756482152635937e-02 -1.093556786284990701e-01 5.157502630634532848e-01
-4.115134843828359423e-02 -5.952504153043353813e-02 4.379661966625053027e-01
-4.644467085131154943e-02 -4.525489550150366830e-02 4.373589956380768973e-01
-3.987267335602164703e-02 -1.129134517250271474e-01 4.901492762276088988e-01
-2.945770999035061607e-02 -1.007016764565436262e-01 4.635077425108241056e-01
-8.770869496577472779e-02 -8.433164421042714520e-02 4.586065642747340076e-01
-1.982186967382465123e-02 -7.420663560570715800e-02 4.427782210558559584e-01
-5.758618310378719324e-03 -1.238453014780102890e-01 5.040202153767817661e-01
-1.161462750909762580e-02 -9.518145900083940791e-02 4.543619524297571322e-01
-2.914745057787597460e-02 -1.057777931273669175e-01 4.707012316905628824e-01
-7.178253507790503980e-03 -1.206425205034709902e-01 4.925996116491927479e-01
-6.769733959639394338e-02 -8.713002977241418590e-02 4.297718294576001741e-01
-9.092566822802808368e-02 -1.078877366037333668e-01 4.962932307188893666e-01
-2.517651865205509584e-02 -5.287783379454566446e-02 4.394585153663785326e-01
-5.052003206314865935e-02 -1.144566840355519949e-01 5.248341766457729207e-01
-2.440345991822830823e-02 -1.154147503596501950e-01 4.899622089303136696e-01
-1.648271874454258074e-02 -9.892200134711268134e-02 4.577944079757350626e-01
-4.158365064626001056e-02 -5.330259911572639286e-02 4.376751576770028795e-01
-5.719441737416702115e-02 -9.811608220554093873e-02 4.436740358422153752e-01
-2.730530639530281620e-02 -1.182581014171813077e-01 5.381053098426951120e-01
-3.731065993104068501e-02 -7.335186407873824088e-02 4.399640238195283715e-01
-3.751846224819831849e-02 -1.173297583870094030e-01 5.135326652861501584e-01
-3.967048283030375974e-03 -1.259723708190849667e-01 5.188721567307668092e-01
-8.268456086298484400e-04 -1.159781169122202360e-01 4.795541573712466810e-01
-3.528444422481353399e-02 -1.172977926834422452e-01 5.308761585698628105e-01
-9.775671105966922403e-03 -1.176334452848122325e-01 4.844707396907597663e-01
-8.858487012534407845e-02 -8.308291953534037433e-02 4.614047388368454072e-01
-1.735789752232960378e-02 -6.109499420321118368e-02 4.401954906436634785e-01
-5.973411256724826118e-02 -1.103043649244524332e-01 4.865675923311927886e-01
-1.664223265419734546e-02 -8.868740524142171289e-02 4.492508392890440239e-01
-4.936131863002000270e-02 -7.733761836055408345e-02 4.351336316408577209e-01
-2.383195876547375067e-02 -1.190202072737105710e-01 5.389354228736609187e-01
-5.012656473258916140e-02 -1.072253089771040141e-01 4.734350825328986212e-01
-7.306402889007582169e-02 -1.013939809667488423e-01 4.572269225821882221e-01
-8.547254950192063883e-02 -9.628693648898738189e-02 4.543377181629989492e-01
-7.206776351651426882e-02 -1.111415601879901099e-01 5.105528452054262090e-01
-8.723668116944477413e-02 -1.058452252320390696e-01 4.748699241880135480e-01
-1.668598542779657634e-02 -1.191720389723184143e-01 4.940625814807979022e-01
-3.765074953400264490e-02 -4.125303659120719418e-02 4.376122730876200739e-01
-2.494595974799593968e-02 -1.181758265603062297e-01 4.989283839970621859e-01
-8.460586003438062830e-02 -1.071655055395886874e-01 5.140139745344752820e-01
-9.547445714680313777e-02 -9.237785651567821665e-02 4.625847797410574391e-01
-6.515050765560892465e-02 -1.108862428285136287e-01 4.930366114206776174e-01
-5.471426233803732692e-02 -1.066303156566221905e-01 4.708621790762256842e-01
-8.244037425432836075e-02 -1.086097892483269545e-01 4.880156207211010511e-01
-1.101673981768900787e-02 -1.197802958206958396e-01 4.918731925162823648e-01
-3.802420003289413292e-02 -1.096071458287255218e-01 4.800925274522660491e-01
3.139089708899048259e-04 -1.239332952344753547e-01 5.009736523243653039e-01
-8.171555173327536836e-02 -1.073753723243914132e-01 5.170900831402815978e-01
-1.609665183889216061e-02 -1.217658758518152390e-01 5.052951509735880142e-01
-6.910680434489192836e-02 -9.655814846934580864e-02 4.378680279251761509e-01
-2.972862347911134698e-02 -9.741215264087825509e-02 4.588221883553251224e-01
-4.213760016842448691e-02 -1.080479651219265619e-01 4.775327654029259961e-01
-4.526581065042335761e-02 -1.158509100508491874e-01 5.142505697991335278e-01
-8.182801515646982715e-02 -9.582041600837455653e-02 4.500778207499807060e-01
-7.811226409607523354e-03 -1.184295018959032747e-01 4.861436650069541066e-01
-2.916830413395961677e-02 -1.157514698353333121e-01 4.940638194988676846e-01
-7.801401006294723765e-03 -1.235163623330966659e-01 5.039564172206100201e-01
-4.382020585733271273e-04 -1.260634766080728775e-01 5.120524222226908728e-01
-2.047666896536734157e-02 -4.071695913428202002e-02 4.396818023878085735e-01
-6.755404837566569842e-02 -8.429389661365073450e-02 4.288221836238577112e-01
-4.732015077621267059e-03 -1.256915387452449684e-01 5.254703996094786111e-01
-2.115813265016172964e-02 -1.166059289463170778e-01 4.905141263333032131e-01
-7.613877748987010752e-02 -1.082704064643528891e-01 5.226149100942388825e-01
-5.056493226169973126e-02 -1.138010307474750932e-01 4.999593900971929794e-01
-6.063032002797656000e-02 -1.045860805346843225e-01 4.657874355635286401e-01
-5.027881314381432709e-02 -1.138909714091291964e-01 5.004610965091388364e-01
-7.684710579202128078e-02 -1.102175264720435949e-01 5.019288000454302789e-01
-6.804778083324417026e-02 -1.055277662107358683e-01 4.689114062874944477e-01
-5.267745958029870779e-02 -1.072973925316790395e-01 4.733073887607114894e-01
-9.156312740828429636e-03 -1.222658984833465412e-01 4.987016350656172103e-01
-3.125187005212714392e-02 -8.418876691781351784e-02 4.456729667127441452e-01
-5.008108159325903863e-02 -2.924001196423464330e-02 4.391582537637264694e-01
-5.802719345785616739e-02 -1.117612837862843878e-01 5.295150047150413153e-01
-8.465688363836669506e-02 -8.700113880966933722e-02 4.517311741570717576e-01
-3.551595298499196640e-02 -8.743699666012694216e-02 4.475927121326082614e-01
-9.479209970057861367e-02 -1.058627196748397614e-01 4.832295735260090930e-01
-3.327360263822591591e-02 -8.326744144599877717e-02 4.447711089862817491e-01
-6.522247209245664312e-02 -9.864449609122297180e-02 4.384871086234922166e-01
-2.242106743277265044e-02 -6.907921874241765292e-02 4.414076809904122767e-01
-2.474394824277648813e-02 -3.871376532302170381e-02 4.399835273670339442e-01
-6.515530723568412064e-02 -1.108064503168253445e-01 5.257142664200799009e-01
-6.271142833444698361e-02 -1.037579012396196987e-01 4.630720978652618225e-01
-2.890349834755874189e-02 -3.791847950946235918e-02 4.395540225532213463e-01
-2.012939544441381262e-02 -7.391569377641125926e-02 4.426894649644371182e-01
-4.859752773919533142e-02 -9.778834056306938416e-02 4.531769301408386519e-01
-3.898159058893861661e-02 -1.165246901823520642e-01 5.298488623400738895e-01
-5.063212115605443542e-02 -4.730046791295867276e-02 4.379674929843335174e-01
-6.935043886947168945e-02 -1.052796373690290388e-01 4.681998008695901214e-01
-3.214026898731435489e-02 -4.247137442986461536e-02 4.392680208215042903e-01
-1.015433487389173356e-01 -1.026998990796397365e-01 4.804558684775379063e-01
-5.309155694265805386e-02 -1.110862632486615681e-01 4.875872949408051049e-01
-6.286593646184150674e-02 -7.350617466184723725e-02 4.347962287068708465e-01
6.058863424571387431e-04 -1.092110876816030363e-01 4.689227438109610513e-01
-1.660215425272302051e-02 -1.161769945515927077e-01 4.850129563411716971e-01
-1.552300883148718079e-02 -8.007129271999141595e-02 4.454586097348979257e-01
-4.210858393244296810e-02 -1.129812483599228617e-01 4.912467369296681374e-01
-8.539193961243089770e-02 -1.086948619739160488e-01 4.974097909319199484e-01
-1.412299305270942051e-02 -1.233232102273917191e-01 5.221872724950534783e-01
-4.002812951745974429e-02 -2.967174176541408775e-02 4.374241602646681826e-01
-3.144372202781341163e-02 -1.164702394524253781e-01 5.414342302305694687e-01
-7.329332293903575990e-02 -9.757711956228495853e-02 4.463041983852356065e-01
-2.454979858695168979e-02 -1.192811976193127177e-01 5.363099117466546550e-01
-2.358198451638972640e-02 -1.205965896466583559e-01 5.180590245503908786e-01
-1.466667890394325255e-02 -1.123370185213747457e-01 4.755000554279952274e-01
-1.061592624889140662e-01 -1.018330520332780265e-01 4.934746627781552153e-01
-5.843044814643873902e-02 -1.073523705581401061e-01 4.734289800756991684e-01
-4.947486711468831316e-02 -7.168732441064853966e-02 4.344599488101222318e-01
-1.009998832829303167e-01 -9.010738685756106148e-02 4.721344581384922523e-01
-4.298430993848229020e-02 -1.120228046213565115e-01 4.886446330050449038e-01
-6.009799142549705070e-02 -7.559234471339242034e-02 4.305276706671176123e-01
-7.670894064042978189e-02 -1.077299811893442094e-01 4.789513542356408915e-01
-5.857110556831959802e-02 -1.134688586087108791e-01 5.202751270318620724e-01
6.412150488868974957e-03 -1.266680386266138270e-01 5.206626020373323893e-01
-5.947319241608860219e-02 -1.122164887447652942e-01 4.976661207777949847e-01
-4.115352490644181432e-02 -9.745339443327312445e-02 4.570288195208660476e-01
-4.509110918583537214e-02 -9.914760731548062644e-02 4.577848157669003881e-01
-2.398013448934247990e-02 -1.170133395387017716e-01 4.951808340084899451e-01
-1.621456511039759060e-02 -1.071899409599099823e-01 4.677250464698891608e-01
-2.646750447365167971e-02 -1.194268229093543854e-01 5.294298119837378414e-01
-8.773051004924993512e-02 -1.063012632018292825e-01 4.770562556526766751e-01
-7.768352243454201833e-02 -1.094124552074849516e-01 5.143769911163460495e-01
-1.944318989703396755e-02 -1.218660916543296141e-01 5.196040283066138965e-01
-5.360721953623941161e-02 -1.130614365867924492e-01 4.979246827535241948e-01
-3.208871316409915575e-02 -1.077822934912738145e-01 4.749952910281040053e-01
-2.365027104553743542e-02 -1.181645760199000195e-01 5.429736821376972555e-01
-3.897278538899182077e-02 -9.782197336822284761e-02 4.582883401036765836e-01
-1.937399458349257919e-02 -4.310007965682789710e-02 4.396038039923071961e-01
-7.052390746139142186e-02 -1.106269742726708610e-01 4.965486669404224340e-01
-2.515707959593423138e-02 -4.905649437591359102e-02 4.398739594703607869e-01
-2.701314493804510622e-02 -7.599151432594250521e-02 4.428867523411677554e-01
-9.030468473068965773e-03 -8.709328934397672639e-02 4.492477130933598684e-01
-1.013102712952344275e-01 -9.481371166220811664e-02 4.687177174589718942e-01
-4.564245320839382947e-02 -4.185975842212427689e-02 4.374411587374371635e-01
-6.693239684333679440e-02 -1.100689437674911147e-01 4.893921448361269744e-01
-8.733899244350055990e-02 -8.675240939505150795e-02 4.552117094784364215e-01
-7.473615566064628624e-03 -8.722199151529926031e-02 4.496078503869136989e-01
-2.489886520499706712e-02 -1.201028926519748380e-01 5.235089691580856464e-01
-3.382612925826561368e-02 -1.160037155690059330e-01 4.969930064053872942e-01
-1.170759632353565033e-02 -1.238884466403897266e-01 5.257044870675716686e-01
1.233775667829335992e-03 -1.150355680155305538e-01 4.779048060363325634e-01
-6.562282725978509958e-03 -1.227888909131324563e-01 4.995861644174612315e-01
-5.896168676724109631e-02 -1.037594423918799802e-01 4.634453332120823110e-01
-6.255326540312129702e-02 -1.120669936451626353e-01 5.005073128862479459e-01
-1.422925233278359534e-02 -1.231116862371546272e-01 5.267104002335519786e-01
-2.234774927176581133e-02 -1.165519632428027169e-01 4.917066909443518208e-01
-2.829254908325474095e-03 -1.261351297111149850e-01 5.251413613045300410e-01
-8.204279243913668862e-02 -1.063831091168908755e-01 5.206828067908239044e-01
-5.138073327700418830e-02 -1.050221777341313056e-01 4.668120572396924906e-01
-5.299524070534591957e-02 -1.001269534465578925e-01 4.551030704321812892e-01
-3.876450923179745878e-02 -1.167359732021571589e-01 5.278108343501720645e-01
-7.886130833101148707e-02 -1.078340687939815523e-01 5.199567712807926512e-01
-9.034372743100066439e-03 -1.158313184691055625e-01 4.797174946571901577e-01
-2.354594444581741865e-04 -9.086438176527243671e-02 4.523972156056563221e-01
1.873329724025627179e-03 -1.268772741066895859e-01 5.210254181297679921e-01
-3.044868889914319546e-02 -5.167426704816438510e-02 4.393981367669440030e-01
-4.202278287679927365e-02 -4.123138340998654117e-02 4.372073167828356421e-01
-2.375824167641837209e-02 -1.196539943438992420e-01 5.352971349260441380e-01
-5.236624179114974381e-02 -1.128638736909717971e-01 4.960060812892340687e-01
-7.158671563553972716e-02 -1.111428517207493222e-01 5.031224114535431946e-01
-8.219330325669847725e-02 -1.063399386327575913e-01 4.737419767631767531e-01
-1.139129410163050452e-03 -9.722760484862913444e-02 4.572029605117438056e-01
-8.082886938556917145e-02 -1.093995852461973617e-01 4.978690810270521294e-01
-5.540118473951355371e-02 -8.836337380512913897e-02 4.322375075802281086e-01
-2.314871323083016533e-02 -1.198641279959461736e-01 5.350299705503711589e-01
-4.728611538115925356e-02 -1.154422136837430224e-01 5.210254943404584171e-01
-6.684010188965869292e-02 -1.017247429326599284e-01 4.567700986298310339e-01
-2.356392650512180789e-02 -1.205580540666991579e-01 5.213050643562305853e-01
-5.494366000577800141e-02 -1.018008450908811924e-01 4.591678752944743369e-01
-3.383751650504591285e-02 -1.044129743414434625e-01 4.690312684584387881e-01
-6.206726552134317343e-02 -1.126685641651625769e-01 5.059588066047006061e-01
-1.831325515943231508e-02 -1.217968340778663450e-01 5.285002954644614226e-01
-4.222503683034641020e-02 -6.459572408958405565e-02 4.376547681774529686e-01
-5.859063850600240708e-02 -1.118089363575028583e-01 4.940702636964152128e-01
-5.793780755154997325e-02 -1.049749312550922048e-01 4.668976202776547457e-01
-2.672142289000972726e-02 -4.865946219564699915e-02 4.398176645409964114e-01
-2.758567912408829703e-02 -1.182129735980858992e-01 5.016625199725807116e-01
-9.960710102147168898e-02 -1.027232976321458824e-01 4.768658762421876252e-01
-7.158268398042978709e-02 -9.802809924683002218e-02 4.465294026716852271e-01
-2.850314210343993931e-02 -1.048528253597530019e-01 4.689912564362025416e-01
-1.080727648857953971e-01 -9.706183635087392569e-02 4.855539024529170189e-01
-5.571064779974480713e-02 -9.354985356379454109e-02 4.372024700165427769e-01
-2.216303810474434116e-02 -7.313890828741591299e-02 4.423400814527110869e-01
-2.671537092817680495e-02 -8.241021765524754461e-02 4.452878492584824710e-01
-6.686301759222272600e-02 -9.617146590066012746e-02 4.352493811845867810e-01
-6.221911388381126673e-02 -9.332325068170801985e-02 4.309381268762714767e-01
-4.225948784914878090e-03 -1.259369902888027304e-01 5.194349350548385091e-01
-1.565257463692295431e-02 -1.229411975194815293e-01 5.211692114034888190e-01
-5.549888513877117985e-02 -8.430264380755828069e-02 4.309085125575477515e-01
-3.040626886311392427e-02 -1.174688139569748657e-01 5.382959249998980900e-01
-5.019022636871446619e-02 -9.227214791822276052e-02 4.439695215897958014e-01
-3.985328387842142911e-02 -8.707492054000602610e-02 4.462922794067775145e-01
-9.217215057017048851e-02 -8.289492595960401555e-02 4.679880120085928019e-01
-1.001604755316170964e-01 -9.069736167660949477e-02 4.700039442287929359e-01
-6.722406785947850072e-02 -8.819862200375619410e-02 4.291955385298852899e-01
-8.812107128823075397e-02 -9.059059185342033249e-02 4.547186121401332604e-01
-7.811269724300144712e-02 -9.843008233282247998e-02 4.524995409053360063e-01
-1.513225947160675572e-02 -1.048373722940095371e-01 4.638014024152844472e-01
-8.250979508529200646e-02 -8.953032856000192607e-02 4.484787090543995158e-01
-5.249894768114429788e-02 -3.607375904422233104e-02 4.421294531925470395e-01
-6.813852029302414071e-02 -1.024476825532225910e-01 4.595384288047633659e-01
-7.571272020791582069e-02 -9.703807714584258837e-02 4.476374003908510923e-01
-5.160258785240496443e-02 -1.077350571418297376e-01 4.750327787296318993e-01
-3.312358501205482642e-02 -7.414968130811903924e-02 4.409938914015386624e-01
-5.863675449272694878e-02 -1.135576022090009490e-01 5.115735284383537973e-01
-5.749478601734257094e-02 -1.116364371334974265e-01 4.923816713739685436e-01
-9.511381108894054540e-03 -1.083643505325821155e-01 4.676788385620490596e-01
1.526319290693428470e-03 -1.151505546428545218e-01 4.781598416180869449e-01
-1.693566828627936921e-02 -8.159185476803219872e-02 4.459295873842907820e-01
-5.250697523126021671e-02 -1.064939216967675656e-01 4.705649893427835684e-01
-6.215410353583581543e-02 -1.123392926211705667e-01 5.218845910830776091e-01
-3.168601433059628492e-02 -9.379705346183481174e-02 4.542999193217033271e-01
-5.435480384249045255e-02 -1.130457127137747264e-01 5.278506089252243960e-01
-4.176556503391036512e-02 -1.144653207636448650e-01 4.967481374586295573e-01
-5.054741326679021429e-02 -1.074483048008913894e-01 4.741408916051961797e-01
-4.937606594551619682e-02 -7.384850031644579760e-02 4.347528044630017963e-01
-5.290558539092152929e-02 -5.480360814357577298e-02 4.361151168033431946e-01
-6.907902979606705962e-02 -9.884587685774598453e-02 4.479783547313955228e-01
1.027706853545499880e-03 -1.098110467859417932e-01 4.698536412746573965e-01
-7.671977374745810041e-02 -8.513711024037345920e-02 4.411883222537038018e-01
-6.399311413024612316e-02 -1.013824400394970349e-01 4.550353692615833889e-01
-2.314490739433023789e-02 -1.080724017572467222e-01 4.725250689740690957e-01
-2.094925095368930373e-02 -1.207988764403757631e-01 5.073800966998072148e-01
-1.862403111873636719e-02 -8.899930906294563349e-02 4.494919174894927427e-01
-5.781599392543108895e-02 -1.115841653187746585e-01 4.922909582586493804e-01
-1.568669074100709909e-02 -1.133175145332775413e-01 4.782015341991038837e-01
-3.481446817659395593e-02 -1.163822809630272598e-01 4.998955099407952907e-01
-5.382617902933953258e-02 -7.830725154692895484e-02 4.314991497701236023e-01
-4.569132323098167026e-02 -1.158068217142964595e-01 5.181430681881138423e-01
-5.115509490894795674e-02 -7.133068952291513054e-02 4.333103352840174671e-01
-6.487017580296902675e-02 -1.028949337879301040e-01 4.604397193982330827e-01
-2.389825039549738073e-02 -8.668241919077597502e-02 4.479435640126045448e-01
-7.170193351273787541e-02 -1.079404985364590536e-01 4.791133663422221800e-01
-4.003098387555963783e-02 -1.018644059204981550e-01 4.639318292363019958e-01
-7.592367201913804986e-02 -1.024586924683632966e-01 4.605416812298908091e-01
-7.598168466293254986e-02 -8.563015135344417827e-02 4.396364077584247188e-01
-6.061294698293086258e-02 -6.883815845575164127e-02 4.357459253906789121e-01
-9.333619279130853097e-02 -1.068256681527007812e-01 4.891785269174138140e-01
-8.101553606359769566e-02 -1.094416355620081716e-01 4.992630269696085032e-01
-7.114088808873923753e-02 -1.035290796393822099e-01 4.622779261828685038e-01
-3.016149124024699452e-02 -1.173391730958999596e-01 5.000679689676597039e-01
-3.798469633082340174e-02 -2.912165971954905341e-02 4.376594706180088612e-01
-2.171943363036832678e-02 -7.809291487766978346e-02 4.440001958229429224e-01
-3.359766534399842575e-02 -9.796139959685433440e-02 4.593238619795488864e-01
-8.801711235169820680e-02 -1.056841974168518938e-01 5.148320670578022673e-01
-2.512691008569948106e-02 -5.937208546290687755e-02 4.396688292464274173e-01
-2.225388140173297988e-02 -1.045277794051434894e-01 4.659494217669002958e-01
-4.403621041378609664e-03 -1.145120021324134707e-01 4.765649956236392981e-01
-1.039672018441295670e-01 -1.014380233940544995e-01 4.812096298681973749e-01
-1.937496036713192565e-02 -1.088664215545860070e-01 4.721809513183575779e-01
-7.492619307936643214e-02 -9.712316089200431768e-02 4.467262875687982304e-01
-5.067377734934735978e-02 -1.139762134144916422e-01 5.280415107280377329e-01
-1.557043055340141813e-02 -1.104549893012515133e-01 4.725919341532225371e-01
-1.346084922843107830e-02 -1.208524552663630819e-01 5.424212807726475072e-01
-4.079188397595475551e-02 -1.151551978082250571e-01 5.354721507201604114e-01
-3.618701234443188336e-02 -5.829071667344648544e-02 4.387260198276963230e-01
-9.285171938482897347e-02 -1.072990049753471953e-01 4.935667645897626188e-01
-4.614914554498669719e-02 -1.155765369463707115e-01 5.232656908293913389e-01
-6.378254996481963479e-02 -1.004137720221640190e-01 4.519385221579741985e-01
-8.895654405301077483e-02 -1.082021498687188166e-01 4.948085441284872932e-01
-4.141831987985981900e-02 -1.166389005102152904e-01 5.194930087711350231e-01
-7.559635808144972435e-02 -9.211234811386402599e-02 4.406807434324677142e-01
-3.295797830143890744e-02 -5.021858791879228734e-02 4.389708879138183861e-01
-2.045245293348334562e-02 -8.550178211201450718e-02 4.473857979591842615e-01
-5.972589163102955817e-02 -1.018237749217602989e-01 4.572231628404271331e-01
-7.142609474938517444e-02 -1.022544411620983223e-01 4.589570725093667924e-01
-3.868861060652427353e-02 -1.161128625555548771e-01 5.343420322140967071e-01
-6.661279259190888702e-02 -1.032668335356579925e-01 4.618125959197706409e-01
-3.632340433546493719e-02 -1.166798762411351276e-01 5.343746068039765262e-01
-4.585992653066105901e-02 -1.008410723252475549e-01 4.601398272286290614e-01
-3.617243672239019159e-02 -1.158329249134655986e-01 4.984647557725309652e-01
-4.063378147627902393e-02 -4.255892214380733313e-02 4.373560774673731499e-01
-1.508929828468803802e-02 -1.204018792818347949e-01 5.429174810853000244e-01
-2.371891148909475999e-02 -1.176338495687040547e-01 5.448842273778184975e-01
1.037759241770022482e-04 -1.267595955798924146e-01 5.195931853773378961e-01
-8.194276366852267651e-03 -1.242505340927853169e-01 5.082239876514096366e-01
-1.076172797135579173e-01 -9.705508487447150889e-02 4.828580888853356012e-01
-3.025091002267476029e-02 -1.127233150616554075e-01 4.849251457508063634e-01
-2.457929340611709340e-02 -1.197510436155895530e-01 5.322760115304243644e-01
-1.713581196682872898e-02 -8.688223458894729634e-02 4.481853358419390920e-01
-5.448683580333472248e-02 -1.086259828800734961e-01 4.785914079345657823e-01
5.330451630807513802e-04 -1.144807241608088583e-01 4.768787883944782258e-01
-6.014605273262858820e-02 -1.131575810910336322e-01 5.089430294658450205e-01
-7.017411477924660745e-02 -1.015791912521916973e-01 4.569459602840607038e-01
-9.139783117550068225e-02 -8.709261238166340902e-02 4.608298403837541302e-01
-5.622613387839518750e-02 -1.125557887527109391e-01 4.968000697595559290e-01
-1.840059523813620049e-02 -7.354968951627126328e-02 4.427105962914384407e-01
-2.469470217151855523e-02 -1.060853830872839493e-01 4.695191587804271593e-01
1.555280585569954101e-03 -1.249416689823287518e-01 5.057785074391442093e-01
-2.369145481528962816e-02 -1.204905596924182448e-01 5.221173854143000836e-01
-2.434739139613090186e-02 -1.203894216042139531e-01 5.201529021056642277e-01
-1.467550494859290455e-02 -1.138730959758994382e-01 4.786377210950732985e-01
-1.865512083774297988e-02 -1.110219920871726162e-01 4.754932337879244630e-01
-2.737890713748986071e-02 -5.725368967376491536e-02 4.392941325848945811e-01
-1.843013191717767299e-02 -1.127172982366036191e-01 4.789849872011016640e-01
-3.260914625201336015e-02 -8.484233827016024465e-02 4.458758616284558274e-01
3.004727069646397596e-03 -1.268801699239618386e-01 5.210360420960681305e-01
-1.816007761305095045e-02 -5.975674415439129195e-02 4.399909487633018035e-01
-3.274686780235828987e-02 -1.027302943721951495e-01 4.665421332182355663e-01
-7.766125153090308597e-02 -8.715232723725191422e-02 4.418811686165515784e-01
-2.779979473858317993e-02 -6.027986610419482083e-02 4.396421977843028017e-01
-5.259013672229611441e-02 -3.842695108839861567e-02 4.421493214870381716e-01
-1.932657336413267507e-02 -1.213510492037216532e-01 5.082031512634522796e-01
2.809605260751948420e-03 -1.205725946131172011e-01 4.915720533554714389e-01
-2.998003758769744037e-02 -7.695579639247829284e-02 4.426069183751159541e-01
-5.832426431933225575e-02 -1.128738058183271220e-01 5.242524454952252055e-01
-2.242462744581783657e-02 -1.194752992843942652e-01 5.022427491621920259e-01
-6.135347861135776598e-03 -9.378685269311498596e-02 4.538696795633190839e-01
-1.764135699726749815e-02 -1.171863951212243210e-01 4.882277270404511427e-01
-1.793996668850624671e-02 -5.894974217095901026e-02 4.399088569973497176e-01
-3.197881865754340081e-02 -6.219476199058531635e-02 4.393983188557321617e-01
-3.335936009185433426e-02 -3.564247048086915948e-02 4.383666744923338521e-01
-6.533583956759936306e-02 -1.118762070244590789e-01 5.021208728125277077e-01
-8.698085055741301697e-03 -1.249189496749874284e-01 5.170330744342468421e-01
-1.001593076060627169e-01 -8.812828591543103718e-02 4.734794706561498701e-01
-7.495761027781237471e-04 -1.182927764820453226e-01 4.848971841301855101e-01
-7.159484712064696776e-02 -8.731442369423399186e-02 4.333437660918212364e-01
1.348046149331411786e-02 -1.256553948709721313e-01 5.368365014372870059e-01
-5.420679602541601805e-02 -6.761782639914135085e-02 4.324705227397183660e-01
-2.664506887643036670e-02 -9.935350835608436348e-02 4.613392640258293653e-01
-6.460625176594508856e-02 -1.025045342004105298e-01 4.590373066283783277e-01
-9.087952408725256948e-02 -1.073056047695617049e-01 4.885473159402712318e-01
4.715217125661366575e-03 -1.265334385066049228e-01 5.310100016652575805e-01
-2.886058967795782255e-03 -1.257268141077823587e-01 5.121889546184569264e-01
-1.534847416678240817e-02 -1.109521700721147197e-01 4.732476972585738517e-01
-2.069028786709879719e-02 -6.276159761539189252e-02 4.402980061296274394e-01
-3.256749158385591203e-02 -1.183370543937971447e-01 5.218275735708537422e-01
-6.397136975912948165e-02 -1.060060485203642711e-01 4.701000046596330861e-01
-1.635097136407045668e-02 -5.219242224172007671e-02 4.393664130645893451e-01
-6.707341900971826310e-02 -9.912278801184032373e-02 4.472595135899399832e-01
-1.780090821043739738e-02 -5.013705967362448723e-02 4.395016807459755093e-01
-9.245424957149041278e-02 -1.045695714497306139e-01 4.747026607954440425e-01
-5.940776771185705962e-02 -7.115400648234718184e-02 4.319628512905171469e-01
-5.567870797934713900e-03 -1.238198478452854495e-01 5.348288930667689511e-01
-4.379257374087618115e-02 -8.497469959978738718e-02 4.429839272773516967e-01
-6.928638750043163153e-02 -1.106307987459871772e-01 4.952804257321816173e-01
-1.063355650155105997e-01 -9.082428683266523251e-02 4.813721879386631541e-01
-5.278791074808020234e-02 -3.688519088356841114e-02 4.443538917495957197e-01
-3.396858934411632613e-02 -1.131696949373943439e-01 4.881210524619300495e-01
-8.839702094339463301e-02 -8.501204757128513756e-02 4.588142367877996453e-01
-1.002801444152715132e-01 -1.029711072773435293e-01 4.792576402982254846e-01
-1.801533361820141510e-02 -6.774157279794862374e-02 4.414311397997442987e-01
-4.941758648020697781e-02 -1.034973248408971730e-01 4.635133811187081565e-01
-5.885653801514961064e-02 -8.506987814723472596e-02 4.286997346624679683e-01
-1.094920208975259587e-02 -5.542561733326582807e-02 4.390334825847816425e-01
-6.043614875914189027e-02 -6.863476050425865171e-02 4.355227716326718901e-01
-7.635744314668740582e-03 -1.105623251644737709e-01 4.707277383244672375e-01
-6.803209453319360167e-02 -1.090257198170183212e-01 4.839446710812392860e-01
-7.590506208175384906e-02 -1.014536558152973472e-01 4.581997216131171169e-01
-6.670378090373078883e-02 -1.086104388532204840e-01 4.808499273638607852e-01
-3.752389180436600108e-02 -1.009206246454416728e-01 4.631623425190591337e-01
-5.522713018267241120e-02 -9.421560799587409829e-02 4.391407098816592636e-01
-7.796597201434929403e-02 -8.570197055473095793e-02 4.428999001343879582e-01
-1.628060640854268534e-02 -9.052833618023102547e-02 4.503894441992601361e-01
7.239792778910791003e-03 -1.268331856870099639e-01 5.240057589640304547e-01
-1.141901615555834804e-02 -1.095763942068222474e-01 4.697437483331983743e-01
-4.747603289338637317e-02 -1.154991005802161186e-01 5.146760161870069794e-01
-1.808135714896453444e-02 -1.199927646313470875e-01 4.990994302895500612e-01
-2.170377998294891267e-02 -1.204119598849247436e-01 5.060758677742730471e-01
-1.846786993012895783e-02 -5.724978314178206379e-02 4.396833397183874670e-01
-7.019929527834060934e-02 -1.106815353785026573e-01 5.195448731724113811e-01
-3.585602983864551174e-02 -4.122257818745431179e-02 4.381386301372394709e-01
-6.635676089901688945e-02 -9.925195396847791285e-02 4.418927655066728355e-01
-5.444334801673063329e-02 -1.134885625117248165e-01 5.246919032272520100e-01
-1.247729725464682971e-02 -7.182591022460894925e-02 4.427770596809161852e-01
4.667048814252505728e-04 -1.235813949507052201e-01 4.998947065493667408e-01
-1.304033384078219851e-02 -1.235400388365896079e-01 5.125096365883127225e-01
-7.022682956642613359e-05 -1.267206783129700698e-01 5.231267260216110326e-01
-2.656609848140245936e-02 -1.183146238664094796e-01 5.010663628633917899e-01
-3.048513640222734467e-02 -7.495093976277178438e-02 4.416729604288781585e-01
-3.618738279284707676e-02 -1.157274969468976566e-01 4.979544698588805329e-01
-5.472516054668997293e-02 -1.123639791312184971e-01 5.300938145300017057e-01
-6.047642771197687256e-02 -1.071767626292542824e-01 4.733590724664485938e-01
-5.394914910930551782e-02 -1.143673373148405420e-01 5.131581576971372405e-01
-2.124335602444345217e-02 -1.188182182873631088e-01 5.429040122615776953e-01
-3.140769390583007803e-02 -1.180866201542118826e-01 5.326152780751329807e-01
-4.215860569361179477e-02 -1.160374817278197468e-01 5.269153094563308048e-01
-8.909821459290551138e-02 -9.706235231720818091e-02 4.582225262616805295e-01
-8.975079039470672260e-02 -1.078615432692183879e-01 4.921183222365830834e-01
