-2.001606629350886901e-02 -7.176925039631462666e-02 4.429347718706681536e-01
-6.034171808117041666e-03 -1.235513604729963494e-01 5.040160756455410729e-01
-2.472686904694428728e-02 -6.655019550838640885e-02 4.414777993263820921e-01
-1.824677662407157147e-02 -9.102338589231660781e-02 4.520531127331984811e-01
-2.915631216385308408e-02 -3.473349046001086154e-02 4.395651427572887515e-01
-1.044506060599916103e-01 -1.023295113738030282e-01 4.938675749653206326e-01
-9.176733587903031231e-02 -1.029096258769215538e-01 4.761495114333788581e-01
-4.117089459060795792e-02 -1.131098756370756131e-01 4.943853913663408539e-01
-4.223961342112466516e-02 -1.151626270141476588e-01 5.063675500577462518e-01
-5.418409391362510874e-02 -8.174158008934227782e-02 4.347439297978448747e-01
-2.891992849850192823e-02 -8.640428279791413646e-02 4.492376323571345420e-01
-1.066739115657984321e-01 -1.002775498200107751e-01 4.973011781712399770e-01
-8.635848658422057289e-02 -1.071519069073060410e-01 4.998699953485514769e-01
-3.447588281364409590e-02 -1.123669370903759568e-01 4.884415492073541643e-01
-5.383967091467418281e-02 -9.717543767467341775e-02 4.540355447193415439e-01
-8.830875195833712277e-02 -1.043319532976816760e-01 4.780163079363788925e-01
-5.797059218406508396e-02 -7.568108027575719265e-02 4.317949134998727012e-01
-8.600670995671798325e-02 -9.747473032182804586e-02 4.603972921873870083e-01
-5.427910448375294211e-02 -1.127510315114574335e-01 5.048253689448882753e-01
-5.394514688914389677e-02 -1.059354838896568729e-01 4.741817692985897947e-01
-2.721865218555372806e-02 -3.757941313726202714e-02 4.401213901727492606e-01
-4.580195246716735336e-02 -1.144152328170267019e-01 5.060161684972946938e-01
-1.428388211663489046e-02 -7.353474910616583649e-02 4.438495253640808436e-01
-1.275316804937932751e-02 -1.133893527208289509e-01 4.773525690309728953e-01
-2.678355997566267757e-02 -1.178873331938162378e-01 5.401386609895090229e-01
-4.952625731834753992e-02 -1.089516031379709898e-01 4.843279119434302227e-01
-6.082859503772615559e-04 -1.138303919918841195e-01 4.766479441749390533e-01
-4.551424714203976870e-04 -1.018679261196291097e-01 4.616974364458502622e-01
-5.302624806874893515e-02 -2.997475176581342049e-02 4.462988069567470073e-01
-4.361210908781359974e-02 -1.149020004549481250e-01 5.306741546525995945e-01
-5.734793950119574518e-02 -8.489852283428518664e-02 4.333989335190484571e-01
-5.293978076112675069e-02 -4.265915695478915415e-02 4.397850295083773897e-01
-5.694023494641056726e-02 -7.968375667500071646e-02 4.323523633221432183e-01
-5.656868287733011341e-02 -9.865650066373077287e-02 4.558932431675097874e-01
-3.526005057943459170e-02 -1.157920673532544381e-01 5.399012727752761087e-01
-2.230954311998128992e-02 -1.101155489956218841e-01 4.773269362585442765e-01
-2.231950219541167443e-02 -1.112976399294172691e-01 4.800215264558507222e-01
-7.506422232534131281e-03 -1.224715181228245298e-01 4.999969290915323716e-01
-2.103744905352701242e-02 -1.162033288752010868e-01 4.903531690259939624e-01
-8.150803315351055900e-02 -9.788572413044256681e-02 4.584543952062368199e-01
-2.127472631829195951e-02 -1.205244483556772439e-01 5.305963632535484198e-01
-6.014757078796882650e-02 -8.040327483353591764e-02 4.307995151696618619e-01
4.417406405279431132e-04 -9.640117972762377030e-02 4.571859118543269984e-01
-5.429184970975490382e-02 -7.658767218422350698e-02 4.338822885526179562e-01
-6.030484006784347407e-03 -1.211846363847416536e-01 4.949043973747828673e-01
-6.333209250891710940e-02 -1.114056185718409614e-01 5.055661637953460241e-01
-6.874750759885230045e-02 -1.108854813717469884e-01 5.117666027652774119e-01
-7.374434281706652994e-02 -9.242892038521184628e-02 4.419638047761335620e-01
-3.668967947238274685e-02 -1.165569339650810582e-01 5.318628720687431644e-01
-4.237214437509801562e-02 -1.092140606408821685e-01 4.836420403947181423e-01
-6.155478155402906507e-03 -1.238583147722276678e-01 5.339909941101593782e-01
-6.544136712139636547e-02 -7.303571594636212860e-02 4.359542520616212502e-01
-1.558319215683403453e-02 -1.228800700490800951e-01 5.149710984011756087e-01
-4.765030109210427467e-02 -3.629972126894338152e-02 4.386728770288700896e-01
-1.563854943311080575e-02 -1.105184638858696805e-01 4.736667212588084319e-01
-5.264817352158403935e-02 -2.973979650629602484e-02 4.418316301617917774e-01
-4.624709094273410370e-02 -1.085459268403775462e-01 4.830408912458559190e-01
-5.561546766510143402e-02 -1.109454564661665754e-01 4.938547942953856462e-01
-2.020742906539135103e-02 -1.197507792806261490e-01 5.393422217456208534e-01
6.505671324131061597e-03 -1.265728895606804127e-01 5.316936188644104666e-01
-8.087988031512671760e-02 -8.267978359336099203e-02 4.480521275405513482e-01
-6.831268224736347650e-02 -1.059294467848030247e-01 4.772776489467339123e-01
-1.000723991564102383e-01 -9.904772283506534103e-02 4.730573064885238432e-01
-3.478365944953874106e-02 -1.023168760191647403e-01 4.679951148380940285e-01
-1.025271578251627097e-01 -9.673651288570565832e-02 4.734341615240596490e-01
-2.356926930656492308e-02 -8.419048880361519605e-02 4.477566296666199430e-01
-1.538441446080937927e-02 -1.222649678548111685e-01 5.328595562321499779e-01
-4.836837257235976351e-02 -6.140988766004980282e-02 4.368893800108942793e-01
-5.111708808156265743e-02 -1.114927664882127689e-01 4.934875721465494247e-01
-1.248465684816746010e-02 -8.321102924933285183e-02 4.477160785381233410e-01
-2.077248304713565086e-02 -1.079903410194071323e-01 4.725262805114924247e-01
-9.472788274458042446e-02 -8.817916159554571587e-02 4.629798302909499119e-01
-5.825752924569581326e-02 -1.045231172930553426e-01 4.705465266153883719e-01
-2.345760251249516537e-02 -1.203488132743034816e-01 5.218836856112040179e-01
-1.845436184603442553e-02 -1.218336757473927751e-01 5.229818727601623918e-01
-3.541479736888912024e-03 -1.217109026242987890e-01 4.959114216932273278e-01
-3.327248630687471009e-02 -1.164656333679687378e-01 5.013981352788915435e-01
-9.078489158350449423e-03 -6.912659283708583180e-02 4.426852389676848021e-01
-3.799682475861475284e-02 -7.611613448862289411e-02 4.425489640229981481e-01
-8.694266268915480655e-02 -8.375871992696078128e-02 4.556792948877091409e-01
-4.430989107650099013e-02 -5.142162484733223127e-02 4.382572804321319682e-01
-3.790283663558853544e-02 -1.147912136912353637e-01 4.985027969174555817e-01
-7.575393691385695627e-02 -1.092928646412477250e-01 5.032870733042793532e-01
-2.619460146790715191e-02 -1.028538119726773170e-01 4.666037408269834708e-01
-7.872707827001615422e-02 -9.751588767523915180e-02 4.566368179821912454e-01
-8.124002663585930262e-02 -1.042520190888068243e-01 4.738935884287239220e-01
-1.701430839634281850e-02 -9.546017956880624433e-02 4.558521154514942886e-01
-3.701329319336844892e-03 -8.094289001037995035e-02 4.476679599129259612e-01
-7.823834485033452635e-02 -1.086688619476111617e-01 5.013941879883783148e-01
-7.639981664995316307e-03 -1.027756948865694159e-01 4.625169309401855888e-01
-4.878223227644446630e-02 -1.131316094671844935e-01 4.990856179643716195e-01
-3.557217753977506142e-02 -4.525424037475360428e-02 4.390025172172408729e-01
-4.477372105691158899e-02 -1.064424914599205185e-01 4.765337497511893394e-01
-1.068518102552600685e-01 -9.781879550969974080e-02 4.858584316113546686e-01
-2.992507467077659689e-02 -3.561319569155364795e-02 4.395077570490569796e-01
-2.304263348181601403e-02 -8.089667088626022184e-02 4.461281651038780383e-01
-1.066520146047756218e-01 -1.005342646639820758e-01 4.996994750443650157e-01
-4.034350829189526505e-02 -9.860265016243101310e-02 4.618983721000836096e-01
-4.215938812794337714e-02 -9.682393637868888514e-02 4.588843367768685177e-01
-9.636897231915377698e-03 -8.381047257269391704e-02 4.483596542976988619e-01
-1.002604141126562376e-01 -8.539613440926537014e-02 4.750888305919331867e-01
-2.457952014532244212e-02 -1.180679168864596923e-01 5.419852665902333833e-01
-1.064727307416881430e-01 -1.005194361956564669e-01 4.941884457873254033e-01
5.339640642252505183e-03 -1.249292697718894646e-01 5.081020483417771905e-01
-2.719272265584078002e-02 -8.994605070523992163e-02 4.526379409970265888e-01
-1.011003372585357885e-01 -1.036029581593179288e-01 4.984948315431548815e-01
-8.124450753452688856e-02 -1.078963587820452041e-01 4.977020980488436330e-01
-4.809038534762952177e-02 -5.283043091256441059e-02 4.379181613758393876e-01
-2.006762170405843385e-02 -1.193429235510623798e-01 5.004485741071498239e-01
-9.476431123525595746e-02 -1.050536936047566372e-01 4.925209458011778341e-01
-7.709762652928078830e-02 -9.587582053329721243e-02 4.518008730746314594e-01
-6.206618147785358114e-02 -1.121206447932626971e-01 5.120050971236524973e-01
-7.632424955394935540e-02 -1.090135523410036139e-01 5.121540239233325353e-01
-4.260319973028513230e-02 -1.000944516798275424e-01 4.634700138581489548e-01
-5.309436556249360478e-02 -1.133201512954468415e-01 5.087430768186327334e-01
-4.773730493154974830e-02 -1.147765348871188501e-01 5.214628349317341760e-01
-4.203697460321826479e-02 -1.079212816180765422e-01 4.801467252216788939e-01
-5.257022836459143006e-02 -2.188839987946532284e-02 4.431115766896851493e-01
-1.073191968167103577e-01 -9.959177736356938926e-02 5.018701086390954247e-01
-8.505074928479533503e-02 -9.282304054078682753e-02 4.528900489874940760e-01
-1.653379840976586593e-02 -1.196208733623630310e-01 4.970141369037102130e-01
-7.231102986508378128e-02 -1.090253950947209227e-01 4.964902458808050367e-01
-6.421685165795992800e-02 -1.080588390596899651e-01 4.854886521396590271e-01
-6.943080951063303197e-02 -1.085973474703389452e-01 4.911826390273456577e-01
-6.755157535525739554e-02 -7.872340900824047194e-02 4.317124966456130086e-01
-4.834283343544641676e-02 -6.179819770048870092e-02 4.368839507942406941e-01
-4.950056776246515577e-02 -9.144460772045293062e-02 4.477503187748778091e-01
-9.015498789132637969e-02 -1.058378329942196300e-01 4.900458942287008179e-01
-3.677223863316383262e-02 -8.736168309962601131e-02 4.494736841749288336e-01
-7.070661113199426528e-02 -1.102797363380325912e-01 5.071373712741262807e-01
-7.962972309151562789e-02 -8.258818845273423193e-02 4.458681893902096127e-01
-9.778398780949580649e-02 -1.037098741183174883e-01 4.871859435536459171e-01
4.222541859243777486e-03 -1.240667137430513378e-01 5.038778753648371911e-01
-1.926975634706848059e-02 -9.777784451708335101e-02 4.585579794427815381e-01
-7.172126229698314037e-02 -1.099103764260784544e-01 5.169963365876190098e-01
-6.609484990776237634e-02 -9.990330434974802054e-02 4.583229136641355783e-01
-5.738419929049668605e-02 -1.115885402803684368e-01 4.986347884411534981e-01
-7.063083715064145951e-02 -8.958708792685862732e-02 4.352689339456810580e-01
-1.524533460839462735e-02 -8.452855327786878981e-02 4.481237405743275226e-01
-3.715730019004043899e-02 -5.388886350227083122e-02 4.390505313065876103e-01
-5.060839169365449752e-02 -2.925471667789234301e-02 4.397990619945998936e-01
-1.907165862319734270e-02 -1.177031744083103931e-01 4.922941744485948568e-01
-3.223306162053573426e-02 -8.252653305002062567e-02 4.462067075365686031e-01
-4.658985062079970541e-02 -1.129762740921717856e-01 4.964050184471287541e-01
-2.580135378279192065e-02 -1.183488505910179622e-01 5.389321665909974080e-01
-9.963470355088337171e-02 -1.029163785819189603e-01 5.069126085971836781e-01
-2.213473123386217392e-02 -1.146616594997155320e-01 4.875479203416144824e-01
-6.903553519662083970e-02 -1.106472396806999353e-01 5.147918826908916001e-01
-5.323828790928339383e-02 -1.128235500597142005e-01 5.281342730126350471e-01
-5.727618660246755131e-03 -9.293967778177517070e-02 4.540532408563757727e-01
-4.828320449208621523e-02 -6.632114484634572815e-02 4.371390063838377915e-01
-9.637969762834095941e-03 -1.242380757843885991e-01 5.288598746104875570e-01
-5.504512661187391243e-02 -1.046663031110444120e-01 4.705360021956552230e-01
-9.861528747730201327e-02 -1.040276202610433409e-01 4.923847484333822577e-01
-1.294366475758560939e-02 -1.119619031290769312e-01 4.749527062921273246e-01
-3.594808239210454948e-03 -1.025328881887529880e-01 4.623036919781208787e-01
-2.105084100709151557e-02 -1.150312151936975918e-01 4.875676957327995109e-01
-1.001033943831558110e-01 -1.010749717077250448e-01 4.794458706962200223e-01
-4.409859423999784589e-02 -1.014421495284602848e-01 4.651173877565712433e-01
-6.642293438266870520e-02 -1.068670467450778538e-01 4.799001918986893211e-01
-3.853880815059682052e-02 -5.488559030718218046e-02 4.390174927398270976e-01
-2.636760433722665567e-02 -1.020993171201802358e-01 4.657228155570372063e-01
-1.887985520830753536e-02 -7.322284707564745421e-02 4.433457030908654617e-01
-5.651497618045198817e-02 -1.071960255470918305e-01 4.792067307947978083e-01
-9.595837136451169924e-02 -1.036655905688423640e-01 4.832404137321830717e-01
-9.412503854586523611e-02 -8.215920427507975021e-02 4.694306511965815609e-01
-2.918191533783700761e-02 -1.188728155343150156e-01 5.194915998378041300e-01
-5.748201252304500908e-02 -9.910428621121150639e-02 4.568270700181457089e-01
-2.132004565525293105e-02 -3.990263524091569591e-02 4.399631855278864911e-01
-6.046128832648998280e-02 -9.708083459312905061e-02 4.486994850005654456e-01
-8.661998169831869321e-02 -1.055823523200649094e-01 4.832578676928420136e-01
-3.090723865331329590e-02 -1.041986978272773923e-01 4.705281202344880898e-01
-4.094824862191766279e-02 -8.742689958551934371e-02 4.488647948005287103e-01
-2.790814256606526447e-02 -3.465725240227261056e-02 4.397674093897815939e-01
-5.895162588393549480e-02 -1.079176958931686164e-01 4.827922694695236938e-01
-8.730341467307620174e-02 -1.069809754220450576e-01 4.986677923803364276e-01
5.434713116409980484e-03 -1.262665260160395486e-01 5.158259433525915760e-01
-1.031145859886095292e-02 -1.083741092030510167e-01 4.687977949999455052e-01
-8.407561690487738715e-02 -1.061435263621007402e-01 4.840020601180131665e-01
-8.995808245090804178e-02 -9.473578650945772839e-02 4.600256861398927533e-01
-9.694698534334211804e-02 -9.569790401702454874e-02 4.664415193392951187e-01
-2.812088292634053882e-02 -6.461119563360294415e-02 4.408397184862830609e-01
-8.164016506959019537e-02 -1.059379114535952543e-01 4.813765299143500376e-01
-6.782924470340898071e-02 -1.097985456516806096e-01 5.242871999312730402e-01
-6.399244578712645626e-02 -1.114410559393156780e-01 5.073314879226435981e-01
-5.322384188050943710e-02 -3.964170180294038226e-02 4.420061829863387026e-01
-4.231864744956306823e-02 -5.789733147217729359e-02 4.387201645264635630e-01
-8.448710425443016481e-02 -8.489446192518211587e-02 4.519164275569654832e-01
-7.865223026278689300e-02 -1.078512284941255950e-01 5.171595344853073817e-01
-1.962178923588660598e-02 -1.166362486001556314e-01 4.898775814049031174e-01
-5.410273357794555260e-02 -1.114165269352517668e-01 4.952481942730966313e-01
-2.318176538378055249e-02 -5.313912193346091717e-02 4.398753270178086261e-01
-7.703594239003647148e-02 -1.074889451267732055e-01 5.215896636106492901e-01
-3.614265175368768651e-02 -3.290094207630941958e-02 4.379994713770543613e-01
-8.940965443702672544e-02 -1.066120446982647824e-01 4.956984896561712484e-01
-8.025439967176258016e-02 -1.083124654116068702e-01 5.017949211935409659e-01
-4.908517414446146587e-02 -1.123829564062403807e-01 4.963396566130628962e-01
-4.885401177359470493e-02 -1.146171618287481903e-01 5.172456021306410801e-01
-2.290890881423575387e-02 -8.065604844899944281e-02 4.460163027450462225e-01
-5.017787217221760659e-02 -8.554745310611888698e-02 4.403889842620706818e-01
-7.496250689854405680e-02 -1.007523325669005959e-01 4.624699421978647473e-01
-1.009650910984150191e-01 -1.032883915128801761e-01 4.917955936370285164e-01
-5.055299106492359973e-02 -1.128065906040891242e-01 4.996390787041337100e-01
-1.976526315713657191e-04 -9.907202835991629764e-02 4.593529931186700610e-01
-2.660037487482974292e-02 -1.193418281724206720e-01 5.119867638370154683e-01
-1.015895205763236910e-03 -8.052849087940026906e-02 4.474088834769512912e-01
-1.946667513860120269e-02 -8.701625419211875268e-02 4.492127007450630316e-01
-3.892770182916826388e-02 -9.677058280719103012e-02 4.597634453093074614e-01
-4.035495756801159989e-02 -1.163697906191760445e-01 5.195528380194990303e-01
-4.249935983191706346e-02 -4.776929280762972491e-02 4.381433756029924353e-01
-5.198031178289976018e-02 -1.138453295564261780e-01 5.130506772524503489e-01
-8.312738620987290827e-02 -9.048151279369226474e-02 4.506028663126672718e-01
-7.946038251945783393e-02 -9.687986051953006994e-02 4.555887396557258273e-01
-3.198735092233682270e-02 -1.161816928819586203e-01 5.415223201310020995e-01
-9.869230463495295980e-02 -9.673325279821508305e-02 4.684843914047560620e-01
-4.530846228565676981e-02 -1.140036427627006826e-01 5.012861560701816765e-01
-5.385946786240553008e-02 -4.646130468408916914e-02 4.391606620410282158e-01
-4.671811343515479276e-02 -9.555045207264134532e-02 4.549002241104133648e-01
-4.530529531376593921e-02 -1.137880139826778075e-01 4.993637764595880157e-01
-4.461546918114317473e-02 -1.137488191637164858e-01 4.988523542666851718e-01
-6.161442320308055734e-03 -1.192387867834247550e-01 4.890618001704489792e-01
-1.203469372790192705e-02 -1.163485019386321651e-01 4.831612912878666677e-01
-4.647136039018113368e-02 -1.129546323067065899e-01 4.962778827499624290e-01
-2.000543699816037871e-02 -5.539887852326980805e-02 4.398828922652001094e-01
-4.366194350773214272e-02 -7.767027340715337846e-02 4.410523241772902892e-01
-4.477249762218069723e-02 -9.355011869896751042e-02 4.533258721381836498e-01
-2.401471219359567130e-02 -1.086770408152714223e-01 4.754707820392969908e-01
-2.550907743337117728e-02 -7.556829160427018521e-02 4.438912396933383242e-01
-5.117897927740507058e-02 -1.130746340259077137e-01 5.302020651348486879e-01
-2.117312303692783781e-02 -1.193931250362402913e-01 5.022647241820507036e-01
-4.138868120640608154e-03 -1.252852133821527325e-01 5.305337594409375024e-01
-4.896399856377691567e-02 -9.337457060965212441e-02 4.499473929617926471e-01
-6.288755649080647603e-02 -1.109208587287334319e-01 5.008894642479989612e-01
-9.310521350874975677e-02 -8.186287955456925114e-02 4.681987589344521195e-01
-5.528467059210463025e-02 -6.212416479148174381e-02 4.346836888645594366e-01
-3.378967782373117068e-02 -1.070473241177221924e-01 4.759610141750953427e-01
-8.800600264583480214e-02 -1.067658458318840597e-01 5.026685031139305204e-01
-5.200791575204566364e-02 -1.087561288514751617e-01 4.840116940197808915e-01
-5.610728066134366976e-02 -1.118153253083657428e-01 4.989012731599785089e-01
3.947575829060648300e-03 -1.233922289829823549e-01 5.012588972142224542e-01
2.817475736192693453e-03 -1.263126608545357688e-01 5.308301652964846351e-01
-1.815290469065288653e-02 -5.729451414532618636e-02 4.401775382891617849e-01
-2.091358329080300268e-02 -1.187713942177062720e-01 5.430463398462990199e-01
-3.676323778710202661e-02 -4.348495840416658625e-02 4.386555568572808039e-01
-1.807984846783905128e-02 -1.132180809232260915e-01 4.808083610511614259e-01
-6.498131105018832565e-02 -7.443686701522597704e-02 4.337740994884769496e-01
-5.428505293689511041e-02 -5.169812236898230218e-02 4.375073095550702229e-01
-2.597212600855707335e-02 -9.399897918114898110e-02 4.565228354940402133e-01
-3.961759675399894459e-02 -5.849554469775507942e-02 4.391660525067928034e-01
-8.939501178229248071e-03 -7.658269117581698038e-02 4.454948023343147656e-01
-1.043428432236437747e-01 -1.025676125476557288e-01 4.971321960145044239e-01
-5.267134753521482415e-02 -2.531788871782661432e-02 4.429979228233557609e-01
-4.192137641397171433e-02 -1.016300631047722808e-01 4.659894160756253845e-01
-2.741203757120284565e-02 -1.192470809964739364e-01 5.219003277855192025e-01
-3.712502277787711746e-02 -9.802589638143002770e-02 4.616283700566265469e-01
-6.695077800582480143e-02 -1.102146125000888627e-01 5.001126239895217207e-01
-8.596754687898526537e-02 -8.304565844523373319e-02 4.549673988972188221e-01
-5.793633620475373280e-02 -9.242844545934675304e-02 4.401263502106838033e-01
-4.781451462739109287e-02 -1.064459097666125842e-01 4.764422270864847042e-01
-4.468808831952866822e-02 -1.146105026081864486e-01 5.059008434134832921e-01
-4.866215093334850389e-03 -1.254884916985250232e-01 5.149851165483839699e-01
-5.383477373517435438e-02 -8.488810496526967564e-02 4.364082961063420751e-01
-6.948636893459121666e-02 -8.943242281741418942e-02 4.334505522958104207e-01
-4.398043520173311460e-02 -9.260867846120905689e-02 4.526041865091555705e-01
-2.255034569279340886e-02 -9.129171192649822297e-02 4.530202506992157541e-01
-1.029543762237366128e-01 -1.018866017836754928e-01 5.058078075309898614e-01
-4.538968387386344006e-02 -1.066705998128348598e-01 4.771960896489323978e-01
-3.140142017191249139e-03 -1.053290933672798163e-01 4.651373988787669278e-01
-2.922750969303672744e-02 -1.062639254085411683e-01 4.732580111614204110e-01
-6.458567790638852779e-02 -1.116005657811888069e-01 5.176939852454649493e-01
-2.377567799746696173e-02 -1.047221572404875428e-01 4.682664135814361694e-01
-1.569637837686271853e-02 -1.205892052116186580e-01 4.999795258466660508e-01
-4.913157453487895093e-02 -1.004113463116275140e-01 4.621580423956021533e-01
-4.606247232766094019e-02 -5.012401726371697175e-02 4.382415793631382339e-01
-8.256922129823518475e-02 -1.051587591163810759e-01 4.777319636994293850e-01
-1.643506596121105390e-02 -1.059095364540548201e-01 4.667398856442886990e-01
-4.791998163969236890e-02 -3.281244742396587782e-02 4.385080925137618268e-01
-1.095589194205113040e-02 -5.955487047172426662e-02 4.399859420349787609e-01
-2.423025727768141069e-02 -1.195734797517670756e-01 5.329273707399460047e-01
-3.735327964172033971e-02 -1.170379603622274389e-01 5.197797050791763684e-01
-2.086522012985590757e-02 -1.163765493429045339e-01 4.905942744803868383e-01
-5.339121806391593922e-02 -1.075644224230610652e-01 4.798413813862623667e-01
-7.440309533211801607e-02 -8.749210269080763547e-02 4.377534009781094970e-01
-7.097779393332905029e-02 -1.083228555412139582e-01 5.264328104657852725e-01
-5.622948596935865850e-02 -9.077339420487699762e-02 4.398708807734816317e-01
-9.002303170890026129e-02 -1.059181452429664022e-01 4.904917022540497551e-01
5.861622696946768886e-03 -1.220482280535199471e-01 4.974692496540776832e-01
-2.541659075923154848e-02 -1.196088877897529823e-01 5.114362054927373835e-01
-2.791452051621123517e-02 -4.452589483437274787e-02 4.402593797916075080e-01
-7.960270672911647083e-02 -8.464728362599159561e-02 4.447675973522345338e-01
-1.118477837846851806e-02 -7.288909089859821333e-02 4.438661964460139386e-01
-1.967509650372160218e-02 -1.106337505994811066e-01 4.765456861737915606e-01
-1.268715535030489998e-02 -7.159411979555718730e-02 4.432919319283663007e-01
-6.198864870869476990e-02 -1.101409641793372335e-01 4.945571811214764524e-01
-2.732870163510733863e-02 -5.563760316075352236e-02 4.398135036502322515e-01
-4.739217121700389779e-02 -1.139205066883409306e-01 5.041441731670973647e-01
-7.312412538688896346e-02 -1.085859386437521557e-01 5.226202810150208933e-01
-3.269728304308505001e-02 -1.057834696329933294e-01 4.735710944134382538e-01
-2.567155580415206306e-02 -1.181771328721244324e-01 5.401178449356965894e-01
-4.350106612122382754e-02 -1.146283144966396689e-01 5.039651582102118166e-01
-4.091813844555477336e-03 -8.730196198746778546e-02 4.506133776165183735e-01
-5.160959130915872273e-02 -6.633799293376294037e-02 4.351985050298513569e-01
-1.549487187601418861e-02 -1.177724551266120939e-01 4.894295599575446132e-01
-8.937958406417251256e-02 -1.064456861191454273e-01 4.940164631078167168e-01
-9.864075550239756462e-02 -1.022708462833741422e-01 5.110422074943138382e-01
-5.450157736951605908e-02 -1.120002267097824633e-01 4.986773422194944461e-01
-3.081656126061368961e-02 -1.004990857510109775e-01 4.653207988087888491e-01
-8.959253242639331205e-02 -1.045039627720026620e-01 5.149160009812935312e-01
-4.995666122241514823e-03 -1.251681853635903119e-01 5.122254111157358292e-01
-7.736728580489146689e-02 -1.071715993261380950e-01 4.867030520474504574e-01
-4.663127322263537627e-02 -8.288037504560318014e-02 4.424850053180890419e-01
-1.470175786328245179e-02 -8.159620800475234081e-02 4.469937186049575684e-01
-3.504095620203456773e-02 -8.533686194986339624e-02 4.479657460524755219e-01
-7.865271561140083079e-02 -9.211487920900893189e-02 4.468048141375010607e-01
-2.156436671346723816e-02 -9.285503298103167658e-02 4.543081752690200092e-01
-6.708838831088811960e-02 -1.073636155672158254e-01 4.831424600158741867e-01
-5.408417296505226707e-02 -1.105211341918603124e-01 4.909516177086175603e-01
-3.167013159259814137e-02 -1.181612743145737665e-01 5.217489295524391224e-01
-7.689393785637704815e-02 -1.075968262281625509e-01 5.213008518964630245e-01
7.820971351243815629e-04 -1.111512869881058213e-01 4.725953135637788738e-01
-5.471629424832855776e-02 -9.093989355128211105e-02 4.420699740022395186e-01
-2.244569809945314715e-02 -1.189537702461372914e-01 5.403333024963177245e-01
-7.952159406508801931e-02 -1.078531531812022271e-01 5.153532276621499708e-01
-1.337516346809203976e-02 -7.466214422056860478e-02 4.442972238584158018e-01
-1.721911329129949264e-02 -1.218293241414832445e-01 5.308851051103186114e-01
-6.392162547768313885e-02 -1.097288070799796733e-01 4.934268286987254504e-01
-1.960450335805674626e-02 -1.192889705412599338e-01 5.425038253628164941e-01
-9.796922314741056403e-02 -1.033661367237643236e-01 4.853325720352634209e-01
-3.360212027442802379e-03 -1.242665563596476869e-01 5.351815945681928088e-01
-2.156619930845514455e-02 -4.884999807714126424e-02 4.400223352933224086e-01
-3.061555202464430470e-02 -1.176474876372705647e-01 5.352118946145321132e-01
-9.509794802374874068e-02 -8.369487396559577297e-02 4.684619043904245661e-01
-1.725862467638706113e-02 -1.109982313222794836e-01 4.755849323198724221e-01
-2.792119532801036128e-02 -3.398619800551189174e-02 4.397110839431336293e-01
-3.004010662118382358e-02 -3.465124096775962226e-02 4.394109311090084180e-01
-2.046206062121753988e-02 -1.213332908955302020e-01 5.130281348706565714e-01
-1.367861990481045176e-02 -9.406993175487715630e-02 4.544113752926401406e-01
-2.853924225009183552e-02 -1.184898762938531441e-01 5.323109612867213958e-01
-6.226078526321933426e-02 -1.119142482487656687e-01 5.211473618549444797e-01
-5.561214273210030729e-02 -1.005016706314257324e-01 4.613077452800721234e-01
-4.841396179959243928e-02 -6.297918532853939710e-02 4.368294123384053873e-01
-5.944521541012220966e-02 -1.116419946807555158e-01 5.016812565024416637e-01
-5.844560584654054369e-02 -7.859230084305923736e-02 4.312686489603098638e-01
-2.844151337659233530e-02 -7.356340426527756271e-02 4.428990403453801350e-01
-5.249033638015549591e-02 -2.364311179125587123e-02 4.423380502502113343e-01
-8.833739462927529817e-02 -8.903608367916486521e-02 4.550300361856440268e-01
-3.430490878057733395e-02 -1.177026112586357920e-01 5.185050326804513388e-01
-1.001200083435277166e-01 -9.763485095401462643e-02 4.705083210724009812e-01
-3.212895206615048321e-02 -5.651463912975293602e-02 4.396786017796973089e-01
-8.379860801056940658e-03 -1.083148268348465837e-01 4.683534839278029605e-01
-3.463651209294724836e-02 -1.122366643009991699e-01 4.881421801126933357e-01
-6.914559815230292804e-03 -1.189899626399960331e-01 4.885707874286160379e-01
-1.068961196875419656e-01 -8.964898965676110221e-02 4.826162635158265934e-01
-2.101611090987488134e-02 -1.162913844428665605e-01 4.905404035907049987e-01
-2.038483215443791241e-02 -6.687072366896856801e-02 4.418090131082325067e-01
-5.073830251812756764e-02 -1.107915879970349377e-01 4.906398967157745150e-01
-6.761942318115690687e-02 -1.086433977291800107e-01 4.901511197962378774e-01
-8.343896346280963924e-03 -1.243406133296576510e-01 5.300262450290478267e-01
-9.619106455653607390e-02 -9.866409762875627543e-02 4.691772116146738503e-01
-2.790209272906006566e-02 -1.189934894684840511e-01 5.256084053874890971e-01
-3.698304174519927070e-03 -1.246678501656570681e-01 5.333152728993170166e-01
-6.935586027392177944e-02 -1.075279176146688997e-01 4.851879910638590698e-01
-3.934665162920127079e-02 -1.128251916642639130e-01 4.924120287639457971e-01
-2.393944583910404683e-02 -4.808505074476294994e-02 4.402841810270070044e-01
-3.545344611397382301e-02 -1.118647061849774027e-01 4.874852382788431582e-01
-4.570258558993843534e-02 -7.413425599551724809e-02 4.389888651502447114e-01
-7.248390720922852359e-02 -1.097804016342256300e-01 5.156726605605533864e-01
-8.596749510193729682e-02 -1.070355938454488204e-01 5.060477927183040237e-01
-9.967276174013103840e-02 -1.028068553712223193e-01 5.072487758651005318e-01
-9.411207345125066973e-03 -1.240031080063407204e-01 5.102239522298752661e-01
-3.094982131100771847e-02 -9.992744831722723264e-02 4.644348427627741915e-01
-4.810123242208463878e-02 -1.115675372914637919e-01 4.927228163542509698e-01
-8.982696038666153349e-02 -8.070357015654139321e-02 4.639810109459634457e-01
-2.878363638488179096e-02 -7.705538917239128371e-02 4.442630905681114184e-01
-7.950747533176794057e-02 -9.269914099855119938e-02 4.481276566934417338e-01
-9.618258604219000196e-02 -1.048592067958551560e-01 4.944424735159236306e-01
-1.259611744397368810e-02 -1.228199471481166843e-01 5.076906087803986223e-01
-9.284469909720913239e-02 -8.388029049263637238e-02 4.645033823498125325e-01
1.326043294432813907e-05 -1.003987625501565201e-01 4.604256986594670309e-01
-6.943937771654168367e-03 -1.079957200967849307e-01 4.679367202751968380e-01
-4.098993436846501415e-02 -1.145348556213489077e-01 5.003650704904076818e-01
-3.121304689874632166e-02 -1.179419437640531476e-01 5.303427157149532833e-01
-7.831015500026322629e-02 -1.087249515895823831e-01 5.070805485296182580e-01
-6.672587735026594413e-02 -9.752291481116003025e-02 4.503264989948939090e-01
-8.871932177718830879e-04 -1.201006783913095288e-01 4.908316812877340229e-01
-3.744501676576263149e-02 -1.160871087710877714e-01 5.048219079224426364e-01
-1.847691473033192741e-02 -4.581744757442786364e-02 4.397566018000432786e-01
-8.164398857407903498e-02 -1.076091962665887136e-01 5.113516063692539193e-01
-5.464918290642980375e-02 -1.036010757257276732e-01 4.679951138992586857e-01
-1.186497085917637487e-02 -8.610160984091147496e-02 4.491613760700906011e-01
-1.123165621934645378e-02 -1.113934901582587095e-01 4.735169707907997405e-01
-4.259617550920836299e-02 -1.094303383295573556e-01 4.843122389131859773e-01
-3.541146940458556047e-02 -1.165934324259935290e-01 5.051735037609360601e-01
-9.662159016506588483e-02 -8.768415196240977871e-02 4.661239757329887490e-01
3.256164232627175095e-03 -1.260918564548562104e-01 5.139493649496041927e-01
-2.816834666490092981e-02 -6.335637464890865600e-02 4.406905809034260546e-01
-1.383893220030958139e-02 -1.041304408448466140e-01 4.638337011647642449e-01
-9.605899244377066881e-02 -8.447188990492361660e-02 4.687951643822204084e-01
-1.467215653130374275e-02 -9.567646188683950892e-02 4.558228129477052692e-01
-1.033424925691533575e-01 -1.026322203651609671e-01 4.929118629962304654e-01
-3.598527738651162433e-02 -1.160234976953007369e-01 5.025609627808781399e-01
-4.228500861176556769e-02 -7.300575527476543813e-02 4.399831098027973675e-01
-5.297929500263341002e-02 -1.117142739440117327e-01 5.327824090645977284e-01
-3.677613117099155782e-02 -1.152765858102069996e-01 5.405395361808192911e-01
-5.090384265361463240e-02 -8.637260658069771668e-02 4.402964819824750076e-01
-3.746555786576443586e-02 -1.157609198669525552e-01 5.369240714016448868e-01
3.621263261174799668e-04 -1.260452956705688798e-01 5.312273390749407964e-01
-2.805305353921073996e-02 -9.417761641741223544e-02 4.569871445775537389e-01
-3.893123969051489469e-02 -3.017152015339318732e-02 4.378203990970835346e-01
-5.397566532097739650e-02 -1.092146429672056357e-01 4.859973956624983882e-01
-3.576961491355437617e-02 -1.069411349412549977e-01 4.760273296820191624e-01
-4.318021609413228573e-02 -3.910167281835913444e-02 4.377401218893401391e-01
-1.684707338446782623e-02 -8.236738683128888572e-02 4.472013357589897375e-01
-6.285222270342986917e-02 -9.192330889948460704e-02 4.361471380469227332e-01
-4.179881674106264433e-02 -1.154522257252792311e-01 5.293815406376316535e-01
-3.858582128708951120e-02 -9.073870100586492460e-02 4.520672012999440992e-01
2.362045299564999117e-04 -1.266845860395614809e-01 5.205909193316436978e-01
-6.555137126586423058e-02 -1.109066227097993268e-01 5.042107385652438989e-01
-2.173042535548028523e-02 -9.720175795383417805e-02 4.589386104539822098e-01
-2.576123503384987468e-02 -1.192171901389745547e-01 5.082587041301166453e-01
-1.712153305608721948e-02 -1.193003102040286201e-01 5.452144912090896023e-01
-1.187201834324110895e-02 -8.724264019500264922e-02 4.497866047018215241e-01
-1.683435250872114888e-02 -4.861631443930129054e-02 4.395785526640493823e-01
-5.417484282000811086e-02 -5.176779451444582514e-02 4.375020796479123231e-01
-4.645014710287741211e-02 -8.437595194568536794e-02 4.443099954435760779e-01
-8.379467602203866106e-02 -1.050135116107836220e-01 4.776204666007325961e-01
-3.061351632910379317e-02 -1.171730766357976239e-01 5.383653455693926393e-01
4.365558421124992802e-03 -1.265069697763059609e-01 5.296731173696969108e-01
-7.164263920331076507e-02 -1.099599589606932021e-01 5.159363618796897200e-01
-5.295442035772788408e-02 -1.129120000223255427e-01 5.280454612118837820e-01
-2.591738528085320986e-02 -1.182976179438193776e-01 5.390527276588317207e-01
-1.181049241170168025e-02 -1.204983155286152990e-01 4.954365527350936271e-01
-9.852172414676474768e-03 -8.700312061106109385e-02 4.498774241250732553e-01
-3.828692876162114594e-02 -1.014825899225105660e-01 4.664621121038907692e-01
2.066722058523704983e-04 -1.155602755037097584e-01 4.798172306342147198e-01
-6.171855323763444923e-02 -1.101338270215767162e-01 4.942066958326769566e-01
-7.357646156441191576e-02 -7.771874412846081770e-02 4.410656956598694167e-01
-5.512926809776440978e-02 -1.128563853766489239e-01 5.074474586653352493e-01
-4.284084321782295323e-04 -1.241356507514806695e-01 5.029102547490565955e-01
-7.312153456136828711e-02 -8.083556670580201164e-02 4.375226134140562384e-01
-2.065428070314666298e-02 -1.208641747422051077e-01 5.282664636270538727e-01
-2.505366904915196091e-02 -1.176608764120061490e-01 5.430230382003528034e-01
-6.792545595855387086e-02 -9.731306316432190850e-02 4.506609837928485240e-01
-1.449918216115127743e-02 -1.032403653955747680e-01 4.630258310019805812e-01
-8.698179109536516296e-02 -1.060563648048180041e-01 4.869202160275178937e-01
-2.631537598350344037e-02 -1.186716559865426956e-01 5.048776708218011278e-01
-9.604206641268975275e-02 -9.458814150685067312e-02 4.650231825252948425e-01
-5.546400560680655317e-02 -1.123172466038162010e-01 5.022094950242490530e-01
-6.479971284454985603e-02 -1.023283019374011255e-01 4.653753163175322061e-01
-7.961191064055231359e-02 -8.942892589100724654e-02 4.459681558664868040e-01
-2.050594535447118616e-02 -1.213193740963921241e-01 5.197388806603790989e-01
-1.086612993614489708e-01 -9.231226714582252413e-02 4.846617738119424201e-01
-8.387603588185729708e-02 -1.061609167352065980e-01 4.839181266135570425e-01
-8.173187485646597750e-02 -1.058298750176647068e-01 4.808304235680515015e-01
-3.058090993135828897e-02 -3.969037920452746920e-02 4.398249191287905702e-01
-1.959359602801958016e-04 -1.155032538608289777e-01 4.796809938691028452e-01
-6.063910070953920650e-02 -1.124412517340433876e-01 5.159583650170115332e-01
-2.617359711453394119e-02 -1.021033917399162827e-01 4.656498513014846741e-01
-4.724526829332555133e-02 -8.160714405200074351e-02 4.404621287856659850e-01
9.195329281731803167e-03 -1.268838093538940393e-01 5.313251180887897940e-01
-7.141757601718540238e-02 -1.101785628136324191e-01 5.079642023539536755e-01
-3.966122746187576709e-02 -1.165115418848173962e-01 5.198550996622008924e-01
-4.604894768273252309e-02 -7.954268134598141415e-02 4.406733953903618772e-01
-2.587213700153256912e-02 -1.150321789115061194e-01 4.917459350958180986e-01
-2.156249391643164440e-02 -1.204560525910584323e-01 5.303653704299539084e-01
-1.068720128998765090e-01 -9.899365822829558903e-02 4.896481621088517033e-01
-5.163299323902179050e-02 -7.972631311304834156e-02 4.363706218308395779e-01
-3.981980161378177036e-02 -8.609964648191779923e-02 4.481148465015198923e-01
9.472678329485209950e-03 -1.257272248030073813e-01 5.154082999522706654e-01
-2.428647646894800324e-02 -1.199756725158750564e-01 5.251261024520745835e-01
-4.127938425426148222e-02 -1.143933162047832547e-01 5.368593954740947805e-01
-3.518296338716247074e-03 -8.488148880173229660e-02 4.494436494489367773e-01
-3.193042979466798742e-02 -1.161675866589242795e-01 4.991471511612416423e-01
-6.631669942989958100e-02 -1.102455497275725282e-01 5.240746279735827295e-01
-4.118409595907175647e-02 -8.163570823552696032e-02 4.443442972365191368e-01
-7.374427530735064296e-02 -1.030504669205649371e-01 4.686761364759566839e-01
-8.695348201979467839e-02 -1.054155661235562785e-01 4.826491050433838748e-01
-9.807937408430188186e-02 -8.738259202157167005e-02 4.685990421289982777e-01
-2.083716596294082901e-02 -3.905101766549233522e-02 4.397464541968668095e-01
-9.287890196212643390e-02 -8.317998085194308611e-02 4.655589760816875033e-01
-2.693333506287421547e-02 -1.184160074932501111e-01 5.363848438346001668e-01
-2.443266769353139717e-02 -9.583185064741690795e-02 4.581778686144513113e-01
-7.691690800338928102e-02 -8.884083816186752469e-02 4.419536824113733942e-01
-4.955524090447595981e-02 -6.219786871281006435e-02 4.363800412506153581e-01
-1.507337341187669523e-02 -1.164312402537948099e-01 4.854018728020775830e-01
-1.016031330048051962e-01 -1.023865992423616672e-01 4.871038358302435811e-01
-1.579604052193105818e-02 -5.075275987228601571e-02 4.395038561996328363e-01
-9.554921740438903840e-03 -7.449290262838327570e-02 4.446344134549301552e-01
-3.863339544308061480e-02 -9.330118394096530154e-02 4.552179818999202987e-01
-9.920310200538356993e-02 -1.035877200711020074e-01 4.893761500099714779e-01
-2.950718508965128120e-02 -1.182567655138801466e-01 5.323009924262123160e-01
-2.040921047276363434e-02 -5.106291755169107410e-02 4.399307518410673357e-01
-7.442685376575346179e-02 -1.093135322793586245e-01 5.157519711348483860e-01
-5.185074024329525133e-02 -1.090972349155940879e-01 4.849794480889786930e-01
-8.616187900869434757e-02 -1.048137408495921352e-01 4.786512223290096957e-01
-5.593669902078238221e-02 -7.797493827842025271e-02 4.328521824375360927e-01
-5.039928285303584693e-02 -1.130336098154604424e-01 5.007899354127425262e-01
-2.273930371891621019e-02 -1.162228242904835285e-01 4.924327840500362097e-01
-5.987182983418402882e-02 -6.944330991201180803e-02 4.333306131379566772e-01
-3.414625835306132201e-02 -7.268393522888599856e-02 4.417699193150889103e-01
