-1.041919865386304045e-01 -9.141885735574627192e-02 4.747842089398734422e-01
-8.301149767727486473e-02 -1.071321579450971867e-01 5.121197641201162831e-01
-9.057632455498049184e-02 -9.660433932527844048e-02 4.621769643241677716e-01
-9.295982816751199862e-02 -1.032194635804043609e-01 5.155221571188750573e-01
-5.920849154949975324e-02 -8.868403413300329774e-02 4.351844888467512051e-01
-1.258471439891025757e-02 -9.942218926975392168e-02 4.590771334667239079e-01
1.052673468397518318e-02 -1.258466566144542942e-01 5.172279296508999202e-01
-8.343912320836004148e-02 -9.488656323967686879e-02 4.543611662844491139e-01
-9.045091451334126564e-02 -8.796169632864948851e-02 4.583037595326323599e-01
-7.185730999146289211e-02 -1.087223899486836759e-01 4.945893392843389580e-01
-9.919382358266094768e-02 -1.019159266542559727e-01 4.814220584506019307e-01
-8.496189938210818582e-02 -1.071042528080781292e-01 4.959324654895178597e-01
-2.380618567513750547e-02 -1.001064928645974406e-01 4.622879488646678414e-01
-1.308157135160365261e-02 -1.120127738434242293e-01 4.751496259594547578e-01
4.032746189014885588e-03 -1.225583424005224770e-01 4.987197041092003014e-01
-2.129183560810895062e-02 -7.611493641961701584e-02 4.442245930020808919e-01
-8.431093756207163475e-03 -7.728676823499859572e-02 4.458524060677499512e-01
-6.762558070967511492e-02 -9.126303568883947781e-02 4.357088954599416253e-01
-6.617047968976969008e-02 -9.695481798402032225e-02 4.443834517911432469e-01
-4.902521301112920671e-02 -1.135214554993307229e-01 5.037020714139598399e-01
-5.005284900636079032e-02 -1.117690784160223494e-01 4.943731052251381652e-01
-2.222104415836530927e-02 -1.197132707613393354e-01 5.363957605262239525e-01
-6.372279527170499058e-02 -1.095210024527467768e-01 4.926373346912776285e-01
-4.206888862336080614e-02 -7.939753978476221663e-02 4.424897285139957614e-01
-7.258914151741094334e-02 -1.054777544916005311e-01 4.775093122832020365e-01
-1.857618011743280770e-02 -1.134430776300938415e-01 4.817442920668921214e-01
-2.260560030939355244e-02 -8.528776219736786124e-02 4.483205181173122722e-01
-5.193453593240900112e-02 -1.001600067154876789e-01 4.611575440915811619e-01
-1.669414984021950696e-02 -1.219418871208016869e-01 5.095248528898668194e-01
-2.008927139172676443e-02 -1.173326496463665547e-01 4.924773257149436256e-01
-2.234970451340501096e-02 -1.183235763926331896e-01 5.432522886648540883e-01
-1.504238066485899875e-02 -1.224834673456355882e-01 5.102925988375933697e-01
-4.855138988438480879e-02 -1.083489195111509568e-01 4.825440606010595324e-01
-7.739309947498944353e-02 -9.877349819353764548e-02 4.591005620431158896e-01
-5.113981893080966901e-02 -1.140695197503439617e-01 5.195205080082394566e-01
-3.385852306313096721e-02 -1.172474881851800349e-01 5.082792833124382126e-01
-1.981031215685505331e-02 -1.162592860979479170e-01 4.892005709587486928e-01
-5.638224455415839081e-02 -1.117950180326944265e-01 4.993053716864654379e-01
-6.021684955139702811e-02 -1.123626495350769916e-01 5.118051137078406532e-01
-4.153176808097278072e-03 -8.911979807092536288e-02 4.516368309287128735e-01
-8.304358817099852241e-02 -1.049376367864290199e-01 4.773943496619647009e-01
-1.284644615511221569e-02 -1.199360594068824976e-01 4.944139996027938078e-01
-2.905931054897239324e-02 -1.033157733051352084e-01 4.684130649040464944e-01
-6.458291561186803309e-02 -1.109912239870608913e-01 5.041420158165627052e-01
-2.918685494251141432e-02 -9.595237891529552476e-02 4.590362066820675158e-01
-1.787337248535819656e-02 -1.216348126767596571e-01 5.306275047360248243e-01
-6.108633551744132445e-02 -7.620525827743448999e-02 4.318146504996763224e-01
-4.534765309220529367e-02 -1.145303197062178119e-01 5.066607714035462617e-01
-6.437615656238740436e-02 -9.765500001207347291e-02 4.494385026414539075e-01
-4.621757692155165770e-02 -1.150461425043651370e-01 5.151262942297906156e-01
-4.776008495139056481e-02 -9.670619322672552309e-02 4.565859068162036460e-01
-6.878621790960359750e-02 -7.749267402605844457e-02 4.345532257964465073e-01
-5.755684272268513091e-02 -9.843953273043437591e-02 4.551652321197608986e-01
-1.070361811711299099e-01 -8.863774831819645761e-02 4.833065026494206551e-01
-2.007899791122145366e-02 -1.214648760610437944e-01 5.130985466302353526e-01
-5.686245915594474731e-02 -1.130031355169727192e-01 5.207101381509137150e-01
7.593467981935899357e-03 -1.266572304855035358e-01 5.236621722327621242e-01
-8.827404665885267565e-02 -8.700737412650556835e-02 4.555541527178839645e-01
-1.020496712847125675e-01 -9.428355885601517883e-02 4.706418888624296915e-01
-6.289196960879930853e-02 -1.114368909544686675e-01 5.225916572929059090e-01
-8.095203006188382566e-02 -1.054187377278319876e-01 4.790003296092931184e-01
-5.288946830747782296e-02 -2.951957419196434007e-02 4.440677477562752773e-01
-2.566978623347887511e-02 -7.765007845553323351e-02 4.447461834965213967e-01
-4.139094754632580142e-02 -6.630429648015521982e-02 4.395069875499857948e-01
-1.858758903253117031e-02 -1.084142924963183985e-01 4.719822609963568727e-01
-1.082408346830415063e-02 -9.637194085176827019e-02 4.565308382818001887e-01
-7.585384563175449554e-04 -9.020503199282373097e-02 4.525192980449104785e-01
-4.163489632096097764e-02 -8.351271682160910093e-02 4.457217944071815707e-01
-4.370790440166436031e-02 -3.616687735575763868e-02 4.375923342876656408e-01
-3.401577579088380099e-02 -1.174309148722768453e-01 5.270883203843276243e-01
-8.330737987190911520e-02 -8.032927476021711755e-02 4.531296921510734599e-01
-3.632555029305532812e-02 -3.457094243276889745e-02 4.379812023022266465e-01
-4.327304265545159345e-02 -1.133990425701439514e-01 4.966093213733289158e-01
-7.774649645383749363e-02 -8.749868488493461882e-02 4.426891032249263835e-01
-6.124170635022028325e-02 -1.122681978915145706e-01 5.127066961192875416e-01
-1.080568778580319883e-01 -9.805875857900704651e-02 4.993282474134477233e-01
-2.586777446060819705e-02 -9.350773007252823066e-02 4.560446308939261617e-01
-8.030358488026105579e-02 -8.010583642360342982e-02 4.489336864674488559e-01
-1.781556041036801499e-02 -1.221441609509856807e-01 5.203342744944265963e-01
-3.553587607825353656e-02 -7.636344346345952383e-02 4.428803799389586793e-01
-2.958513941757924884e-02 -8.061182334026223417e-02 4.455994024377223361e-01
-9.565652446859090885e-02 -1.051634896873849950e-01 5.036060235271431207e-01
-5.276964044643735197e-02 -2.299627968780361062e-02 4.450426243048533625e-01
-7.122936657174593067e-02 -1.100915485565331225e-01 5.065733927400623005e-01
-7.182877872704206135e-02 -9.219786499415653924e-02 4.392667306096639801e-01
-6.786835485637340848e-02 -1.094499124286277686e-01 5.258738097310717841e-01
-8.745298791322264620e-02 -1.057651416721568094e-01 4.860306193247753148e-01
-4.243296310841195018e-02 -1.064087571353144052e-01 4.766576230546135107e-01
-9.375582200697434032e-02 -1.013501100159258789e-01 4.738005750796821514e-01
-4.347849103441972507e-02 -9.842728455010048283e-02 4.609030338788795422e-01
-7.061223584180945090e-02 -8.302543055551660223e-02 4.335078972382256368e-01
-1.705477707642309368e-02 -8.572970766553492106e-02 4.485947526392499163e-01
-8.920782623193410088e-02 -1.049556372043440183e-01 4.827785716413349193e-01
-4.962944901291124061e-02 -1.035132639617297179e-01 4.677268471888332280e-01
-8.702675833316525500e-02 -9.239707187648288356e-02 4.550133347773790415e-01
-5.739760119131198657e-02 -1.020687310540224768e-01 4.647335696461711851e-01
-4.241804647772141890e-02 -1.151378334024586725e-01 5.308256285646862915e-01
-8.997844059305111497e-02 -9.497772129769883886e-02 4.602846346922944143e-01
-1.097890144842929815e-02 -1.192849468498809740e-01 4.915847224144584970e-01
-2.337912625109547435e-02 -4.653416077699644438e-02 4.403249985938648137e-01
-1.063134158340931640e-01 -9.683450103348956173e-02 4.830919085523197598e-01
-3.005219724014309562e-02 -6.291733222756748511e-02 4.405760491048306693e-01
-7.067667451752916719e-02 -8.382083572808018967e-02 4.334012428974947650e-01
-4.224009423057818735e-02 -8.757521733120036955e-02 4.486286862301356315e-01
-4.805229291055350405e-02 -1.094925620485352052e-01 4.863376675422870221e-01
-6.631634533786716357e-02 -1.033522798760652256e-01 4.688083533866894692e-01
-5.568343056055080620e-02 -1.075948268492614851e-01 4.809220775387239577e-01
-6.567294037211179880e-02 -1.102823940863427582e-01 4.999184521610020027e-01
-1.543090555706528276e-02 -1.109062097862289903e-01 4.742715076684705378e-01
-7.381988292183883082e-02 -8.997282603936243572e-02 4.391359878895151891e-01
-6.505529656694103435e-02 -1.090467858725952116e-01 4.910996363142118293e-01
-7.707248696778988550e-03 -1.247435582818982869e-01 5.279129243294852225e-01
-4.002137043654366289e-02 -5.093909776114918103e-02 4.385415409377795282e-01
-4.764922678367689707e-02 -1.005918278673827021e-01 4.630441945254731295e-01
-5.726926957533925305e-02 -1.069221324411441520e-01 4.784343957393611402e-01
-1.024823848176420818e-03 -1.261577555374764625e-01 5.155162336093734865e-01
-1.021483256609830303e-01 -9.265475030615338836e-02 4.702812745884220047e-01
-9.525032582747629262e-02 -9.820649397543608494e-02 4.682248451291110003e-01
-6.364115239369382004e-02 -8.983720116354047824e-02 4.330096422741847584e-01
-4.169895704215206833e-02 -1.087285808087064681e-01 4.822392675092673220e-01
-8.070389279129118465e-02 -8.989030768635415669e-02 4.478201221975209312e-01
-2.703298211428358661e-02 -5.877892968054748701e-02 4.402208332783766886e-01
-8.457813274460442010e-02 -8.889479260710970998e-02 4.514086446014267673e-01
-4.578551489849577716e-02 -5.819261690219886679e-02 4.377053817427382088e-01
-5.737282619032045561e-02 -1.084645818948000995e-01 4.848158541799428289e-01
-6.335720216402995764e-02 -1.106309110017090341e-01 4.998187027804565363e-01
-7.981354408743517037e-02 -1.074452822413305003e-01 4.909668646628949640e-01
-2.308525648894166685e-02 -1.188509653869813942e-01 5.399637881001244644e-01
-1.524152811968910309e-02 -5.931813925064436527e-02 4.403221786364630019e-01
-6.748349363823480385e-02 -1.105489227319548518e-01 5.208729786655188487e-01
-4.598393441082454514e-02 -7.284947781077122375e-02 4.388869010998542319e-01
-1.330578657604444479e-02 -1.218024449493965433e-01 5.030147542779458414e-01
-1.853333658720277000e-02 -1.212122375501991228e-01 5.336931143107709330e-01
-4.529215674969652022e-02 -1.145719453932593640e-01 5.299826698875054198e-01
-2.056576354739390877e-02 -9.617387625383247429e-02 4.575626125084369389e-01
-1.857879516815782658e-02 -4.835508216538716986e-02 4.398465268506308035e-01
-2.110831105398331894e-02 -8.228600660325303962e-02 4.469257857629034270e-01
-4.650192797455409560e-02 -3.767707823373339648e-02 4.381904973248349489e-01
-7.744259985863799489e-02 -7.977796802847643420e-02 4.445428588696704875e-01
-5.764816148381576161e-02 -9.724041208202767461e-02 4.518589651353816516e-01
-1.352416859889142044e-02 -9.495046881730472010e-02 4.551819157356430390e-01
-2.272947165946742967e-02 -1.205544754261424906e-01 5.156688405833965705e-01
-7.743216003005022607e-02 -9.786802426859567139e-02 4.571878941972431498e-01
-9.648972418608524337e-02 -1.049089563984333673e-01 4.975931392324752789e-01
-9.808034284296862637e-02 -1.032628201230006010e-01 5.082323672946663651e-01
-4.694625171056743262e-02 -8.634581499631646673e-02 4.456871430286050151e-01
-5.775663923093203589e-02 -1.118597889852271376e-01 5.017146674347661151e-01
-9.439664485211554656e-02 -1.039550053591024037e-01 4.832685266247739864e-01
-5.448752089976088842e-02 -1.028206172827001302e-01 4.663057844251008999e-01
-1.482460351634402873e-02 -1.220681589979511483e-01 5.353092250358757465e-01
-4.186673365597651936e-02 -1.089689241795317870e-01 4.829571761307587807e-01
9.689944248277673408e-03 -1.268108036081087575e-01 5.269414128073749426e-01
-7.830259356726634867e-02 -1.044436237951213847e-01 4.746030094466319182e-01
-5.068865129992523172e-02 -1.068989790468438811e-01 4.777960588777196427e-01
-1.443253057538429474e-02 -1.022571801951316223e-01 4.619920105740129568e-01
-4.475955630029698762e-02 -1.132492457181516060e-01 4.966348644137271173e-01
-3.838221473720779264e-02 -1.022939174360200931e-01 4.677789102965758117e-01
-4.940388117002908475e-02 -9.454358189229254694e-02 4.521458207722895972e-01
-7.321959033968515607e-02 -9.487308581269507379e-02 4.468620813428573202e-01
-9.314338388352852438e-02 -1.058762741380281508e-01 5.011203740113076011e-01
-5.325194623090542811e-02 -1.069360217562291271e-01 4.778655125460492537e-01
-9.848091945638481892e-02 -8.604604393573792032e-02 4.707172981630434738e-01
-3.352731878930233916e-02 -3.652390900518771855e-02 4.389093351260809905e-01
-5.807540727082335930e-02 -9.581378391764107383e-02 4.466052995274188420e-01
-1.560631387240580398e-02 -9.021207026625172043e-02 4.512517621920654753e-01
-9.522876557224942140e-02 -1.034074637999610607e-01 5.122914357934572616e-01
-6.337283482906558296e-02 -9.338482230688659180e-02 4.384529225829178478e-01
-4.561483693987516269e-02 -1.148216122537851075e-01 5.101148432428396218e-01
4.514417858103910580e-03 -1.207068286403514407e-01 4.935415861970307572e-01
-1.981539178843875343e-02 -9.436781468489974234e-02 4.555066658294252280e-01
-2.236216938305708377e-02 -1.043986623716114531e-01 4.671447364943737690e-01
-5.389397630215844032e-02 -6.541942864919003675e-02 4.345041936256588411e-01
-5.622262777858197391e-03 -1.240323788942837013e-01 5.061461073176328762e-01
-5.270326782402046800e-02 -1.116794733419206598e-01 4.959003209028752246e-01
-4.584643537787614492e-02 -1.151504965217231558e-01 5.210417680670624829e-01
-3.701641977183682541e-02 -4.728789225307126337e-02 4.387440797306637608e-01
-9.819978098770534847e-02 -8.363080547326309788e-02 4.740988320698814040e-01
-5.339379702025157104e-02 -1.108736689392085528e-01 4.923227937283144451e-01
-2.215998453827076886e-02 -8.745544982164819847e-02 4.496632636175020847e-01
-6.415686791300272140e-02 -1.116297878649569891e-01 5.184424352328127483e-01
-1.293232686559956345e-02 -1.160635272720646760e-01 4.830704212422914923e-01
-2.996091130949261883e-02 -1.045490499004932961e-01 4.708216153960065875e-01
-2.464507583511226299e-02 -1.053399501527011034e-01 4.698173479352208970e-01
-4.020262448821446816e-02 -1.143885464112368022e-01 4.990442202560813612e-01
-2.112799922446202336e-02 -8.878847338495381158e-02 4.505496049818641380e-01
-4.238334127029678294e-02 -8.921909165615776738e-02 4.500571843670305716e-01
-1.028744835336222740e-01 -1.029224891719148494e-01 4.995534808599060295e-01
4.549566576218363936e-04 -1.265495068044722171e-01 5.249326965469471862e-01
-2.553539789740289292e-02 -7.685832519816235275e-02 4.444423813488782016e-01
-1.079581388883506798e-01 -9.296185134335112343e-02 4.829884341407165715e-01
-6.007640544291806273e-02 -9.547703992194755962e-02 4.440157228093096209e-01
-4.725164659788973209e-02 -1.069463655686582193e-01 4.782047359961720256e-01
-5.530616782855572733e-02 -9.891134264493295358e-02 4.576040820599689418e-01
-1.414623813741626435e-02 -8.465538899132922512e-02 4.482353379873348920e-01
-4.670925219822962687e-02 -6.591499442530890374e-02 4.377662235955366299e-01
-1.562320239873278734e-02 -1.061641705416250386e-01 4.668650234064919413e-01
-5.355793215865749940e-02 -4.030799588957207497e-02 4.435876513756025763e-01
-2.733429630762815310e-02 -1.173898364262491029e-01 5.000376071694496716e-01
-9.850103735434008467e-02 -8.359528129230550664e-02 4.747607196246082517e-01
-4.706958685948776921e-02 -1.149507299050152448e-01 5.171801368062259874e-01
-3.788048125797088134e-02 -1.037318605097541230e-01 4.703526553109003139e-01
-1.089354816302747775e-01 -9.429944402179175900e-02 4.852148373304141504e-01
-3.050019385391235238e-02 -5.106247281107378910e-02 4.399410600359918155e-01
-1.890859702870150566e-02 -1.172547637771544915e-01 4.908436899391681596e-01
-4.665437754454433705e-02 -7.626231142726765111e-02 4.393561641406031337e-01
-7.638795607910262020e-02 -9.905169297934283967e-02 4.593547913615605438e-01
-2.717757237788120950e-02 -4.501668990613125199e-02 4.403220586802280012e-01
-7.622004085415289010e-02 -8.417404321075326601e-02 4.394832774610776815e-01
-3.537831994248030743e-02 -1.109078698637211147e-01 4.849539311089718918e-01
-3.295963113137863332e-02 -1.157117507031171361e-01 5.421477518847802601e-01
-3.532282464127893540e-02 -1.160624296257562887e-01 5.379741948120123629e-01
-3.553917298243623735e-02 -1.076965254961117779e-01 4.775289767740665270e-01
-8.986901421897477982e-02 -1.056712834096662085e-01 4.889816546721358903e-01
-3.702663219612918610e-02 -8.357431220675248795e-02 4.466608719226726754e-01
-9.600243966564972475e-02 -8.887655565894736487e-02 4.641568957244981419e-01
-2.929409206007196204e-02 -1.186389690904650074e-01 5.253973484214766732e-01
-4.159810541284472869e-03 -1.215651831954478873e-01 4.956813549717278833e-01
-4.658525383267388825e-02 -1.076417719540316148e-01 4.803450903232720504e-01
-4.876974864627387635e-02 -8.694021665412228483e-02 4.448979615331836723e-01
-9.773654206721443805e-02 -1.032338742370839113e-01 5.089465389209941737e-01
-7.565857530841740841e-02 -8.075498286587851071e-02 4.409914779931310980e-01
-7.306643416974209493e-02 -9.967480840431543199e-02 4.596229907350827815e-01
-4.435066966167410668e-02 -6.008393757106500477e-02 4.381964494009609745e-01
-5.061919097853101457e-02 -6.329939112820458236e-02 4.358941373895396931e-01
-8.702253248333501057e-02 -1.040876235627432450e-01 4.766589158810085047e-01
-1.782973204692418073e-02 -1.222423676816550148e-01 5.142089496924033831e-01
-7.589791099424771093e-02 -9.068844216246288448e-02 4.424741683696590266e-01
-3.209525509413420352e-02 -1.157157451426974182e-01 4.976335229608041533e-01
-7.178338276095391768e-02 -1.078647549983355464e-01 4.886835991563871495e-01
-5.771380951991749580e-02 -1.129103012667401623e-01 5.188837903638917615e-01
-4.785960832276336951e-02 -7.993079716162543313e-02 4.395424304562954299e-01
-4.931461754317650881e-02 -1.134675974841255486e-01 5.037109195156228569e-01
-6.827488961615843510e-02 -1.067522461104659232e-01 4.809177374269599237e-01
-2.322081424408871039e-02 -1.054901619223762577e-01 4.694213207086671558e-01
-9.168741342363528890e-02 -9.690746831693196339e-02 4.634718659618928815e-01
-9.334066871941797128e-02 -1.040056386354435147e-01 4.820561088946494488e-01
-1.724080756745326182e-02 -1.170825357429892133e-01 4.885029552983336520e-01
-8.236638437438602300e-02 -9.174216515835960373e-02 4.503641259227760263e-01
-4.866584213670709091e-02 -1.141594692993650739e-01 5.093233695934710203e-01
-1.792969810970958255e-02 -1.158476469677354598e-01 4.863254592118499420e-01
-4.976923319287809150e-03 -1.235355510372640603e-01 5.031991558323888336e-01
-2.524946301467757490e-02 -1.184567014232112137e-01 5.391121088019901197e-01
-9.908856620035397245e-02 -1.035876071395286924e-01 4.898916999333577937e-01
-3.334148687980860448e-02 -7.023216699309205169e-02 4.411995844790478905e-01
-8.949061595216217802e-02 -1.059047838111355361e-01 5.085291466396213433e-01
-4.001787690515114237e-02 -1.149947377653598585e-01 5.018044185477423813e-01
7.552563361401386666e-04 -1.035543322843060360e-01 4.635331253581718713e-01
-1.447249183393103933e-02 -7.355799840312036986e-02 4.438827836764899781e-01
-5.026890037860790722e-02 -4.435776961733368245e-02 4.386184681703373389e-01
-3.295761969481534031e-03 -1.257785582010070569e-01 5.276764103940152495e-01
-2.377463627830264659e-02 -1.189100756484985089e-01 5.386684438902907823e-01
-4.298021742741778284e-02 -3.333637499854537334e-02 4.375491200415587700e-01
-9.650411878723751113e-03 -1.233085489129982226e-01 5.061045752228414685e-01
-5.783035847547079999e-02 -1.072748411758161907e-01 4.801806371093580994e-01
-7.441135966711651117e-02 -1.095028673333554581e-01 5.117291369957998048e-01
-3.610328991515660696e-02 -4.936128216596988999e-02 4.390044002203910001e-01
-3.675710233651954123e-02 -1.151714434654512453e-01 5.409999943849090887e-01
-2.286664711406245082e-02 -1.069429907454670370e-01 4.717739344650861422e-01
-1.362320917657221589e-02 -1.231157825265058736e-01 5.279696878107875690e-01
-3.044862719330524575e-02 -6.723549084863435221e-02 4.410817421014290862e-01
-6.246547387831221515e-02 -1.071917029429540758e-01 4.806279734220700317e-01
-7.629767031491931084e-02 -9.410584332135558949e-02 4.474706358143490381e-01
-8.977980519139901194e-02 -8.758668114207568411e-02 4.575675316198923315e-01
-9.532922410304130179e-02 -9.111136476495892977e-02 4.629954385847530052e-01
-5.026495240712296891e-02 -8.877397384799576296e-02 4.453066549049178868e-01
-5.567610322166407881e-03 -1.253489802907643835e-01 5.262907072994617019e-01
-9.843847082119590308e-02 -1.027028477804816375e-01 4.834656006392843430e-01
-7.269807566317280922e-02 -1.085580068934255543e-01 4.941648556761694677e-01
-7.184581641035661659e-02 -8.816664987968710065e-02 4.359430763707280443e-01
-9.327334727562337779e-02 -8.344331686244300939e-02 4.656021493038896009e-01
-3.788530621600011417e-02 -1.167195926284520513e-01 5.138327481562756649e-01
-8.306538686990551715e-03 -7.620578710768352582e-02 4.454414527095245102e-01
-7.016993057802939360e-02 -1.083916936649313018e-01 4.911256199018447788e-01
-3.331208295755022641e-02 -1.035318181257682962e-01 4.701090710670169925e-01
-5.779110924418480628e-03 -1.072873344381754385e-01 4.671993085037007276e-01
-5.310988974410363328e-02 -3.246461950898704707e-02 4.461439278792163066e-01
-5.727454574077212729e-02 -1.110912370157274009e-01 4.961988012771886836e-01
-2.186646766117450805e-02 -5.759180479762667643e-02 4.401490041844428047e-01
-1.001014115815204719e-02 -7.983376406209291565e-02 4.466951576025523507e-01
-6.579872869686091696e-02 -8.709411669175230741e-02 4.304038835738488444e-01
-1.681488750663105713e-02 -1.158106645998775303e-01 4.853159141434090218e-01
-8.050700493410075861e-03 -1.221164189494955837e-01 4.988569966286644508e-01
-8.996446838838012550e-02 -8.123765736964769224e-02 4.633770746303347288e-01
-2.708297367854852616e-02 -1.141105857391031125e-01 4.901243801605817407e-01
-5.848208168543602564e-02 -9.956990188136331799e-02 4.581479434245145366e-01
-2.288412409643382842e-02 -1.205000266672328901e-01 5.136284228645783267e-01
-7.838152866370011462e-02 -1.067985121069924132e-01 4.850023902117762686e-01
-5.526379586650485842e-02 -1.132910681831312688e-01 5.200045761543332645e-01
-8.073252318761388324e-02 -8.328131062676252805e-02 4.472105245377810956e-01
-2.533048514568790252e-02 -9.333905160988259508e-02 4.557363410866367426e-01
-5.647548175586013935e-02 -1.131962518952191188e-01 5.160472256284861503e-01
-4.901218786662835808e-02 -9.900785004091089414e-02 4.599693273092165247e-01
-8.001192852045990733e-02 -1.059986344760557586e-01 5.231234592526954330e-01
-7.562397226947285833e-02 -1.063237613345994342e-01 4.816273589500992269e-01
-1.917546023759765170e-02 -4.599683722696093491e-02 4.398784775917972123e-01
-7.744426999635145581e-02 -7.975782722700772154e-02 4.445641301726482308e-01
-5.046780499699060618e-02 -6.749200209930895922e-02 4.359979609757810293e-01
5.358587477543848374e-04 -1.139940579845752644e-01 4.769808912818070401e-01
-7.478778995589956125e-02 -1.078920171869351130e-01 4.912201422179975352e-01
-7.234037467310341918e-02 -9.181523062609424357e-02 4.393601430867851709e-01
-2.286586984375691203e-02 -7.939190715641135376e-02 4.454547892962819056e-01
-2.005580154232605716e-02 -8.155561287419885175e-02 4.465830095943418288e-01
-3.475763674623168209e-02 -5.728668303408929879e-02 4.396310973956294443e-01
5.132332685318535294e-03 -1.234417365034496533e-01 5.017227059391726751e-01
-2.458749803030859174e-02 -1.066878392389848107e-01 4.722070417154972666e-01
-7.684738628765407087e-02 -1.090048474776502824e-01 5.077108379375182556e-01
-4.311637704904205948e-02 -1.074334950336715000e-01 4.794872675258886607e-01
-3.135027146405184456e-02 -1.107171731362613792e-01 4.824524243948976610e-01
-5.632752541665529689e-02 -1.121326412784601906e-01 5.022211267150311631e-01
-3.761863610484816184e-02 -1.152823109612994279e-01 5.007763516940959558e-01
-6.148882158248229236e-03 -1.215524831884260831e-01 4.960744113775595321e-01
9.199229488845899264e-03 -1.265744423609456715e-01 5.230872720128936226e-01
-8.183391916893616169e-02 -8.554022097703639638e-02 4.480590664444001892e-01
-4.370243671226267668e-02 -1.150469760541332487e-01 5.289300617755583467e-01
-3.420726374335954223e-02 -1.174989449074729797e-01 5.256387557674621069e-01
-9.128383568707512663e-02 -1.059478530444153827e-01 4.938548208559460639e-01
-5.759360353954233458e-02 -7.083512223138083153e-02 4.328235100893587650e-01
-7.911122887339638865e-02 -1.078432807047918357e-01 4.942670357778560231e-01
-7.970594176023507171e-02 -1.067381965952788336e-01 4.853135615320011143e-01
-4.017272089401085350e-02 -9.734068219801038369e-02 4.603406291923793914e-01
-5.853635455258164588e-02 -1.114994880285661433e-01 4.996667413581690753e-01
-7.036637888147262432e-02 -8.951906501269216165e-02 4.349161961400270782e-01
-9.767583597303873544e-02 -1.010866343473468404e-01 4.765381580676853468e-01
-6.037749380756749634e-02 -1.113630279163652370e-01 5.011643774935443663e-01
-7.284133905986927768e-03 -1.233799114527739521e-01 5.041676481389273379e-01
-5.283700042523163665e-02 -3.209397180985244791e-02 4.418060058953623970e-01
-7.731632495535169236e-02 -9.492023846586099267e-02 4.504990098823745681e-01
-5.724748431054781789e-02 -1.098690507084171403e-01 4.897557648244323936e-01
-7.991681149030295528e-03 -1.209540273835224555e-01 4.949307404128893140e-01
-8.225813824579454592e-02 -9.988784279303240810e-02 4.632068679300559988e-01
-5.436455141939530722e-02 -7.739497421224746099e-02 4.341019553985983048e-01
-6.331821396876337327e-02 -1.117573455127980758e-01 5.202050321909966746e-01
-4.444223655002291218e-02 -1.060796055628916712e-01 4.756814083216310829e-01
-7.979641431836587140e-02 -1.042807323042301976e-01 4.742029960870834393e-01
-4.128942310645306035e-02 -1.063357219279978116e-01 4.763582701018322929e-01
-3.594751173199958738e-02 -6.874350931830180977e-02 4.406866277324668069e-01
-4.548039919245346063e-02 -4.010343844201429836e-02 4.380134245459573750e-01
-5.824646025574038016e-02 -1.118642291406178602e-01 5.025574479436004660e-01
-4.481371766102090759e-02 -5.286191563960648127e-02 4.383884041893359451e-01
-3.470673379394294961e-02 -8.447244419965295459e-02 4.474089607134518198e-01
-4.741767165719092125e-03 -9.446016681169730478e-02 4.553588179214357323e-01
-6.784499898805458618e-02 -1.074945592474015471e-01 4.847069686024270685e-01
-3.438752841088653367e-02 -1.138518650628632806e-01 4.930272617827987092e-01
-7.176626657739955395e-02 -1.056798574659264800e-01 4.780978484957758012e-01
-3.379312163215403286e-02 -8.249663142624244494e-02 4.461205067129894175e-01
-3.354439717266814031e-02 -1.114747572665312353e-01 4.855067232451249493e-01
6.168250079071299977e-03 -1.262777891021076293e-01 5.336913143573518425e-01
-5.572740755917816174e-02 -1.071830927324108340e-01 4.792817347486602597e-01
-7.698455912365853582e-02 -1.016262205318458345e-01 4.655412920101603125e-01
-5.384972770719217983e-02 -6.888708075752165982e-02 4.341684827998743557e-01
-7.425906951028274361e-02 -1.075510809211193547e-01 4.881123826189688319e-01
-7.367515052411682808e-02 -9.216241960626417318e-02 4.417196655916826309e-01
-1.561371414020441308e-02 -8.667907784576199537e-02 4.492349815217854814e-01
-4.117890430516234213e-02 -1.149749899639259110e-01 5.028815829540067561e-01
-1.890052077417308379e-02 -8.245623899431719916e-02 4.470681960645992437e-01
-3.450266315605225731e-02 -5.337172277799361736e-02 4.392100173115792705e-01
-4.198824795801948950e-02 -1.156801306378820032e-01 5.266614243448761723e-01
-3.250201333412201798e-02 -1.155509036575832760e-01 4.972684798719593791e-01
-1.551722779788316728e-02 -1.009553146698284193e-01 4.607711536956365372e-01
-4.951579927633977668e-02 -7.727269758239065089e-02 4.375308917099310357e-01
-5.875798376541033902e-02 -1.121017854479124248e-01 5.058275390702140495e-01
-1.183360993349115951e-02 -9.097875040339774289e-02 4.520974599524657522e-01
-4.439524721250848183e-02 -9.577990360085437971e-02 4.565654228936366077e-01
-9.114975119445822144e-03 -1.200124547482791654e-01 4.927773799056113235e-01
-4.166318954341152736e-02 -1.033747179970258695e-01 4.691528875794100384e-01
-9.290086938601772870e-02 -9.395440731930460032e-02 4.608604725913517663e-01
-3.340298398648808287e-02 -1.159889097554804571e-01 5.409552974376911072e-01
-8.116614828721042951e-02 -8.489355266731324345e-02 4.470197762591768265e-01
-1.624164329683373473e-02 -8.986041362041082003e-02 4.509719659319629259e-01
-2.075694844148114754e-02 -1.211572868319604340e-01 5.220759083476014251e-01
-2.512788301448899697e-02 -1.198573254466130528e-01 5.139147391760288119e-01
-2.095644332284898621e-03 -1.255103864399950142e-01 5.102863726216685381e-01
-6.539751089627580949e-02 -1.114861484710834155e-01 5.144793565443626093e-01
-5.590640698541924497e-02 -1.128364746294654997e-01 5.237602721874550227e-01
7.045170318512410795e-03 -1.264371085647686965e-01 5.193177540690029348e-01
1.120749409568172830e-02 -1.263531560525532060e-01 5.341774793638092156e-01
-5.155760599966364294e-02 -6.163013877345124153e-02 4.357372702855690227e-01
-7.446785793179826196e-02 -9.843516297096663314e-02 4.570631401436178187e-01
-1.149173736119489010e-03 -9.783727015018069129e-02 4.583713153083471825e-01
1.047401098288563807e-03 -1.069470722537858576e-01 4.671954494543246184e-01
-1.209808122278923162e-02 -1.213042575111711735e-01 4.987706167372826793e-01
-7.642079836200242615e-02 -8.221270262734320378e-02 4.409815930208778045e-01
-2.681502762991275213e-02 -7.751042695639509539e-02 4.446666730360766540e-01
-1.251707547834624880e-02 -1.212182065403155651e-01 4.988962981076408010e-01
-5.012355224781469415e-02 -1.130396286254370247e-01 5.008096033593100183e-01
-6.966310749396303903e-02 -1.016583472202188393e-01 4.643299837368030092e-01
-7.681795008277109843e-03 -1.146255907529763196e-01 4.781818289914658293e-01
-5.216687561956866864e-02 -2.401438275883749709e-02 4.416257737647456549e-01
-9.738542869056235340e-02 -1.042003253156544990e-01 5.060052373558103778e-01
-3.668301195165506179e-02 -1.098845358330323291e-01 4.828999853259989816e-01
-6.881951641035796707e-02 -1.054695844023125495e-01 4.762863322518504083e-01
-6.546284173771815817e-02 -8.907232047191204760e-02 4.309613383356475369e-01
-7.409887340776856457e-02 -8.133719639189261608e-02 4.386804828853520521e-01
-1.072477394205105690e-02 -6.405053020518125528e-02 4.411873024139662536e-01
-9.649512635735944810e-02 -1.032637106958448486e-01 4.827160986693037059e-01
-6.184706114983346513e-03 -1.208201614449461725e-01 4.939661623448577954e-01
-4.099187375084170637e-02 -2.975989539268426159e-02 4.376575328111035335e-01
-1.007581373884730430e-01 -9.167658086637690829e-02 4.680379244206440692e-01
-2.875626182146675397e-02 -1.189188716978641369e-01 5.162981035659726103e-01
-6.587860144833057596e-02 -1.086665399950388217e-01 4.896529141014819841e-01
-7.205043048664025451e-02 -8.372794620758199080e-02 4.345282594866090031e-01
-1.846563210103479430e-02 -6.834395477868930591e-02 4.422135740311305407e-01
-3.407439110964875090e-02 -1.162826674052238746e-01 5.384659108827755114e-01
-4.075832582188875647e-02 -5.387637385452953565e-02 4.387333009477887291e-01
4.189187619580079548e-03 -1.265320797777961248e-01 5.285886725315223078e-01
-8.517290058598464553e-02 -1.025076979075771055e-01 4.711212932091510264e-01
-1.711734641979687985e-02 -1.217123870008434416e-01 5.329015533428109741e-01
-2.300958916584825570e-02 -5.051715824842778479e-02 4.400555912908961642e-01
-2.057104226277502862e-02 -9.295026158054230103e-02 4.542283889422277232e-01
-8.252920473882986718e-02 -8.978996210836213965e-02 4.501547372678151859e-01
-3.336791390175493366e-02 -1.178593451693585176e-01 5.194435722876178385e-01
-3.269612667395082467e-02 -5.977719305351403278e-02 4.400006718579922982e-01
-2.229642858114971437e-03 -1.248650582391421793e-01 5.070239416422530621e-01
-6.653534025136566277e-02 -1.071857448453907291e-01 4.823117763299966110e-01
-2.064650676242178046e-02 -6.329881571880972835e-02 4.410514691513335306e-01
-2.351504993675302899e-02 -1.201002323981808784e-01 5.113664950420088173e-01
-7.768861673922024258e-02 -1.000768652530481806e-01 4.619851317690095160e-01
-9.496859506618980651e-02 -8.293137872405172140e-02 4.693821281181303484e-01
-7.375313172906253212e-02 -1.069665369284340251e-01 4.839980933322372558e-01
-8.496934215728650652e-02 -9.716003124684723102e-02 4.594085492399358484e-01
-3.298463765602939468e-02 -5.521285696888202088e-02 4.395153089071179298e-01
-3.362093180362884376e-02 -1.173084386148396246e-01 5.311000727482955153e-01
-4.291043757637428430e-02 -4.851079441924738278e-02 4.381926064321122194e-01
-3.085660727758523202e-03 -1.252600955232802959e-01 5.097793675781863154e-01
-5.765259940165741448e-02 -1.128518507082950650e-01 5.213854907416672901e-01
-7.345281897114760983e-02 -8.342836101977640917e-02 4.365356082818376282e-01
-5.173896436922487130e-02 -1.102409391611338246e-01 4.891506828628333081e-01
-4.007419759489967009e-02 -1.153956227129278034e-01 5.342118360809386957e-01
-5.610752378623856326e-03 -7.805960617317285466e-02 4.463966364208016291e-01
-6.669997314109009368e-02 -1.064823077137034973e-01 4.785679775913573297e-01
-1.495079400007443687e-02 -8.213606451877526748e-02 4.472366019262563608e-01
-2.068609045192131360e-02 -1.212965953059334939e-01 5.158877856300795317e-01
-7.977087322693314497e-02 -8.585517916845680775e-02 4.452369421657640935e-01
-2.757807420225433931e-02 -1.182553883244688991e-01 5.044704701582400919e-01
-5.510541839862059116e-02 -1.128235231354310503e-01 5.075538377823169967e-01
-2.060468194529114019e-02 -1.207296968357321060e-01 5.086049750619895393e-01
-2.922100100472507442e-02 -4.258162843885655857e-02 4.401148555763035874e-01
-1.779361872895466115e-02 -7.140413819865007450e-02 4.429514076392688793e-01
-6.138216774035915035e-02 -1.107129948238140676e-01 4.978774692390612877e-01
-3.429422839052158334e-02 -4.087369819452863623e-02 4.391529831187030442e-01
-2.905386258182286047e-02 -1.179397364930744319e-01 5.358568076168904737e-01
-7.945152667486252152e-02 -8.679758084339414537e-02 4.449502900598182320e-01
-2.653724939778348904e-02 -1.193701117433288161e-01 5.122897727191492168e-01
9.708223571455417908e-03 -1.262760605979975637e-01 5.205439837835064143e-01
-3.056638780981409467e-02 -1.060143900641342535e-01 4.733212798121431697e-01
-6.291240126209345085e-02 -1.114725929411826133e-01 5.062020690182720273e-01
-1.040733195857172083e-01 -9.455297060606032700e-02 4.748590080359662569e-01
-3.338228484722122885e-02 -1.106208244071955477e-01 4.831308169738061098e-01
-3.105951424520378076e-03 -9.310361487792175039e-02 4.542844563720492279e-01
-6.993110531144956787e-02 -1.041077843547279780e-01 4.717815941511750988e-01
-4.506291803138073176e-02 -4.055449461899057750e-02 4.379534091277226260e-01
-8.277647135464782924e-02 -1.075753764104488003e-01 4.976110306143550210e-01
-6.075753574796160378e-02 -1.105822894733826944e-01 4.963453503413708390e-01
-9.839549363531528703e-02 -1.009451324171562192e-01 4.769980298006266661e-01
-8.173625299341885642e-02 -9.481293539058104070e-02 4.535388042728887847e-01
-4.692124384864756331e-02 -9.880025330400968309e-02 4.603471494139405595e-01
-8.404620288525073424e-02 -1.068864235139069391e-01 5.120564799819733448e-01
-2.089190690001191397e-02 -1.211983819858135358e-01 5.173623551480548421e-01
-1.073276181519866312e-01 -9.821822796625762075e-02 4.900915089179471162e-01
-6.810077263691229760e-03 -9.441016205693376906e-02 4.552019805446506084e-01
-8.800837873224434671e-02 -9.920736062832043178e-02 4.650101069826799716e-01
-8.069861223469446121e-02 -1.077432980759301939e-01 4.957749693016424986e-01
-8.533584023405112184e-02 -1.014633742487785900e-01 4.687356276541813638e-01
-4.637030210375148176e-02 -1.057493440244591937e-01 4.747282158016782883e-01
-6.892581134496868212e-02 -1.095925886199189403e-01 4.976704697562175927e-01
-2.603599160820694453e-02 -1.196592884752591956e-01 5.163300972510309617e-01
-9.963857580095333843e-02 -8.929016710328493978e-02 4.689196506413230159e-01
-2.392637818740197403e-02 -5.552687139673274236e-02 4.398211400270025107e-01
-7.669274824937624691e-02 -1.071065504306160099e-01 4.865508136108564474e-01
1.282229461048640419e-05 -1.264353675106997532e-01 5.268919804661984507e-01
-9.142953589458078373e-03 -1.236494759149507489e-01 5.321671007962437416e-01
-4.610415995608387052e-02 -1.087934376547666226e-01 4.838416482253820039e-01
-5.267868668357564288e-02 -5.387571311133005497e-02 4.372277733932717902e-01
-7.868813284670239661e-02 -1.073526297928922429e-01 4.895861746068224662e-01
-2.998242953348514289e-02 -9.308522056746373896e-02 4.560327940337529085e-01
-6.319026339153405170e-02 -1.075195147585759764e-01 4.824084317097486752e-01
-3.320624675647323304e-02 -5.790750725806109722e-02 4.398021167344235427e-01
-3.304045980271258509e-02 -3.926907192706053512e-02 4.393293927518560626e-01
-5.089342005978241684e-02 -1.068723197920944529e-01 4.777010551627422497e-01
-8.195400975585180603e-02 -1.070552773138966907e-01 5.148976145173316254e-01
-1.884786806750861354e-02 -1.198892967901037943e-01 5.409616212101445720e-01
-3.087152267145240256e-02 -7.326537038396929713e-02 4.424496858479762817e-01
-6.040494815721567101e-03 -1.086330477969974645e-01 4.686372552552974802e-01
-5.769001023881620283e-02 -1.128084323074204087e-01 5.217274910834899249e-01
-1.053720216565734967e-02 -9.311283277762445743e-02 4.538063863994643010e-01
-2.251854149988049072e-02 -1.199712747950629904e-01 5.072303914906559630e-01
2.562175103256239799e-03 -1.245911900738893158e-01 5.059181584033081158e-01
-5.672247196885576992e-02 -7.388547713032891928e-02 4.325538894296256931e-01
-7.648137208479312277e-02 -1.087382412463608616e-01 4.989868895780850688e-01
-7.925643235882282034e-02 -1.083369164537116569e-01 5.104819012270611633e-01
-2.579790565150986981e-02 -5.183993811978866717e-02 4.400073342479347560e-01
-3.449381894407489713e-02 -6.107071600632434094e-02 4.400154974160550569e-01
-5.667616524000503725e-02 -7.790581244324226717e-02 4.324490985034963875e-01
-3.770145383517276710e-02 -1.167360060571289299e-01 5.132154600016658463e-01
-6.006178975920717540e-03 -1.250233226051881419e-01 5.296070305335635053e-01
-3.218481950313130391e-02 -9.010354433588865786e-02 4.527236758077936574e-01
-4.169903552887910952e-02 -1.023103474521361994e-01 4.671894910121250910e-01
-2.434852155810417196e-02 -4.372427468221136426e-02 4.404167544605734341e-01
-2.805531369294070321e-02 -1.095016642764821552e-01 4.788517231401421270e-01
-6.263537654370041063e-02 -6.895074978910985253e-02 4.372934427525383416e-01
