-6.868039041454658544e-03 -1.181100924505020383e-01 4.859733053055935170e-01
-7.845463776874274375e-02 -1.027232427395740472e-01 4.690669120662757652e-01
-8.557082587423503472e-02 -9.055965020339877547e-02 4.523732716354901817e-01
-5.809522464627761562e-02 -1.129010631629495665e-01 5.139167387222343120e-01
-8.494112672328278657e-02 -1.038892451202485662e-01 4.747292957871889207e-01
-9.025018260582287621e-02 -9.821320338969635744e-02 4.646007201461185843e-01
-1.891185058658170076e-02 -5.263778223594998973e-02 4.399300959368853126e-01
-1.328101710340013307e-02 -1.004564937802607805e-01 4.600276402989799673e-01
-7.456250737859257405e-02 -9.036521266818724196e-02 4.404036943153927797e-01
-5.609187855599851585e-02 -8.571646209885203094e-02 4.352045477281846764e-01
-4.414954999163570037e-02 -6.855321791129485864e-02 4.390236647107256807e-01
-8.861834003374594038e-02 -1.017712155483172787e-01 5.235987883207865456e-01
-4.029109462239571088e-02 -8.156669677372581362e-02 4.447564537797802919e-01
-4.299013843263958107e-02 -5.727298754271915870e-02 4.386398608848766645e-01
-2.157010519977846374e-02 -9.104602710354071926e-02 4.526310975063743691e-01
-2.330395236856458094e-02 -1.199521895118681319e-01 5.306027748939582400e-01
-4.217856568513558141e-02 -5.128924332720190271e-02 4.384107358308321767e-01
-1.071502087770622030e-01 -9.984048910996755344e-02 5.032886840081584046e-01
-7.960979252588426536e-02 -9.632930925985261350e-02 4.549970426218741260e-01
-5.104584934604432245e-02 -1.065200308794266443e-01 4.765756753388938893e-01
-5.014434981997086677e-02 -2.618270346551979447e-02 4.393135364384643249e-01
-3.109415273802509580e-02 -1.167918142624396194e-01 5.400311054425190882e-01
-6.974744690698676808e-02 -1.105100745930817085e-01 5.094117188508719973e-01
-8.287654923793942585e-03 -1.108509311936760056e-01 4.723056364201315138e-01
-3.633165276769200619e-02 -4.817234133206497321e-02 4.389502810368794417e-01
-1.502577700906627262e-02 -1.155602555924418601e-01 4.833116404604784755e-01
-2.178827531802704845e-02 -1.185454635610995872e-01 4.991765094399590041e-01
-2.712505915561639475e-02 -7.454653915932960007e-02 4.435265444311964900e-01
-4.171760075958701880e-02 -5.998717191844697705e-02 4.389583043450532851e-01
-1.514433779461711246e-02 -1.037467525901166893e-01 4.637242432658948421e-01
-6.305084244674072358e-02 -7.911497477760230657e-02 4.310196109863863034e-01
-6.125968508983679200e-02 -9.697844077269264507e-02 4.484826460610589760e-01
-5.253325417535843062e-02 -8.844589377935578589e-02 4.413364523510053261e-01
-1.774574686477378704e-02 -1.016423150539526171e-01 4.617983485830241541e-01
-5.265836869470379156e-02 -1.087089406423765447e-01 4.843479590471358454e-01
-4.722736280541672133e-02 -1.110601462876076584e-01 4.908882903456733837e-01
-3.482060835225498502e-02 -1.150003955840875197e-01 5.428833451962438161e-01
-3.808779991840402328e-03 -1.116095863321465986e-01 4.731364632155480310e-01
-6.522654583051984423e-02 -8.556621111410446512e-02 4.301637812317608001e-01
-1.930160426190915060e-02 -6.316585425550602650e-02 4.410656183899347993e-01
-5.872080364195302743e-02 -9.985483558672603177e-02 4.590006734788232290e-01
-2.956753520509727839e-02 -1.176791749878307730e-01 5.039036483488777973e-01
-1.017876986930371930e-01 -1.004402391707069631e-01 4.808774346882785933e-01
-9.149526021943998888e-02 -8.615088389046821060e-02 4.600600160244991965e-01
8.640672660677682984e-03 -1.258778406879239309e-01 5.160282923706679403e-01
-8.691083938034321887e-02 -8.828255803684897929e-02 4.533550185912773589e-01
-3.308147545558687286e-02 -9.342025753601576610e-02 4.558895926820185074e-01
2.196165036218941831e-03 -1.232872158622436293e-01 5.006153384025540110e-01
-6.278338240375380686e-02 -1.034298159507075349e-01 4.688525704317482168e-01
-7.442596814209022360e-02 -8.749591658483012180e-02 4.379269393331923776e-01
-9.083739543849604636e-03 -9.513589330066363203e-02 4.556345520061625409e-01
-1.694844757198182145e-02 -1.012114193705214160e-01 4.612372973895979555e-01
-6.530065386532245275e-03 -8.630472898935115378e-02 4.501115680532785102e-01
-1.961837639591624410e-02 -4.202087690597780534e-02 4.397877077404758750e-01
-1.988088204657425390e-02 -5.578428983044764200e-02 4.399678044020184919e-01
-9.963213685698561750e-02 -9.881238142319860585e-02 4.724143986263985018e-01
-2.674312730467110627e-02 -6.838579099148113516e-02 4.417587148101453920e-01
-5.503493385086038331e-02 -9.716141248634869998e-02 4.536818033016224994e-01
-3.090616739325696000e-02 -8.180254784851546945e-02 4.459958206002256342e-01
-4.519359564693146980e-02 -1.150210223846781649e-01 5.259472623573298034e-01
-6.393346381581448135e-02 -9.181827143854905116e-02 4.357780163061481526e-01
-4.237091594226278374e-02 -6.600640301495583340e-02 4.392520513173301944e-01
-7.665196752066821828e-02 -1.073048819405747617e-01 4.881892038555419311e-01
-5.030413778004279995e-02 -6.115736236880747051e-02 4.362040435559642604e-01
-2.896876924600370190e-02 -5.880277015528490719e-02 4.401685572738061047e-01
-6.655377921284276466e-02 -9.780753368205795384e-02 4.522135715837590775e-01
-9.650708692106925446e-02 -8.957474593227655879e-02 4.644699543114814699e-01
-2.335145979920725742e-02 -9.979397655198260497e-02 4.618575478084683827e-01
-3.196667164590711544e-03 -1.249335832684730224e-01 5.327969200975984920e-01
-5.483846595333370655e-02 -1.085506708515652646e-01 4.845826086119771614e-01
-7.912517346952613329e-02 -9.468662425070341337e-02 4.518587573830489257e-01
-7.010419582248021697e-02 -9.708027190153117880e-02 4.518545727560706604e-01
-9.912093338282826349e-02 -1.040789106887163307e-01 5.027487224001284671e-01
-1.651930238603518605e-02 -5.909398743336018861e-02 4.404676658460890404e-01
-3.142305439990039639e-02 -1.179446299636845302e-01 5.288563988590917475e-01
-7.010193281169363466e-02 -9.187267799094507581e-02 4.372408495739098511e-01
2.759901026410464461e-03 -1.240824740405018500e-01 5.036360234545613768e-01
-6.674547130043591292e-02 -1.074595451286873282e-01 4.840747107169275365e-01
-1.977432851212298018e-02 -1.184744640542765015e-01 5.453664506845971038e-01
-5.579098550509750676e-02 -1.132984303424266065e-01 5.142372249049531607e-01
-1.017316341099570864e-01 -8.572662335535469191e-02 4.770963116372406443e-01
-5.596157897944813858e-02 -7.753279243461880244e-02 4.329725858841620978e-01
-4.001701002361063991e-02 -7.214197568506024172e-02 4.407157453198974340e-01
-8.930171834590384938e-02 -1.028097225576068280e-01 5.202513992497207473e-01
-6.086886234856019040e-02 -1.122444934568631592e-01 5.207705802759009517e-01
-4.424967822821188751e-02 -7.292277989360670953e-02 4.393786139393095480e-01
-1.013514370278994908e-01 -1.033734454953412485e-01 5.010610396987774662e-01
-2.651588328339114439e-02 -9.305457215469174759e-02 4.556538300856433077e-01
-6.037306975662574265e-02 -9.968372720905922801e-02 4.578138636331419153e-01
-7.055105565655393762e-02 -9.469904924295227677e-02 4.438920976859159206e-01
-4.657972385752558869e-02 -5.603103363653348656e-02 4.375827742830044054e-01
-2.678887871705703388e-02 -8.933333088202365102e-02 4.520901159642056744e-01
-3.174461016096494226e-02 -1.014383374753609901e-01 4.668651971829772540e-01
-4.494856105670282098e-02 -1.153476663738113167e-01 5.161826127108641860e-01
3.301850920681481845e-03 -1.261174735497267718e-01 5.327053999087960623e-01
-6.926940107129637980e-02 -7.923027093039058943e-02 4.329169168259093814e-01
-5.955829306584620869e-02 -7.807416295717209409e-02 4.314824301474899926e-01
-3.030118073016301386e-02 -8.914897281433559195e-02 4.518869888585780870e-01
-5.371692492389247564e-02 -4.220488008084924414e-02 4.409922347512363894e-01
-2.297119301343621481e-02 -1.205169688715592574e-01 5.210342668733026761e-01
-1.713064001965119640e-02 -1.224224735097210470e-01 5.153264410968027009e-01
-2.636100458058588183e-02 -9.164761704104641693e-02 4.542612899105011315e-01
-2.334276355549972509e-02 -1.139748137481128160e-01 4.867191357110389194e-01
-4.541255425696169579e-02 -5.376814452990257009e-02 4.381184880058099362e-01
-7.366824970804413536e-03 -1.241607587365619048e-01 5.316531298450535292e-01
-1.045448168694545626e-01 -1.006798972162496475e-01 4.878500297527703644e-01
-1.394588595298889601e-02 -1.232713473831390100e-01 5.197664691825346628e-01
-9.515949170342810626e-02 -1.052846817422210118e-01 5.017953361587663696e-01
-1.638470806700559335e-02 -1.221261752510956755e-01 5.302444467478603096e-01
-5.236684437926054925e-03 -1.249883952359544387e-01 5.111563520813218187e-01
-7.368801191138457662e-02 -7.909198102950790177e-02 4.393807097042413123e-01
-4.398901237233538569e-02 -8.913457274483374548e-02 4.493881059066472949e-01
-3.424578106856877163e-02 -8.677180828946436109e-02 4.492124800738158119e-01
-8.391090512694969472e-02 -1.045253479103063904e-01 5.222854869356873264e-01
3.819302967406240732e-03 -1.265536171060055726e-01 5.178336239596144086e-01
-7.100630418215637951e-02 -1.100676249417224389e-01 5.055021958860892450e-01
-1.026594997792094344e-01 -8.701699226804725240e-02 4.767968407595047919e-01
-5.003459775117857777e-02 -1.057892159103232671e-01 4.744066749543172645e-01
-9.183188242699970305e-02 -1.058741908324256076e-01 4.947133503041505898e-01
-4.696922751260445422e-02 -1.149227194563810506e-01 5.197891885341481277e-01
-5.439482965471170717e-02 -1.031178030415405567e-01 4.670466451234716598e-01
-4.653230877125233422e-02 -9.979377362831649834e-02 4.621207276825379795e-01
-1.592484037277926492e-02 -1.019657870858225596e-01 4.618969278883967577e-01
-6.092056178777864595e-02 -1.089932704581221962e-01 4.881069242508825345e-01
-2.552883949928090243e-02 -1.173322548842081758e-01 4.986437407599246807e-01
-4.183745449994531046e-02 -3.992024491660185054e-02 4.377789820738951510e-01
-4.427138504276760533e-02 -1.077530670148569847e-01 4.806498093923104453e-01
-3.574271267759777937e-02 -7.958532010431236536e-02 4.444468283993442403e-01
-8.288679465185880280e-02 -1.073747911207038053e-01 4.951943769593337152e-01
-4.457338458145451709e-02 -1.052512363855106770e-01 4.733597734139041169e-01
-4.459808921784171737e-02 -7.928265422724090072e-02 4.413746468140272161e-01
-5.428089853429714923e-02 -1.014539358279896164e-01 4.634339204736435680e-01
-6.705778811351478796e-02 -1.073598008930433251e-01 4.836841240566975841e-01
-1.882738170667232896e-02 -1.034443495384608364e-01 4.641877233100417666e-01
-6.508746249816764473e-02 -1.062818794035867986e-01 4.772892302730911140e-01
-9.405189262511055859e-02 -1.055995692709564560e-01 4.990910367391926949e-01
-1.031735434209702928e-01 -1.026255419472140162e-01 5.030940066577478387e-01
-1.782451210045894741e-02 -1.186538062084400713e-01 4.947263416153644955e-01
-7.718034774949707189e-02 -1.089132682735369784e-01 5.073006653153884216e-01
-3.685401654316561304e-02 -3.048964676446181896e-02 4.380240743038483209e-01
-7.309637317289036096e-02 -1.025178489704802604e-01 4.673100595572613480e-01
-2.670214513000685602e-02 -1.189630911061108770e-01 5.084490239223701247e-01
-9.770029652138158272e-02 -1.028344127285404364e-01 4.829040123363706472e-01
-4.864748408841910315e-03 -1.211884470536967878e-01 4.947701100104752725e-01
-4.748408191124395272e-02 -1.148052775055950214e-01 5.204987992333948155e-01
-5.914709573077853166e-02 -1.061354907419652521e-01 4.756092457277560914e-01
-5.214211934489613315e-02 -4.509793048584233993e-02 4.392497034837836156e-01
-8.756078947375438293e-02 -8.212998037141053254e-02 4.577483321090231039e-01
-9.105766981671996330e-02 -1.063405337738408257e-01 4.987861469092147448e-01
-1.261091667321705481e-03 -1.071136110863716989e-01 4.671030288424333210e-01
-5.238457671221591339e-02 -1.068419708675798496e-01 4.776402998671845923e-01
-4.552885647836672767e-02 -1.148197583368252978e-01 5.271080400852017345e-01
-8.534384918985579715e-02 -8.198283407279201296e-02 4.549548486808218661e-01
-3.765892292322771395e-02 -7.775044404709913204e-02 4.432172540232320324e-01
2.038690902942681682e-03 -1.259009155632504207e-01 5.123708381064185913e-01
-4.357809906060360061e-02 -1.112630666531333051e-01 4.899867171084800188e-01
-4.487740762758789248e-02 -1.093761232129087518e-01 4.850961664776710647e-01
-7.142984256754167371e-02 -1.074766479446485484e-01 4.862218620738683050e-01
-5.812629902877121391e-02 -6.759645462299357366e-02 4.335682499227300757e-01
-5.673954690611142382e-02 -1.128298690124115017e-01 5.108553647973923528e-01
-4.986259599038775359e-02 -8.491560265044076350e-02 4.404899139181903123e-01
-3.771666585409404193e-02 -7.938328412779337151e-02 4.439836626778698170e-01
-4.226944198001801600e-02 -3.913920269186271783e-02 4.377076673379286520e-01
-5.644610556374828059e-02 -6.096164321272848352e-02 4.357628557002262149e-01
-1.054261457231723959e-01 -1.016323422010634164e-01 5.021434119155924192e-01
-5.400394272109262928e-02 -1.112596786984677566e-01 4.947204299770155411e-01
-1.001866293523025891e-01 -9.578349090902915641e-02 4.691255036041228066e-01
-5.420555639156585809e-02 -7.240989645806007735e-02 4.336865994855967910e-01
-7.005368986878487969e-02 -1.069825255692683635e-01 4.829217844184110486e-01
-7.586870175697951746e-02 -1.062922980016652863e-01 4.816975277478051098e-01
-4.631243737313645720e-02 -9.132025987585444537e-02 4.499685422611249819e-01
-5.621949882752935203e-03 -8.675324537215602094e-02 4.503757634766195062e-01
-3.911684746244585564e-02 -1.166072123463127302e-01 5.197962232925128490e-01
-8.667292114537457348e-02 -8.658024335089041512e-02 4.533077318894148111e-01
-8.753786507591986010e-02 -8.563069925648197911e-02 4.550752491709414982e-01
-2.692906285752329210e-02 -1.193055366450821581e-01 5.231908304086145822e-01
-9.227895042629194466e-02 -1.023354145645892083e-01 4.754185079682996529e-01
-9.330058332791120457e-02 -1.058115600396847544e-01 5.012424802596040507e-01
-6.124346458573367430e-02 -6.855535484812863567e-02 4.354014765814944732e-01
-5.814670892456809403e-02 -1.067105397740150119e-01 4.777266846822897928e-01
-8.374064016782823902e-03 -9.796727411811351205e-02 4.581304960201767473e-01
-8.315963998174702443e-02 -1.075519204577157911e-01 5.070431965533592766e-01
-6.721832096858380845e-02 -1.097300968862436749e-01 5.252919336473713674e-01
-8.110216701773538539e-02 -1.037906491502291612e-01 4.728419142972532518e-01
-7.521067405271249229e-02 -1.023373085662400844e-01 4.669409710492348764e-01
-7.389002804853270212e-02 -9.389512073168189421e-02 4.452435260720170040e-01
-6.083403235028263245e-02 -9.315717598771373897e-02 4.399906066283598149e-01
-7.486894799260543354e-02 -1.094153246996939083e-01 5.035187923453858794e-01
-5.286441621778432964e-02 -3.005969989664291839e-02 4.433832000862691913e-01
-1.078498068648359176e-01 -9.842103166769854139e-02 4.976207571916441696e-01
-2.228128568687550923e-02 -1.207011622886084434e-01 5.167185048723408336e-01
-6.205429093882576519e-02 -8.801741778133813365e-02 4.322233144648416903e-01
-1.538551947117761803e-02 -6.909486583961033102e-02 4.424613846385923588e-01
-1.932953414081822752e-02 -5.912463292167546153e-02 4.404112621141220707e-01
-4.600489309995435538e-02 -7.415578118576103550e-02 4.390243299674216892e-01
1.545985217425024753e-03 -1.253771589416193821e-01 5.092543739152285420e-01
-3.059245936096231452e-02 -4.986374437336354298e-02 4.399648367684362293e-01
-2.730418292735515076e-02 -9.167313466096588259e-02 4.544082626139707148e-01
-8.900169885491963917e-02 -1.027906395070761481e-01 4.742552655431604425e-01
-4.708118467406645358e-02 -7.107122598608239805e-02 4.382997635364387357e-01
-9.422600006163217579e-02 -8.759267531637623949e-02 4.626300069900822765e-01
-6.518639051023195075e-02 -7.863308195264213929e-02 4.310014013450516601e-01
-5.440874929376691288e-02 -8.899769170475652080e-02 4.398483954811972518e-01
-3.958935849844068267e-02 -1.161607197796361568e-01 5.271998423751276253e-01
-5.372701098111033746e-02 -4.198401566903148252e-02 4.424882643466216403e-01
-7.205075543085211198e-02 -1.096661022036799354e-01 5.185847139441773779e-01
-3.234680045410199406e-02 -9.886148510403607037e-02 4.630983562229304962e-01
-5.563503183762000953e-02 -1.129078055196550967e-01 5.235900737175063213e-01
-3.910521259674001882e-02 -5.240108112910873278e-02 4.387522148578136827e-01
-1.030732128911861223e-01 -9.884605751054416356e-02 4.774028621024958841e-01
-5.979745292606162242e-03 -1.101809925999846784e-01 4.709042804683340466e-01
-7.009145331834069903e-02 -8.857595584431959823e-02 4.340045339562200177e-01
-1.742187332473369571e-02 -8.031629444666751882e-02 4.462792233942919351e-01
-5.180249863079217781e-02 -3.761100455450153146e-02 4.402237863853576960e-01
-6.881668545544553095e-02 -1.079064087183534693e-01 4.876087435248829260e-01
-2.013205060108720287e-02 -1.177192673912812321e-01 5.478144981112224032e-01
-5.439893919413013590e-02 -4.399723896119545063e-02 4.419251148330824441e-01
-5.609305593520855920e-02 -6.224937978975548375e-02 4.349453725785351055e-01
-2.007822206431139275e-02 -1.093197908141394920e-01 4.745592110801719055e-01
-2.247572954118940911e-02 -1.146031406216158760e-01 4.877533290454516557e-01
-7.688383461935238694e-02 -1.049002285279117264e-01 4.762697979483148658e-01
-4.916024506056239363e-02 -7.113900251382258844e-02 4.371771278811265038e-01
-1.458325691740448675e-02 -7.264434430522981323e-02 4.435936360289826630e-01
-3.141999097401295543e-02 -1.157535865541374359e-01 4.973606203275012794e-01
-2.252614129363752007e-02 -1.093806282642406924e-01 4.760847234945853601e-01
-4.718571291505064408e-02 -8.209678830293959395e-02 4.412979556964052863e-01
-2.403312940606328052e-02 -1.190547697045110653e-01 5.374904824851555185e-01
-5.490415611248110339e-02 -1.100565878878131121e-01 4.897772705995405707e-01
-6.792073389851871479e-02 -1.079444682245705167e-01 4.873584319871520631e-01
-2.881100389173425411e-02 -1.188003263212384503e-01 5.134466110523783211e-01
-5.936885950171640752e-02 -1.021890588328855654e-01 4.653167706423604888e-01
-4.819087334897188130e-02 -1.072660912748335110e-01 4.791648628382397246e-01
-8.611289293266908423e-03 -8.629965725290460188e-02 4.497801566562668607e-01
-7.376558368017770151e-02 -9.212683307615904260e-02 4.418067667985238756e-01
-2.437316128160542383e-02 -1.042838445225684751e-01 4.678527918045687350e-01
-8.339680714601359346e-02 -8.281705667557540118e-02 4.517777801449632258e-01
-1.073630530792131221e-01 -9.915658854979392256e-02 4.979273689323491237e-01
-1.960509232133210433e-02 -1.188582778141699381e-01 4.977307064825982619e-01
-6.866183628189916066e-02 -9.082752900543675234e-02 4.357526288925551716e-01
-1.586069592444304399e-02 -1.227925932718240964e-01 5.144297367014062372e-01
-7.557660196566914901e-02 -1.030607502036681306e-01 4.694134777300372763e-01
-1.448634231321626643e-02 -1.151089665058737943e-01 4.819861402879821455e-01
-2.288500372542834338e-02 -1.135103708753974205e-01 4.850717133355329502e-01
-4.408992501422778765e-02 -1.027754670254552721e-01 4.673508721956534662e-01
1.127494783248693920e-02 -1.257912609101475288e-01 5.369559518057639425e-01
-2.724511729280163636e-02 -1.189413562550083181e-01 5.296752527890545847e-01
-5.493406899703438123e-02 -1.073311829868028866e-01 4.797449231928819224e-01
-2.731957658300634972e-02 -1.112760917464472865e-01 4.821425659264629293e-01
-4.648060074274974751e-02 -1.039873548573510414e-01 4.697410669076277356e-01
-6.893773483323850301e-03 -1.202693763270991645e-01 4.924358486897573717e-01
-7.862390679501110591e-02 -1.075635993815300118e-01 5.183627329278094331e-01
-9.430900689130412330e-04 -1.264588592745468087e-01 5.196200753625075386e-01
-2.557105847693673384e-02 -1.067108615193894938e-01 4.727649075314840910e-01
-4.421582943028556228e-02 -8.703205804226331332e-02 4.475582831058435573e-01
-1.930922170403687535e-02 -5.424531317129903385e-02 4.398837257303125359e-01
-3.357422416157989677e-03 -8.098386163288309736e-02 4.477200814476839930e-01
-1.092066203647457795e-02 -1.235768992008110245e-01 5.101980356140689565e-01
-3.471024817333773910e-02 -1.175946411050824564e-01 5.187124487143468521e-01
-1.137843908446986400e-02 -5.744682525256029904e-02 4.396418851013748075e-01
-7.659210477916915394e-02 -1.015799741938623185e-01 4.653603141714230396e-01
-6.727710028621136651e-02 -8.991620123365991202e-02 4.333524001139998361e-01
-5.359298188641711119e-02 -1.110911085868146742e-01 4.935056366236285075e-01
-9.897536427590344910e-02 -8.431713948258168223e-02 4.742295978355447472e-01
-6.936191760156353026e-02 -1.102994683164618128e-01 5.193599077226708216e-01
-8.933016600964142906e-02 -9.387459763675393143e-02 4.594461604839089053e-01
-5.542803329847380278e-02 -9.335445313334976569e-02 4.454561871518501470e-01
-6.083439416780171520e-03 -9.675846768915812024e-02 4.572898772578825599e-01
-5.003765320039252340e-02 -9.809681556811854219e-02 4.580158073640683836e-01
-8.925171498504057277e-02 -1.056928740238788217e-01 4.884006538419652377e-01
-7.959322063254539725e-02 -9.408959618538723091e-02 4.512077974624402188e-01
-6.860220948610758207e-02 -9.350193596608037672e-02 4.381898383810927111e-01
-7.322684325931336224e-02 -1.035951613061695947e-01 4.708771977135608466e-01
-2.840115555635757891e-02 -1.032812807390577209e-01 4.680593558357942774e-01
-9.227524580257080722e-02 -1.058663628237669352e-01 4.957737241808610751e-01
-3.113440229230134831e-02 -6.044009401672352511e-02 4.402072176115432445e-01
-2.654732436404549901e-04 -1.265925652840417248e-01 5.210827942067470797e-01
-3.973709487928089867e-02 -1.157190826489350871e-01 5.067264507454806166e-01
-3.523005470623362390e-02 -1.168894395307987916e-01 5.079115991455439572e-01
-6.016271255113667116e-02 -1.090145928071126757e-01 4.876098987659299167e-01
-7.025701765705376356e-02 -8.550368492354208649e-02 4.329329482765239545e-01
-3.108231357643789772e-02 -1.182405553124609432e-01 5.151274511966543734e-01
-1.073916077516152284e-01 -8.833484985577541582e-02 4.844026778041262138e-01
-1.979175176132222380e-02 -4.240432317655556255e-02 4.398699856016257126e-01
-3.012004293960604193e-02 -1.174666122818268515e-01 5.032582445773342572e-01
-5.197492163668585713e-02 -8.852603067469291820e-02 4.422549233374102884e-01
-1.052755886797378665e-01 -1.020645963325783750e-01 4.980743138969184192e-01
-2.702890639066025946e-02 -1.119114450147546957e-01 4.839836686721511461e-01
-9.915387918668486233e-02 -8.735111559639661960e-02 4.701582185515826851e-01
-4.434974607839723554e-02 -6.802755247536049210e-02 4.388863770510352258e-01
-4.353964183617129585e-02 -9.226252135591800352e-02 4.525923968339239933e-01
-1.940260524136289480e-02 -1.070405333289012051e-01 4.701468365373594471e-01
-8.050088916398190353e-02 -9.463394660992041629e-02 4.528240802613959781e-01
-9.645950974854405890e-02 -9.500995949206461622e-02 4.657895030481590815e-01
-4.381992310317154443e-02 -1.132906842903116107e-01 4.964299943367392332e-01
-3.367571264738004194e-02 -5.872738996982013876e-02 4.398624983882556960e-01
-8.214634416760943636e-02 -1.066207145652298266e-01 5.167689633350648348e-01
-1.966949878001193405e-02 -1.214253189857833620e-01 5.232716978380959061e-01
-2.441635925731845680e-02 -1.026082898799134946e-01 4.656321881128536178e-01
-4.594383820093299320e-03 -9.512689603203454414e-02 4.559521221090588328e-01
-6.686462650880610481e-02 -1.057602139420776854e-01 4.762782739568482970e-01
-6.642915162501990267e-02 -9.944949679767718653e-02 4.575033963266387227e-01
-7.162093641222097573e-02 -1.101470124195088468e-01 5.096367310448506327e-01
1.640436995063569194e-03 -1.194220543394464429e-01 4.892360533575854098e-01
-7.924916633431033919e-02 -9.601938466521031668e-02 4.543794891625799193e-01
-2.770275455334179904e-02 -1.190224361180823448e-01 5.120153938216729372e-01
-7.482608749204408549e-02 -9.003205012919333894e-02 4.404413601394810973e-01
-8.486511387797344985e-02 -1.024824558761515264e-01 4.709877979124909575e-01
-8.837814177514716207e-02 -9.285892801266935892e-02 4.574188844282202626e-01
-5.496954161783713932e-02 -1.127175135342791679e-01 5.062076236086814340e-01
-1.939409393395108774e-02 -1.216811504768139374e-01 5.191087072001339120e-01
-4.837363079594822479e-02 -1.101861978012565330e-01 4.886884994865824394e-01
-2.824319086110547300e-02 -5.105987250760364582e-02 4.399579123930897895e-01
-9.197243248760592071e-02 -9.832959808904596921e-02 4.659067128903012778e-01
-1.033586709764774958e-01 -1.001381149487616251e-01 4.825750738881396384e-01
-4.282832554760919452e-02 -1.135302586725379231e-01 4.972053754953189020e-01
-6.830015604391539985e-02 -1.062133918334740024e-01 4.786121196318449678e-01
-3.704442543053255987e-02 -1.160845509667023656e-01 5.350961540817562589e-01
-3.014333391754824704e-02 -8.331243950064723403e-02 4.469701476450792521e-01
-1.797259378834410726e-02 -1.217869307511183496e-01 5.275877348215908258e-01
-7.367538616769446491e-02 -1.067223448261934438e-01 5.282851764119037563e-01
-3.776092880232231885e-02 -3.618844590573815079e-02 4.378361870203211770e-01
-5.104622977403815848e-02 -8.022268514846721266e-02 4.369501666587672917e-01
-1.352005419864680657e-03 -1.259433727784414203e-01 5.300233251957554570e-01
-8.876581576890359149e-02 -1.044066956800336343e-01 4.795084322827594114e-01
-3.123330767914784742e-02 -4.314271366153232118e-02 4.398893478545417013e-01
-5.085791616252142294e-02 -2.592322413131521036e-02 4.395964385910148264e-01
-1.534801188507327677e-02 -1.199700861157537574e-01 4.971753100624846100e-01
-3.475474027275511635e-02 -1.096948503423073457e-01 4.815156359691943333e-01
-8.686068371444105596e-02 -1.062151605933053106e-01 4.889231311756759846e-01
-2.228049120007749920e-02 -1.207308848707204785e-01 5.190891036196664254e-01
-1.088913121894736907e-01 -9.227981582111674519e-02 4.850831497623185884e-01
-3.566511874473252131e-02 -8.031032706722829317e-02 4.448180560715977450e-01
-1.073138959246252438e-01 -9.922579129934100406e-02 4.995710543583034013e-01
-6.441925662246492101e-02 -1.110641995547814176e-01 5.045776132117597568e-01
-9.640325657506267076e-02 -9.359045025279043306e-02 4.653376045169322350e-01
-6.438700565269663001e-02 -8.581435038240312063e-02 4.302574015714966671e-01
-8.339239595860352405e-02 -8.477124395050525396e-02 4.506225206080953227e-01
-1.197401127298620624e-02 -5.848014632253643874e-02 4.398966250721065285e-01
-8.227676634940342404e-02 -8.204461749126859549e-02 4.506651366775447642e-01
-8.349085053599775152e-02 -1.060219352244311797e-01 4.835965709234533727e-01
-9.510429121392793839e-02 -9.302738492821095717e-02 4.633371797444689744e-01
-6.161108603089023722e-02 -1.120947693560515601e-01 5.207102003684213054e-01
-5.952469154334886353e-02 -7.657939328412326219e-02 4.318450834101058566e-01
-3.227213877848739837e-02 -1.180174451381513501e-01 5.215778861686977130e-01
-8.887428799233335064e-02 -1.064718780257365993e-01 5.050597016009376050e-01
-2.251153054500577497e-02 -1.201547114045846409e-01 5.308421795302019630e-01
-5.558409872639085564e-02 -8.449580169038867217e-02 4.349009313498423124e-01
-2.221831658567330683e-02 -8.674210358650998043e-02 4.491879754289987980e-01
-6.118717127671931266e-02 -1.122448632652061351e-01 5.176066903443574674e-01
-6.210111238953518881e-02 -1.120190882176207298e-01 5.195445507550734421e-01
-1.897025822330530853e-02 -8.759729133341585816e-02 4.496205663316362178e-01
5.442526086372068833e-03 -1.253100019587592984e-01 5.099491665676448848e-01
-4.466136742083552658e-02 -8.637307271372353379e-02 4.468978771275392003e-01
-6.049304896248698660e-02 -1.100675181951183551e-01 4.931626837367764082e-01
-4.428924344863394147e-02 -6.542795276226941181e-02 4.385747045020125245e-01
-9.438238879302919548e-02 -8.599015506447643675e-02 4.640686272902446730e-01
-6.101657709016084690e-04 -1.265339232155296423e-01 5.211263445622229540e-01
-6.781497956264759264e-02 -9.278037383036127905e-02 4.372381686717394800e-01
-4.203698086558014385e-02 -1.094182128951278199e-01 4.842956742456393515e-01
-5.122478741316974921e-02 -8.957611534662894559e-02 4.452436777873106100e-01
-6.642876736760545964e-02 -8.038794608526565744e-02 4.306456818984495949e-01
-1.715875293547345151e-02 -1.223245231914780184e-01 5.212153357884705684e-01
-2.993843803629823649e-03 -1.109564593918805214e-01 4.721598826796715720e-01
-1.146443515327299698e-02 -1.131411682135559232e-01 4.766093897644340105e-01
-5.347100583243025521e-03 -1.147806352189511964e-01 4.780277622451487018e-01
-5.060910972803335517e-02 -2.601510114707345986e-02 4.394862390630180915e-01
-2.603653756971268871e-02 -1.156740751651724325e-01 4.942366800526533099e-01
-5.095016088992138092e-02 -1.102372827529308902e-01 4.891398701479707789e-01
-3.492081447046639642e-02 -9.189314459059250151e-02 4.540288683237587719e-01
-5.147282135299437872e-02 -7.219131899702606325e-02 4.355573366007123859e-01
-7.224545416868351222e-02 -1.090158190928385701e-01 5.215487891430850009e-01
-5.065541327526690285e-02 -4.952209086368233870e-02 4.383478973221228703e-01
-6.644569132339653295e-02 -1.111264463941053493e-01 5.179422017694508273e-01
-4.549414147402941477e-02 -9.974769003139603851e-02 4.623941722306306179e-01
-9.726413177961125422e-02 -8.926772070028557438e-02 4.655292178553597782e-01
-2.481845345457079494e-02 -3.856569540430045129e-02 4.402347516386544979e-01
-7.895392119177509216e-02 -8.221063447021655091e-02 4.447829171562023842e-01
2.006770709083741111e-03 -1.212124668421660362e-01 4.943287856856676821e-01
-3.652761299294745440e-02 -1.165809042789140576e-01 5.078778681838862497e-01
-9.712525632478462290e-02 -8.798932487082838927e-02 4.665011679984989446e-01
-2.918423399620721781e-02 -1.178686244188229260e-01 5.045418495982287865e-01
-3.476339884133703567e-02 -1.098518610436974019e-01 4.818949637107809436e-01
-6.514587185643247458e-02 -1.068240067406011629e-01 4.795624055938829122e-01
-5.658997388720130722e-02 -6.051170019696960195e-02 4.360711121799566437e-01
-2.280966343565619947e-02 -1.198288495627832934e-01 5.065987122975841306e-01
-8.237425241640386475e-02 -8.320225208493971236e-02 4.501208070988884646e-01
-7.630042243116304940e-03 -1.171904552494048984e-01 4.837812555195815656e-01
-3.852327966206017806e-02 -1.162034381733759308e-01 5.305149918329596925e-01
-3.921561708512456140e-02 -1.162972026597293429e-01 5.114232493775903166e-01
-8.731481655481628315e-03 -1.198505737932235304e-01 4.921162705542237448e-01
-4.696372026269862721e-02 -1.009569967171694282e-01 4.638874423044346829e-01
-7.013214173487290759e-02 -8.656489522905493061e-02 4.329526182837462045e-01
-2.808407845921178508e-02 -8.925205010739790945e-02 4.520029492552305461e-01
-4.322000102011892136e-02 -6.628186803382182801e-02 4.390591237789602808e-01
-7.801084700361446411e-02 -1.084259995008548666e-01 5.132127513672191110e-01
-1.173222005653451819e-02 -1.141716440932118160e-01 4.784732738847836120e-01
-9.117052682591984814e-02 -1.052658658519766144e-01 4.879592877178730026e-01
-6.336778286163415042e-02 -9.021957599639278402e-02 4.340047471600179119e-01
-5.553243439502512924e-02 -1.071480818012247177e-01 4.791734619076625235e-01
-1.264736985949830618e-02 -7.966596576833266663e-02 4.464008705580611025e-01
-4.258375523771502219e-02 -3.127194829515624747e-02 4.376030410803114501e-01
-6.021291112897784320e-02 -8.009081287033989471e-02 4.309689786617059704e-01
-1.453730546246289647e-02 -1.207868003276574148e-01 5.414706204137699208e-01
-8.829354202736250379e-02 -1.067470081140213661e-01 5.000067411664959049e-01
-3.930884072458627754e-02 -9.822541204934498449e-02 4.618748373103448990e-01
7.991110607433937404e-04 -1.262041113953598082e-01 5.156644891424058130e-01
-5.864140032074690451e-03 -1.225230555225654411e-01 4.994495593208858053e-01
-4.821497065618305516e-02 -1.066961347603584409e-01 4.774120356210339033e-01
-4.859108704376710608e-03 -1.190736418032384419e-01 4.884002543515579831e-01
-1.044087309547340470e-01 -9.575032927584754827e-02 4.765046231326205972e-01
-4.571727513547670096e-02 -1.123377415853545336e-01 4.941795874736819583e-01
-4.764289336465755281e-02 -5.871582225441680791e-02 4.372350610096905621e-01
-6.358663427133966206e-02 -1.075785853191181390e-01 4.830995819496975430e-01
-1.039924856768977279e-01 -1.000915667332087505e-01 4.839937254537157729e-01
-1.866891868935749432e-02 -9.850140408141160042e-02 4.590154101855194457e-01
-8.670977506692181813e-02 -9.260553288190097321e-02 4.548156298080487381e-01
-3.346569518841938096e-02 -1.130859551360656468e-01 4.902747002961262424e-01
-3.431836308207931313e-02 -5.789765002324175763e-02 4.397400652234120244e-01
-2.639059286379207697e-02 -6.238227640043639277e-02 4.406989993087136459e-01
-4.273460633377752782e-02 -1.157750869708426555e-01 5.159329900858727891e-01
-2.727967329551566136e-02 -1.192228158199316740e-01 5.229123603527576769e-01
-8.305719332478636585e-02 -8.736011027347322100e-02 4.501367560794035105e-01
-1.031364226231623604e-01 -9.397827393267346729e-02 4.728950552946703523e-01
1.178218128492600214e-02 -1.259733078400256667e-01 5.357973849118938814e-01
-1.055850456950455374e-01 -9.831551467383849163e-02 4.835157276220944933e-01
-1.027047589063149607e-01 -9.805345609300505916e-02 4.754269622078018953e-01
-4.237816518546500683e-02 -1.083713102684550067e-01 4.815230217912416233e-01
-8.707873124235800122e-02 -1.025025308488466819e-01 5.235843071752621647e-01
1.722090154821159270e-03 -1.218109381909867200e-01 4.959421214200900319e-01
-5.057945041016179144e-02 -1.130238166289433827e-01 5.308391503167133596e-01
-4.675768021325919788e-02 -1.137903442466280668e-01 5.022452962452940151e-01
-3.361838699049292389e-02 -4.464558145486528795e-02 4.394797410596463783e-01
-2.902760642997087928e-02 -1.039874203016335902e-01 4.694942028617844487e-01
-3.276454867427347484e-02 -8.446917547209975563e-02 4.475219165439632829e-01
-5.289880862801646377e-02 -2.767064963649272166e-02 4.448485888484670081e-01
-8.638739973590660315e-02 -1.068926255459809044e-01 4.961951506851716154e-01
-1.024199074795781039e-01 -1.009189197871916133e-01 4.836822630278885815e-01
-1.921107849665210088e-02 -4.102026217853702722e-02 4.395849036752191297e-01
-4.112728877293626156e-02 -8.455853738362910377e-02 4.466961335063636129e-01
-1.174076946986191833e-02 -1.216460677656509837e-01 5.000329886669281354e-01
-1.613786348865076797e-02 -1.226709173154167110e-01 5.177104828549473625e-01
-8.711065705970429118e-02 -1.066706157990570947e-01 5.075261518923787074e-01
-1.860573515944608999e-03 -9.744346650028469503e-02 4.580508202397278184e-01
-3.352118099187478828e-02 -1.177017320664770772e-01 5.147160169470775815e-01
-4.060945175442096100e-02 -9.432601444485683162e-02 4.561242438272556932e-01
-7.703474561727960412e-02 -1.080813876207244173e-01 4.945241327100662332e-01
-6.207931491318782746e-02 -9.722404091466524401e-02 4.488826808903335075e-01
-1.509774277329307794e-02 -1.128254621243551664e-01 4.777677931992996840e-01
-1.658465249458755328e-02 -7.474421544191256483e-02 4.440117602452393619e-01
-6.258959762275917438e-02 -1.083075214662405222e-01 4.862698678837910626e-01
-9.641224544710366717e-02 -1.049144635144601823e-01 4.992612160693670198e-01
-1.705945465926524823e-02 -1.113980044631170396e-01 4.763140966432131695e-01
-3.185929501121747935e-03 -1.259713592212866051e-01 5.180038187107658398e-01
-2.842423224115373653e-02 -1.162095150074736738e-01 4.972208133070138425e-01
-1.939575387345296442e-02 -6.324357795429132179e-02 4.410802132995764180e-01
-2.411620317040873845e-02 -1.120111531090655366e-01 4.827516157007054609e-01
-4.228713318507989344e-02 -1.158893273267291579e-01 5.162924830760221573e-01
-4.615376039901064598e-02 -9.567455917267626841e-02 4.556402990203904935e-01
-2.777686187540826315e-02 -1.097321060852402691e-01 4.792089013799554764e-01
-2.798886849513233799e-02 -9.804933683055813698e-02 4.616877666287242943e-01
-1.729622041077273284e-02 -1.219003929463691738e-01 5.293918572305669201e-01
-3.284947982342857620e-02 -1.178971318021080628e-01 5.215443105308640304e-01
-1.393230820155196698e-02 -6.752071177377676203e-02 4.421437669080567345e-01
-2.003267310212290472e-02 -1.212111815736783976e-01 5.250943782143810967e-01
-4.104202886854847743e-02 -8.936522471128645340e-02 4.505678020182624088e-01
-8.447244795688646501e-02 -1.073436563885807465e-01 5.030891932008191292e-01
-5.699041215143042793e-02 -8.833637374788703978e-02 4.367806147844965348e-01
-6.982293212328227749e-02 -1.104789535852166993e-01 5.090833861512802372e-01
-3.278702010269377021e-02 -8.442561954209157338e-02 4.474915659694278514e-01
-2.007469517458136329e-02 -5.641460433556231419e-02 4.400434837324962989e-01
-8.362041075061991523e-04 -1.016267612539420440e-01 4.614832416342340982e-01
-4.869792493477591994e-02 -1.009143981397707668e-01 4.633796866656118563e-01
-7.278121533856546366e-02 -1.093164110676377032e-01 5.000011208331597290e-01
-4.945239533729804682e-02 -9.366179123158387132e-02 4.504849912389012334e-01
-7.369284477494478236e-02 -7.738551672503027334e-02 4.414384310756009899e-01
-3.844989082841364370e-02 -4.666677843322500352e-02 4.384086543618886944e-01
-7.947589388494034901e-02 -9.289539936207123760e-02 4.485256033209378268e-01
-8.369464981833071859e-02 -1.070919012858890101e-01 5.109561629252097337e-01
-4.806467174814305424e-03 -1.257304094470978184e-01 5.218854269496576714e-01
-8.350386436017635805e-02 -1.075314378653375175e-01 5.033183681269296494e-01
-6.442668148972174880e-02 -8.746520412535659095e-02 4.305018418932270441e-01
-3.305702562757971419e-02 -1.169676608126301309e-01 5.355257181439397884e-01
-1.879320369893724973e-02 -7.703374486043533531e-02 4.446956526514157515e-01
-3.706230095166927752e-02 -1.130912428586436647e-01 4.921388616371685232e-01
-1.316504553416181569e-02 -1.229810636541735364e-01 5.317441637196604898e-01
-2.517340879425119041e-02 -1.153671000203924518e-01 4.923024124316360828e-01
-2.073694848466066387e-02 -8.784327683328910230e-02 4.498972635440949275e-01
-7.198142367618894089e-02 -8.552295219797668990e-02 4.350494535236810734e-01
-1.364453718080977512e-02 -1.228626297219034130e-01 5.103646529044545410e-01
-3.917091043099320269e-02 -9.707630935799865801e-02 4.603180695150987378e-01
-1.062784586846356460e-01 -9.941814943377742797e-02 4.880588155027187347e-01
-3.930599729947831938e-02 -9.571041130930736662e-02 4.584351581420055277e-01
-4.067198351694829156e-02 -8.849559718087621207e-02 4.499884788892304366e-01
-9.703426333649649294e-02 -8.597515587689616434e-02 4.682181805148278864e-01
-8.708455614680675472e-02 -1.041261261394257898e-01 4.769637861804486567e-01
-1.003326313343040205e-01 -1.033507111931118300e-01 4.915551669203049867e-01
-1.950292820763302112e-02 -8.564621276607124745e-02 4.484839721670354495e-01
-4.155627281551171892e-02 -1.158139930290068426e-01 5.262728046081743827e-01
-5.250632868996449321e-02 -1.131358780998851371e-01 5.062888625578351176e-01
-3.478706364434039355e-02 -5.839188056039443242e-02 4.397649206530102051e-01
