-7.684486585274456771e-02 -1.063381700359304211e-01 4.884238624352170710e-01
-8.415116436105637976e-02 -1.066815469192815002e-01 5.009925750967046953e-01
-7.583482615241321501e-02 -9.070374484679856464e-02 4.442186010878119706e-01
-1.076096281462278759e-01 -9.439415177399262946e-02 4.843152631653916407e-01
-7.335064335818282377e-02 -1.021825112473951219e-01 4.706692196858440203e-01
-6.334664447166743484e-02 -1.105405568890045070e-01 5.041374479970368583e-01
-3.821687510987652886e-02 -8.463314248686107377e-02 4.486775621560005201e-01
-8.635625107396764644e-02 -1.022387366029510192e-01 4.745795204688452729e-01
-4.039879588147582412e-02 -1.160617502103786364e-01 5.188267739660471500e-01
-1.554489114507607780e-02 -1.128531344291523741e-01 4.786651540920747183e-01
-8.949967513160655974e-02 -8.324390601060664696e-02 4.586812302363200700e-01
-7.982367637312129394e-02 -1.072128683343131494e-01 5.149088326845309149e-01
-1.065783496957872917e-01 -1.002986565623133486e-01 5.022838166715142272e-01
-3.394125822825255767e-02 -8.624621725995047783e-02 4.500016468925468471e-01
-2.427875718472574315e-02 -8.102595315928623476e-02 4.468572490972237965e-01
-4.379786590082299785e-02 -6.557892834693698769e-02 4.396492563275656851e-01
-1.557602406842509800e-02 -1.199490164615102383e-01 4.980166773522276547e-01
-3.625388026704621375e-02 -1.030354837287536518e-01 4.705111986244302491e-01
-3.207635030427048034e-02 -1.169707457451668597e-01 5.361977818742054147e-01
-8.345542165569383442e-02 -7.913182959368857128e-02 4.534235825153375976e-01
-3.891825351587092224e-02 -4.721599359431734311e-02 4.388271819071160040e-01
-5.692750399917351906e-02 -7.234054350301268033e-02 4.338304651067059758e-01
-4.978391768819653840e-02 -4.533959739841560838e-02 4.387646617355698275e-01
-6.458307351430289667e-02 -1.094806424141917256e-01 4.984056127338783448e-01
-8.650786894975127927e-02 -1.045385761537403618e-01 4.843659285689113636e-01
-6.144418604467695444e-02 -8.341729564386410334e-02 4.330731761921251532e-01
-2.037850593033652038e-03 -1.002599422722419004e-01 4.606913689502659115e-01
-1.025640378357403210e-01 -9.505396984738953559e-02 4.734207694338298245e-01
-1.085006457770542991e-02 -5.975585312200905330e-02 4.402183255408514961e-01
-8.911126318076291464e-02 -9.408004192205449145e-02 4.606839705662810758e-01
-5.681372507080869466e-02 -6.385453685989092576e-02 4.348270311958877810e-01
-1.545618503023547981e-02 -1.227292924282756270e-01 5.207900393650238824e-01
-6.869681921803691416e-02 -1.087153118214436026e-01 4.967697412273320845e-01
-7.215225620163630282e-02 -9.248450167070516870e-02 4.445308131476258806e-01
-6.692117351576525042e-02 -8.730086636876265016e-02 4.327428319689732850e-01
-4.228147639761896392e-02 -4.570008757482205836e-02 4.385249659460073723e-01
-6.135905288651007788e-02 -1.107764478364301197e-01 5.030920462376665681e-01
-3.548713553253059205e-02 -4.102394993480148327e-02 4.392295589112785725e-01
-2.493427501533477045e-02 -1.171610491766806317e-01 4.985374519487976719e-01
-2.811312154928454626e-02 -6.215813911509050771e-02 4.410384705238160064e-01
-2.950152411862750138e-02 -8.715187603574751918e-02 4.509945028315429094e-01
-7.997489148981589205e-03 -1.031295225720276348e-01 4.633977951515950156e-01
-9.731263972029284559e-02 -1.017267431679302891e-01 4.827540906748059579e-01
-6.788979607581192843e-02 -9.694694237311655971e-02 4.552445296945201170e-01
-5.091613310435014889e-02 -1.128704975936157262e-01 5.302196965590076916e-01
-2.727782071551023563e-03 -1.259716920297490605e-01 5.169013961405670710e-01
-2.071125015569439884e-03 -9.081814786808529993e-02 4.531742072439699509e-01
-3.229837680787259885e-02 -1.106801767430184991e-01 4.841220777991108171e-01
-2.086326878225128190e-02 -1.181577929012170708e-01 4.972813733877809450e-01
-1.609492027829790423e-02 -7.898069642951410785e-02 4.463156288219169432e-01
-5.914354029719391670e-02 -9.200154046824822462e-02 4.426367004567321461e-01
-8.833897238205698499e-02 -9.260724968433962923e-02 4.585201843665663302e-01
-4.379745053465462779e-02 -1.135531508448104493e-01 5.005998138901939232e-01
-8.574898903434947928e-02 -9.608677467221268809e-02 4.611220819573001450e-01
-1.794836309839101599e-02 -1.220627632915604055e-01 5.159773923382026117e-01
-9.015510157472036989e-02 -1.047273119698010208e-01 4.905140951324179488e-01
-5.439018254726578350e-02 -1.096150729159287990e-01 4.907143912415979914e-01
-3.800732867017737188e-02 -9.046858699199863962e-02 4.534540341920799134e-01
-2.318598193755019680e-03 -1.163849037540458237e-01 4.822319245876503513e-01
-1.009707151557153459e-01 -9.168034656936499549e-02 4.689422564916377323e-01
-5.116445276768561909e-03 -1.255994219032519899e-01 5.219721700918329432e-01
-2.762690395697491377e-02 -7.032106421249575967e-02 4.427048136699946457e-01
-1.702343958920081099e-02 -9.929224214529940029e-02 4.599281321896476760e-01
-5.322778643721067654e-02 -8.092985308530062372e-02 4.373816646876141356e-01
-9.438244997465546071e-02 -1.027515150696039076e-01 4.832952611044610824e-01
-6.484684170779877327e-03 -1.029118272729844658e-01 4.632082852996009525e-01
-2.069279836791532157e-02 -1.038985786080051377e-01 4.662316876962395717e-01
-5.470987128586209808e-02 -9.833351121346334267e-02 4.600320422286042765e-01
-1.335377324777500818e-02 -1.080310426942079211e-01 4.696185872665809558e-01
-7.442655808188727851e-02 -1.031874554719833109e-01 4.740048243591678534e-01
-4.332479490957043267e-02 -1.025642672674206834e-01 4.691363763012236232e-01
-3.519886356529015187e-02 -1.096802319513896506e-01 4.830227116224827255e-01
-2.625265485423054507e-03 -1.253172025817518020e-01 5.102561219451012819e-01
-1.548725272464178057e-02 -8.318354577359687863e-02 4.480951497434663700e-01
-6.534273339660998103e-02 -9.192287262645278123e-02 4.395110279571283196e-01
-7.191258615916189430e-03 -9.663424841929892095e-02 4.575733371451374820e-01
-8.667812268954368238e-02 -1.056304540361987232e-01 5.115185181027320782e-01
-6.196775959794921518e-02 -9.455400340989239538e-02 4.463215330542839032e-01
-2.352553083219363281e-02 -1.194198258559563963e-01 5.354016886994045210e-01
-3.817790972835558710e-02 -1.080943921854959355e-01 4.806540451485883936e-01
-6.754535457473286042e-02 -1.003950259405751860e-01 4.646777489407344919e-01
-5.027618794311369821e-02 -1.104962505288801383e-01 4.923394983782939938e-01
-4.345381572202279552e-02 -1.107857945675722044e-01 4.903700229089609786e-01
-3.545083146819277137e-02 -1.170336770000056509e-01 5.146550312177102793e-01
-2.790095612170412701e-02 -3.226506665960525433e-02 4.397272453743005793e-01
-8.147739967114635273e-02 -9.598927300932662277e-02 4.584519170335121796e-01
-5.187527743437867628e-02 -1.076803390008994055e-01 4.832567517300809246e-01
-5.505124991906679144e-02 -1.054552079083828225e-01 4.762009992168236838e-01
-5.721536095541671085e-02 -7.903849387296299489e-02 4.342206443036596974e-01
-9.867891933465795795e-02 -1.033525982904119067e-01 5.053670808656918201e-01
-4.740012065343444936e-02 -1.137902038677410660e-01 5.302532849602834553e-01
-5.835385428463018415e-02 -1.007121301695105414e-01 4.645431529235987678e-01
-1.314648235615137502e-02 -1.027599882102346873e-01 4.628710747516199264e-01
-9.990168699785943740e-02 -8.737582221766926338e-02 4.702904339196742889e-01
-2.580140919417843112e-02 -8.640292797848123096e-02 4.500954615687214333e-01
-6.700204462098353908e-02 -8.119947079497318032e-02 4.315952917416367995e-01
-1.306348852273825703e-02 -6.093824433283658720e-02 4.406560239964631420e-01
-1.872793790160125205e-02 -1.214011398240790185e-01 5.108556911821917623e-01
-6.631698822420813155e-02 -8.470443056178023067e-02 4.318119913309106939e-01
-5.376712320796780270e-02 -1.098538882697327052e-01 4.913277684121584721e-01
-9.519332091771767757e-02 -1.021914282315306982e-01 4.813843758517230009e-01
-4.162384097747068995e-02 -1.155500956064452328e-01 5.264258230084091217e-01
-7.053228586609169848e-02 -1.004878652095975156e-01 4.652011630534440001e-01
-4.183180766872780787e-02 -1.086240983891636480e-01 4.838257486522917761e-01
-6.138823631042758522e-02 -1.117352634694862706e-01 5.180441352406218725e-01
-1.775319541251519501e-02 -1.062295114415924974e-01 4.686351996514857565e-01
-9.586624331724494241e-02 -9.472276607033400242e-02 4.663044011555964596e-01
-1.861663939957511338e-02 -1.192034832194967392e-01 5.437393655080801080e-01
-6.096655764255165533e-02 -8.268727424682191518e-02 4.330949073207534528e-01
-8.685233076326577539e-02 -9.954615273317266033e-02 4.686625103007509563e-01
-7.839327433450241078e-02 -1.018546407921979424e-01 4.705280192291169672e-01
-4.597759124330491609e-02 -1.125046435479844231e-01 4.967218629963888188e-01
-1.467197061023851196e-02 -1.048554967071956417e-01 4.654011292761798813e-01
3.070057103547449862e-03 -1.265123209468026477e-01 5.260895803308796026e-01
-3.409054930376434478e-02 -1.172348224298620650e-01 5.268635289661347532e-01
-4.091945863350882062e-02 -1.061745946012899455e-01 4.773778187504887915e-01
-1.851426613049966113e-02 -1.218432548030082274e-01 5.192900507576434510e-01
-1.093380727195825304e-02 -7.319402457861834410e-02 4.444067253515440741e-01
-3.007720863808143255e-02 -7.404256210805883198e-02 4.436588900341880692e-01
-3.210886845084668512e-02 -7.590678612963833172e-02 4.441284516402383975e-01
-1.786247270754129542e-03 -1.256116078787077595e-01 5.316027584568577824e-01
-1.039416250156779964e-01 -9.735395606476229813e-02 4.789556493325936581e-01
-8.865347670645461198e-02 -1.017079005341689352e-01 4.748486185298311235e-01
-2.197257204395260816e-02 -1.190894530888610137e-01 5.397266749992105650e-01
-3.308372055713949822e-02 -9.779438401392344382e-02 4.628941932540082682e-01
-6.145435881438007092e-02 -9.501714413871248377e-02 4.478141583399529169e-01
-3.950629002883770946e-02 -8.553941565963749105e-02 4.493589136831553921e-01
-3.542248846590714123e-02 -1.138368236272315898e-01 4.949705211268681793e-01
-5.784212982561074551e-02 -9.725457606097888397e-02 4.560120363921826292e-01
-1.821206592751853717e-02 -9.352739953545617657e-02 4.550265085864619308e-01
-6.910030485023396785e-02 -1.090108401463734389e-01 5.245549021620991015e-01
-9.448810196114318383e-02 -1.038595792903247716e-01 4.912969314091273354e-01
-9.631690319769177500e-02 -8.704491658918589447e-02 4.652041062249844816e-01
-4.678148210090093267e-02 -9.515073137576646189e-02 4.568456908916500026e-01
-4.207905761020232227e-02 -5.423312737155236429e-02 4.392092347178208067e-01
-5.377233359574799115e-02 -9.290417639247626480e-02 4.491463661207110714e-01
1.368097486587928346e-05 -1.209345866392930319e-01 4.938436270344970791e-01
-3.788161412243261361e-02 -7.555244989407569611e-02 4.433994856722136002e-01
-9.126619387879729428e-02 -1.054231247925810494e-01 4.995664207535028267e-01
-3.492718568161108650e-02 -3.820212822423618010e-02 4.389958594188836938e-01
-4.780779663772466437e-02 -4.427794900539774869e-02 4.385500522418416813e-01
1.044923043377793057e-02 -1.261970437656710631e-01 5.204446790056432848e-01
-5.612710212643589464e-02 -8.126417547153760856e-02 4.355900542521130570e-01
-1.956156784142431410e-02 -1.207749102128071600e-01 5.338982149382063280e-01
-1.058948391876636391e-01 -9.615805343950202533e-02 4.825234467816423845e-01
-6.079165802224024973e-02 -1.114998926075083524e-01 5.236518909236531627e-01
-3.198048527430132765e-02 -3.609370500271955051e-02 4.394454269883659725e-01
-8.355345771629020535e-02 -8.367631330719836613e-02 4.505822052931125477e-01
-1.057475878423499993e-02 -1.236170822604970715e-01 5.307899523681577358e-01
-2.671394166517333107e-02 -1.090854875920303779e-01 4.786974911330071913e-01
-3.636275970205989083e-02 -8.597305047264834632e-02 4.496877487845223342e-01
-1.934439802143576165e-02 -6.347446975785081547e-02 4.414824152986772665e-01
-4.099002331019064443e-02 -9.302771391061646911e-02 4.559926761119496574e-01
-4.444050239296259280e-02 -9.757640915999912790e-02 4.613185570334841779e-01
-7.816440975542807146e-02 -1.068876892129262401e-01 4.935219933195062469e-01
-6.525842459845752896e-02 -6.935497707037810433e-02 4.384499504909376566e-01
2.415901383172359106e-03 -1.264563340720317453e-01 5.267375355639986045e-01
-6.181613198587295605e-02 -1.063011139614338102e-01 4.809536408129135299e-01
-6.136260360790075225e-02 -1.106744011945662992e-01 5.273777720976937644e-01
-6.472586947920941358e-02 -1.041071174398175841e-01 4.743709368856107722e-01
-2.202404680779310175e-02 -1.175213918217971470e-01 5.463478452470306168e-01
-3.554431889487596335e-02 -7.031926321262063628e-02 4.417551056211305172e-01
-5.754993899827563070e-02 -8.344177682084144565e-02 4.353876258984846204e-01
-3.021955387204959716e-03 -1.177473537005529064e-01 4.854279767922961009e-01
-3.345758891675109509e-02 -1.038675440054614707e-01 4.719157857147523449e-01
-1.452576150347588413e-02 -1.142117415754323184e-01 4.806571303883997448e-01
-1.907875726188807894e-02 -1.190142064961739465e-01 4.985210092811228622e-01
-8.506752746856230396e-02 -1.050773447362857854e-01 5.170078065172959425e-01
-6.922138085749560132e-02 -8.278201234964965849e-02 4.327595051848492358e-01
-8.281683539063984523e-02 -8.427589679831566649e-02 4.495852055295027072e-01
-2.647486742694878797e-02 -1.075912493166982231e-01 4.756874808141816624e-01
-2.927600153854307413e-02 -1.164712164428123448e-01 4.997471192383824423e-01
-5.078507228209962893e-02 -8.608767834674511954e-02 4.442903218854770131e-01
-7.442091632256311873e-02 -1.084418658436697991e-01 5.192163868820743877e-01
2.586819030778828889e-03 -1.266278383951018882e-01 5.229739709878551412e-01
3.784278468025189645e-03 -1.257570112674800678e-01 5.126997191431211798e-01
-1.011938996472078363e-02 -1.150008919477509273e-01 4.800968823969115062e-01
-8.822892163909211438e-02 -1.053887395285692807e-01 5.099255572369831846e-01
-1.729581354639207064e-02 -9.637149806290933041e-02 4.572657991580985071e-01
-2.582757666636003105e-02 -7.970957790586312430e-02 4.461837940053868801e-01
-1.613310483728134376e-02 -9.046520421566180137e-02 4.520268510285813668e-01
-2.530267373094893801e-02 -1.192493364847667936e-01 5.307389625950682532e-01
-8.037297508230469012e-02 -1.021989125785892905e-01 4.721332244958558744e-01
-8.851977354388360086e-02 -1.042074452186210892e-01 4.845527943992494202e-01
-9.996669704856452066e-02 -9.451317443960455256e-02 4.696782716790999235e-01
-2.000830583432429421e-02 -7.295447880996537571e-02 4.437322837376490581e-01
-1.733393303763408611e-02 -1.207088919289968365e-01 5.040591316811595668e-01
2.678085021585972780e-03 -1.200334970813838054e-01 4.919338794306144513e-01
-3.924430502119156255e-02 -9.087721964515430018e-02 4.538823440145929311e-01
-2.885832364366397798e-02 -7.769548120865978069e-02 4.453033540717775685e-01
-7.977272056818693335e-02 -8.093504897178510626e-02 4.458257894129697418e-01
-8.434880948383984001e-02 -8.139697096229307760e-02 4.532803590600208987e-01
-4.252191170851692820e-02 -1.082151071391882213e-01 4.829707017524832446e-01
-1.003229637612298910e-03 -1.011143379797766334e-01 4.613821765984224554e-01
-4.638862247688976120e-02 -8.305113776400521730e-02 4.454307518749857642e-01
-6.320094536330010671e-02 -1.077064255209658067e-01 4.878501285912266727e-01
-9.862425760531297325e-02 -8.673470200188676538e-02 4.690311996885294654e-01
-2.263614075024691225e-02 -1.189140073209164206e-01 5.030437286937381458e-01
-3.218342864405823733e-02 -1.149583915013988461e-01 4.966455060714843883e-01
-2.771349462369131211e-02 -8.308830239354060565e-02 4.478467381188422358e-01
-6.374568986947143356e-02 -1.101615844415422540e-01 5.020016731833468748e-01
-7.566975860733789194e-02 -7.820951639060536031e-02 4.418021016070348694e-01
-4.706147015841875142e-02 -9.350034439216192705e-02 4.542552110359708295e-01
-8.294532240882571128e-02 -1.051960423795317567e-01 4.849762545781432510e-01
-5.903386703796786872e-02 -6.380999002226592220e-02 4.355421644577376905e-01
-1.232434213886147642e-02 -1.223650213066592163e-01 5.368616945296502685e-01
-4.209828673089160977e-02 -1.153003082570959875e-01 5.115330764035568301e-01
-4.348821003907420851e-02 -9.882808436549386788e-02 4.633760255775143944e-01
-2.018695041039394664e-02 -1.175485964748317069e-01 4.939810367945370873e-01
-5.681240058252023939e-02 -5.915753871531186092e-02 4.366176505884489800e-01
-2.649015437771376491e-02 -9.607037047489955239e-02 4.598221554438765568e-01
-1.983163023780565651e-02 -1.075093761266838199e-01 4.718728941316018277e-01
-7.966461134430034841e-02 -8.644141786489721591e-02 4.455245559361864505e-01
-6.742386873885002074e-02 -1.094499318554769396e-01 5.246754922118882503e-01
-2.490082042525994938e-02 -1.176536521667174567e-01 5.429336576420382698e-01
-4.068167119042249286e-02 -5.936439572345024451e-02 4.396914470983698253e-01
-2.990480267031830550e-02 -1.181267635512279618e-01 5.292524877604144473e-01
-6.021218567392624260e-02 -9.081576100215374425e-02 4.408627706418421499e-01
-4.283982082774323574e-02 -1.154886933644345415e-01 5.171566462417152010e-01
-9.873228167273820355e-02 -1.009774795970716371e-01 4.819370570565494893e-01
-5.894852048095967217e-03 -1.189748266501215873e-01 4.890312505365956852e-01
-6.143583393052091945e-03 -1.178857586910016519e-01 4.860413582061170468e-01
-6.725938142156590027e-02 -1.091973536473265088e-01 5.262467094424125857e-01
-7.362416719568555534e-02 -1.089702890615683595e-01 5.149148948620075883e-01
-9.053922069664192829e-02 -9.512826092237014475e-02 4.626009697443924096e-01
-7.650189599632588322e-03 -1.249500187693058095e-01 5.201643071495206661e-01
-4.273600460274329382e-02 -5.650706519846817460e-02 4.392494786214846680e-01
-7.049232329966804989e-02 -7.888159765163731130e-02 4.339148433046702835e-01
-2.886873572964117687e-02 -1.131675870738786532e-01 4.896227194013269002e-01
-1.269124255836063739e-02 -1.125737078502623001e-01 4.765649727805889579e-01
-5.336263337608955493e-02 -3.379582456801972362e-02 4.447279202795824671e-01
-2.397535428066913804e-02 -9.729943249764232138e-02 4.603919131025105971e-01
-9.274077537494105142e-03 -1.001925133509974780e-01 4.605514111952376810e-01
-5.907135481682635608e-02 -6.405309256822305786e-02 4.354632072590535752e-01
-8.771317574560490160e-02 -1.045778994476285334e-01 4.857189004791505060e-01
-1.018518622684103613e-02 -8.430857634830711544e-02 4.490242810438643817e-01
-1.051323608402868343e-01 -1.005579817588926755e-01 5.052189203612565960e-01
-3.230650428667455193e-02 -8.610333243602484588e-02 4.500533672889077685e-01
-3.767839539135788701e-02 -1.156286004289716063e-01 5.360298404092734836e-01
-4.831123068740118820e-02 -9.369051440471015679e-02 4.539372658885503231e-01
-1.085476907915772747e-02 -6.122825591634142861e-02 4.405313943363772244e-01
-3.610703920925336513e-02 -1.095814649800006257e-01 4.832635683608201838e-01
-5.373203084394954920e-02 -3.844475239750698436e-02 4.439607014562987342e-01
-4.677608116287097773e-02 -1.146522461017030481e-01 5.180309927267142678e-01
-4.353783645544707231e-02 -5.304438707463255548e-02 4.389405081921488039e-01
-4.156845319775627490e-02 -4.904037602927702882e-02 4.387987611787744768e-01
-4.544172654941554951e-02 -6.965736217937266994e-02 4.397138208808017978e-01
-4.609901470309632834e-03 -1.223365980348781051e-01 4.987078193815235871e-01
-2.384100541281152820e-03 -9.377751387526772620e-02 4.552213733119181982e-01
-9.634795720357702820e-02 -1.029186212155211722e-01 4.877901491807477008e-01
-1.325000300066001349e-02 -7.481606263685591784e-02 4.448242173552697243e-01
-5.313609539989790076e-02 -2.479775715144919013e-02 4.466719587137710223e-01
-8.710398335399830577e-03 -1.109160702385172254e-01 4.730149165811345369e-01
-6.374635390266286672e-02 -7.507210795415161786e-02 4.328526656584887333e-01
-1.514380300696178613e-02 -7.504216475953814913e-02 4.447521330564753184e-01
-7.739768188190535025e-02 -1.079807003591290032e-01 5.138149202274803207e-01
-4.178090357128019100e-02 -7.725606056671868727e-02 4.431327102677826701e-01
-8.066531536794459278e-02 -1.069884634203100843e-01 5.143233290550377479e-01
-1.647429375372942359e-02 -1.224586369750784998e-01 5.185747339208994777e-01
-8.644573995478267714e-02 -8.270485084786977081e-02 4.550349945284678510e-01
-3.162796024372186571e-02 -7.973205855927710528e-02 4.458980121370854643e-01
-3.788899195410424386e-02 -1.070807589757171024e-01 4.781207303462103875e-01
-4.606578918782373855e-02 -5.245722894488060589e-02 4.387240150529468918e-01
-1.115341076466093775e-02 -1.112445146134566493e-01 4.739371152496023032e-01
-7.689218534225680801e-02 -1.012398267601189727e-01 4.683759153774839090e-01
-3.671387953821836359e-02 -8.016061858322426348e-02 4.456524195868746263e-01
-7.808632403901478482e-03 -1.181988143852195083e-01 4.873637850188000664e-01
-2.063068792576494906e-02 -1.196465878342673345e-01 5.387710662724828348e-01
-8.610082658553165624e-02 -7.833348063464695699e-02 4.581682480037615468e-01
-2.418650969112973864e-02 -5.158133709514042819e-02 4.403233322298837349e-01
-3.567554663450335506e-02 -1.163885584262681350e-01 5.071602787490723241e-01
-6.284444342870146305e-02 -1.113768147727276503e-01 5.123831448815868717e-01
-2.046890838761779297e-02 -1.186617658919635748e-01 4.988259934396762074e-01
-1.340178015433864285e-03 -1.115513127374112845e-01 4.736745504598628420e-01
-3.127213456051171347e-02 -6.336670788640612340e-02 4.410327571083598741e-01
-6.143032033119315977e-02 -8.362550673858548667e-02 4.331439816511128971e-01
-5.355343207522613586e-02 -6.923468485491844626e-02 4.352855815861383371e-01
-6.185243455353232195e-02 -9.412645315444560790e-02 4.451336340786379853e-01
-1.075018028156221328e-01 -9.842096731475354077e-02 4.944658471005180522e-01
-7.769260005587137752e-02 -9.767598545586424208e-02 4.603994118873043773e-01
-1.201648059439194317e-02 -1.224452405558221907e-01 5.054770092381127844e-01
-2.554301692958402259e-02 -1.147169954080339282e-01 4.914347294628487184e-01
-4.685798103072680298e-02 -1.137560005675786190e-01 5.063388433391681209e-01
-4.478884488774537154e-02 -4.704083131618907315e-02 4.384619162534871828e-01
-1.355069446493653920e-02 -5.851843154366238170e-02 4.402419079073421893e-01
-7.802963395659184842e-02 -1.071740694282693335e-01 4.954720015186973581e-01
-8.322069565617533360e-02 -1.042635846675364769e-01 4.803210725049060770e-01
-4.553506313646673437e-02 -3.498076046170110753e-02 4.380386391104135746e-01
-3.486693946361907326e-02 -7.415438060515178176e-02 4.430473974409542270e-01
-5.147509407597075648e-02 -3.965357374632760140e-02 4.399093120595336526e-01
-1.060947100642223168e-01 -9.530009279727438831e-02 4.817152014171146024e-01
-1.149565757527575699e-02 -1.239166371299682129e-01 5.179654517062205477e-01
-3.556703434334220620e-02 -1.124676972643966072e-01 4.909200159427341559e-01
-8.122213179171268449e-02 -1.072648909539623691e-01 5.079892325900404737e-01
-3.812599531799319708e-02 -4.841767256147731097e-02 4.389827137081192543e-01
-1.385574630339804145e-02 -6.741092029044112865e-02 4.424235548399457207e-01
-3.496678766583309617e-02 -1.152243260897648919e-01 5.417818827596940778e-01
-8.374998463996250961e-03 -1.242098644146436281e-01 5.108080241909861430e-01
-9.782297971440578888e-02 -8.782770855522439857e-02 4.667289305236742014e-01
-3.592900709889019356e-02 -1.170163704194613630e-01 5.168984164832077788e-01
-1.807210330130328956e-03 -1.258845650113178949e-01 5.296193493223959603e-01
-5.563959939416075057e-02 -4.577447106399012977e-02 4.413626213412408239e-01
-3.887670504879534635e-03 -1.246874193055804020e-01 5.080472868133155684e-01
-9.203315955863410058e-02 -9.607978729234917248e-02 4.651459249425661802e-01
4.028561992605950506e-04 -1.195201062017321736e-01 4.899631086716656481e-01
-1.459522391424750327e-02 -1.065488635855848659e-01 4.677676848214395999e-01
-4.717419611577652883e-02 -2.816725180090111705e-02 4.383432360314136189e-01
-7.559203987809927361e-02 -1.069823293016901877e-01 5.246346289245653605e-01
-5.342287222079226267e-02 -4.163258870567631414e-02 4.403537299592826249e-01
-4.975433079438547346e-02 -1.095410081706841426e-01 4.892490505279483703e-01
-5.510869472862561791e-02 -1.050455418504852162e-01 4.748704849254399285e-01
-3.762390249449276691e-02 -6.080979032364697973e-02 4.403233253294404625e-01
-9.619183361309004143e-02 -1.036977791771990787e-01 4.941541887818246548e-01
-1.009612929956147515e-01 -9.312110215789368151e-02 4.693730700086226615e-01
-7.206927464418536045e-02 -8.347411041254683417e-02 4.351793170744662209e-01
-6.134740881729881801e-02 -9.875313035386519556e-02 4.592121313786592385e-01
-2.939639566090317124e-02 -8.043797551640696764e-02 4.463334039355012495e-01
-3.920163571461556667e-02 -8.566651380820303197e-02 4.494672974931565035e-01
4.136840444054216276e-03 -1.204011904821363499e-01 4.932591091255773552e-01
-1.337654934397007091e-02 -1.158816881493373030e-01 4.835434845426133110e-01
-5.345717507776675571e-03 -1.233629384474359686e-01 5.366051078464222357e-01
-8.570949858516462797e-04 -1.002461801522695484e-01 4.606777709063314408e-01
-6.442473582469757099e-02 -1.103244271221684031e-01 5.040993385737352339e-01
-4.302163135225301610e-02 -1.113733692152981403e-01 4.918489822153748747e-01
-2.531200736974880544e-02 -6.880130176642432205e-02 4.424646779519385009e-01
-5.208432655427551461e-02 -1.120670290785421574e-01 5.007172285934247125e-01
-1.046659809094595134e-01 -9.974193298121426798e-02 5.083471154411753901e-01
-3.438308874400811121e-02 -9.521598202375378128e-02 4.593999551491890765e-01
-5.915266016741085875e-02 -9.417732523804543676e-02 4.463058209542409283e-01
-3.582254117552136075e-02 -9.787262730417350953e-02 4.630343769611290350e-01
-7.086238679547969023e-03 -1.195970866253925208e-01 4.911592942716140331e-01
-2.475400222178737036e-02 -9.080897799205039922e-02 4.538445514566454841e-01
-7.029332459793044552e-02 -1.083679153882064483e-01 4.963218253894176590e-01
-2.119936268875557972e-02 -1.175310760230940110e-01 5.471498555936815666e-01
-2.398065796645782594e-02 -1.192039452881253625e-01 5.359613418189497214e-01
-3.939105756539885983e-02 -1.127080961533996062e-01 4.938407599540165505e-01
-1.189372044512582507e-02 -1.237869985189415517e-01 5.194567531943323768e-01
-6.037834767183172108e-02 -6.513561524026133254e-02 4.354703026313510583e-01
-4.132785974976196236e-02 -1.138698653723324850e-01 4.998926190372155465e-01
-2.729892638885755840e-02 -4.812478689667618742e-02 4.405079459960975496e-01
-6.157432438048792561e-02 -1.058193591677149686e-01 4.787531236943228796e-01
-8.820056816398866642e-03 -1.234973353906324567e-01 5.329492828641730906e-01
-2.238318152454029514e-02 -6.646815573028483359e-02 4.421231225910409735e-01
-4.633501280175917475e-02 -1.030920238811119938e-01 4.700005276055475578e-01
-5.780075909669757372e-02 -1.106855105112384274e-01 4.982008743939334017e-01
-4.337814123903990793e-02 -1.116967157108978287e-01 4.928887333873401833e-01
-6.878735421105336770e-03 -1.174823130663841669e-01 4.851122634198483663e-01
-3.130987473581622188e-02 -4.577860598507866446e-02 4.402265281155339216e-01
-4.360893861150939160e-02 -9.623429669819492938e-02 4.596664448274896397e-01
-5.370097428379379950e-02 -8.816526015145734196e-02 4.434208540671509824e-01
-9.151417011441700944e-02 -1.045185342305654796e-01 5.103312854154817835e-01
-7.453332864891275278e-02 -9.812516972657443770e-02 4.602024241277619110e-01
-5.014309030024867442e-02 -4.380074253905243131e-02 4.388646733257516863e-01
-6.171329862831316515e-02 -6.905976639817301699e-02 4.345188472180269712e-01
-3.186214013759432889e-02 -9.849784697915028864e-02 4.637490983005658762e-01
-1.811455840510551099e-02 -1.196720773812285643e-01 5.000313572953569707e-01
-2.621719730115557034e-02 -4.111916876675780069e-02 4.406301218230579964e-01
-7.058693332815052512e-02 -1.025385712956342066e-01 4.711271034217663356e-01
-9.024454657372116273e-03 -1.208968051451799197e-01 4.958399565504056916e-01
-9.550932670409456593e-02 -1.043290732936010823e-01 5.014139618074321403e-01
-9.505257553015172833e-02 -8.512421579527559845e-02 4.648767679736934277e-01
-5.321234728318239432e-02 -9.766113531504672096e-02 4.588671539663388699e-01
-2.719216380173678296e-02 -9.578266833504531230e-02 4.595855176957522326e-01
-9.428313685769081076e-03 -8.150687567192189953e-02 4.478542292131374447e-01
-6.871468222651172519e-02 -1.094338237276293729e-01 5.024000011061797721e-01
-2.946870222357064750e-02 -1.090437455968525787e-01 4.794890255347148966e-01
-5.683334249929717502e-03 -1.178329069145886698e-01 4.858705163165017993e-01
-7.299752111606526428e-02 -1.068678765549708198e-01 4.892324572805300531e-01
-8.504019136754285835e-02 -8.111096406967363559e-02 4.544502793466682067e-01
-9.207258518024324934e-02 -1.037033678306102796e-01 4.857509863288003715e-01
-4.455644130422047738e-02 -1.032943236455960562e-01 4.706024503900143041e-01
-7.239173518240423454e-03 -1.200899335006969521e-01 4.926832947679347652e-01
-4.745663217243296234e-02 -1.028595634776714451e-01 4.690870812031757708e-01
-9.435053321526490344e-02 -1.042057339022167545e-01 4.942142266599663936e-01
-6.982441386493286328e-02 -1.097135121399573227e-01 5.197745641404792893e-01
-1.215969601074506912e-02 -1.237239546468137941e-01 5.180196054609961243e-01
-2.771698454382869395e-02 -7.818844023823606770e-02 4.455774417060358594e-01
-1.777775341677464982e-02 -1.212816647188178637e-01 5.347904626715250798e-01
-9.288942739988728658e-02 -1.019800904419499304e-01 4.787251780778556953e-01
-4.062219290232521769e-03 -1.168915537217578016e-01 4.834379663649212011e-01
-1.173711925502934905e-02 -6.678333688543988678e-02 4.422931938893969184e-01
-5.286444662956311241e-02 -2.235256399194295376e-02 4.441648769865434998e-01
-7.961794786295521564e-02 -8.920566456877730699e-02 4.470961226937785193e-01
-4.054132094944481318e-02 -9.708039307028425158e-02 4.616204223483376112e-01
-6.133304634429654484e-02 -9.324967616680659988e-02 4.436196641819056818e-01
-9.403401253717544317e-02 -9.433280004458043100e-02 4.641231313309746587e-01
-1.849221688348562723e-02 -1.212161291307117389e-01 5.325044136187789823e-01
-5.100929997921725689e-02 -1.068370343519363663e-01 4.804871397455080517e-01
-1.786222698586872014e-03 -1.169100958055351719e-01 4.834364547349957464e-01
-4.667538346171496572e-02 -1.124799262648279313e-01 4.970040765891806100e-01
-4.441587839543802846e-02 -5.548690136247873966e-02 4.388025791950863064e-01
-2.394250252905104001e-02 -1.101635666367643679e-01 4.795735325049945152e-01
-1.654870581891731973e-02 -8.014173506297243843e-02 4.468020536854631075e-01
-1.600642346958660450e-02 -8.229466510470277718e-02 4.477401915392774656e-01
-6.012549359115824596e-03 -1.224041719109219550e-01 4.997032599080815651e-01
-9.294354154362539575e-03 -1.180198692295692797e-01 4.875821107768856799e-01
-1.052782897302117354e-01 -1.010445500806361752e-01 5.010002099274183385e-01
-3.956676219281984874e-02 -5.960587049182571734e-02 4.398617704900865122e-01
-4.874304685558446260e-02 -7.913007940073496504e-02 4.403925255859887922e-01
-6.424336605977679082e-02 -1.101022805475009719e-01 5.259458940067469612e-01
-5.213766711053863245e-02 -8.958032866412785067e-02 4.470351325314695368e-01
-4.054097853861071687e-02 -1.159039875759903665e-01 5.254530218039434875e-01
-7.301753560029759782e-02 -1.082001991642345534e-01 5.225826134421088787e-01
-7.586695744913549144e-02 -9.066426741206870532e-02 4.441715140887795843e-01
-6.620372440269106651e-02 -1.098349859677879847e-01 5.027182276749732059e-01
-3.274217612506457459e-02 -4.344271888032775336e-02 4.399492503740075611e-01
-2.963349876982637396e-02 -4.025762021291155734e-02 4.402266323773249557e-01
-6.016272784355012823e-03 -1.017943258826352754e-01 4.621124078380487998e-01
-1.090263530598302999e-01 -9.433353056760823696e-02 4.883094624656633687e-01
-7.530463633237202692e-02 -9.477057514256834181e-02 4.523763689646204122e-01
-3.538429524640983315e-02 -5.820417838423593698e-02 4.402136953009252451e-01
-3.618276753307411026e-02 -1.169240741423942243e-01 5.229766841318647108e-01
-6.236280393782423631e-02 -1.102423211095702599e-01 5.280383598590211447e-01
-5.018344750100171142e-02 -1.137503739738667530e-01 5.245178322087389322e-01
-8.352432949767817083e-02 -9.738866225594676462e-02 4.621106131576036002e-01
-4.749018889095476745e-03 -1.162887927396679677e-01 4.820570102981559524e-01
-8.506644920517658637e-02 -1.002971516760497311e-01 4.694300356117269146e-01
-9.345847931189836533e-02 -1.039151171012241553e-01 4.897088524570896717e-01
-2.357825700299438776e-02 -1.188746866550473152e-01 5.039491626280105940e-01
-1.839189588964035976e-02 -7.252887129540681876e-02 4.436498439197765209e-01
-1.493947126226988567e-02 -1.228699403537314577e-01 5.216501555047736716e-01
-7.853972073511028551e-02 -1.077703991865788802e-01 5.019691879103318488e-01
-7.191435254362854579e-02 -8.961302797941572695e-02 4.388370426382132705e-01
-1.154166442180300581e-02 -9.126947926885835283e-02 4.529066299113231886e-01
-8.832413343215253509e-02 -9.321647514757495923e-02 4.589994812816733938e-01
-4.530292583987324817e-02 -4.439182525335640117e-02 4.382598734405818708e-01
-5.056411690246266633e-02 -2.761388474721542322e-02 4.395363550300196986e-01
-9.663851989916692753e-02 -9.417916401724314712e-02 4.663654612986632420e-01
-3.831242688070986280e-02 -4.725024048782874159e-02 4.388865833156227469e-01
-5.447045489692931702e-02 -5.859392189183038058e-02 4.364115362038610835e-01
-3.912834335781746609e-02 -9.974917230843569071e-02 4.655116306197193410e-01
-1.222393148328634362e-02 -5.866304889716802973e-02 4.401508175992554506e-01
-4.795946515225081586e-02 -1.066735689363198791e-01 4.798987588663071735e-01
-1.572403097724227317e-02 -5.602866309950330775e-02 4.401075554564696235e-01
-4.995842484337062982e-03 -8.570196514582881231e-02 4.501745972179945765e-01
-3.971389812764242883e-02 -9.969265361767910838e-02 4.654040080159798087e-01
-7.457891143655383248e-02 -1.060352515158135694e-01 4.851694215871186211e-01
-3.307527396919528878e-02 -6.011805276984839158e-02 4.405066045444523959e-01
-9.319487372498405642e-02 -1.050102662421227850e-01 5.016235953535113090e-01
-1.680190957374026045e-02 -1.118956961294211433e-01 4.776797820301733610e-01
-9.328067277441398630e-02 -1.048284324911191584e-01 4.976850411806957863e-01
-7.387004455843498851e-02 -9.076012911107318726e-02 4.425769438954522683e-01
3.639075455087555609e-03 -1.240062014699681164e-01 5.042823169737459255e-01
-7.617686380975611550e-03 -1.245738826410966171e-01 5.126235168115348406e-01
-5.499352988371245671e-02 -5.231155927374173814e-02 4.378907240239430787e-01
-5.124517858046952201e-02 -4.328837929914047117e-02 4.393701426177424318e-01
-7.341013268037949180e-02 -7.929399233242599709e-02 4.378531000458206202e-01
-1.264276644263864421e-02 -1.229802194261860881e-01 5.101197072761226581e-01
-1.266637621437560410e-04 -1.212610479805254216e-01 4.947215081263199865e-01
-1.022070583673987121e-01 -1.004388259189591404e-01 4.860140575328290580e-01
-7.198668069048547169e-02 -1.072084951613412745e-01 4.908737084019456631e-01
-5.766913517676202500e-02 -9.892564964663448646e-02 4.606284722007128463e-01
-2.354656624594351697e-02 -8.933945174321412941e-02 4.521134294898766504e-01
-3.595450144833826911e-02 -9.997601928066549015e-02 4.659772661171432406e-01
-6.273427564995136263e-02 -1.113616377757086773e-01 5.119313087318517752e-01
-8.207469571281232612e-02 -1.043652623758759002e-01 4.803267571655955859e-01
-5.350173736196366103e-02 -1.121560990137970559e-01 5.033593811339671653e-01
-1.013557894741221738e-01 -1.015308513715392214e-01 5.074607536029651644e-01
-5.073556171971262824e-02 -4.446908734231764387e-02 4.390203801341037160e-01
-6.298384931365026695e-02 -1.105269042296977144e-01 5.035372497651339208e-01
-6.114521570226563729e-02 -8.464553193594795411e-02 4.336022784686729414e-01
-4.120929498054238388e-02 -1.158410013146175810e-01 5.213552268409920032e-01
-8.745360530427839785e-02 -1.003672924575517711e-01 4.709455763456680821e-01
-9.794799835737602600e-02 -1.027060109150700340e-01 4.894598692125514683e-01
-7.482594868510415720e-02 -1.059343638217524891e-01 4.846618519013731752e-01
-5.906800968012863862e-02 -9.546844815031592379e-02 4.502109596986269557e-01
-7.665691628944917846e-02 -1.078270988652421380e-01 5.185296553046464529e-01
-5.621584543331238637e-02 -1.061154185620411805e-01 4.786721644182279078e-01
-7.979305398683941841e-02 -1.018364848832165048e-01 4.709777692789581804e-01
-6.595891677274673404e-02 -1.065841627816516146e-01 4.839477653503964083e-01
-2.124102907270507615e-02 -1.159673945371780673e-01 4.905827166973208420e-01
-2.193864302217528664e-02 -6.109732109138104467e-02 4.410160300680145973e-01
-2.089154309175913354e-02 -7.061175992414800429e-02 4.430955502398504220e-01
-8.170328443318870815e-02 -1.071601415887883380e-01 5.062024746875393166e-01
-2.006156555335909114e-02 -4.190367889132079471e-02 4.400151466440643255e-01
-1.026567830915563473e-01 -9.544165302314035204e-02 4.739782102531145402e-01
-8.059612923508931159e-02 -8.325447339709579619e-02 4.463345546902580119e-01
-1.021180368650016351e-01 -9.389818510254005490e-02 4.714958401436488145e-01
-6.072870414863763139e-02 -1.020150928446461047e-01 4.681173243557633645e-01
-2.950906981551926558e-02 -7.493132109965862375e-02 4.441794607485956004e-01
-3.589388208845544631e-02 -1.111039483569640218e-01 4.871556423174975836e-01
-1.648777175975466025e-02 -1.085245967890935692e-01 4.716974181453373327e-01
-5.339041599454119602e-02 -3.694513784739895945e-02 4.425403384580881005e-01
-6.639432343231366218e-02 -1.094257678308848403e-01 5.263277925479329378e-01
-8.012101151855609282e-02 -1.075223940253136057e-01 5.034578014761763587e-01
-5.887378962710526631e-02 -9.702170948975363807e-02 4.550047811873260128e-01
-9.159460113464210074e-02 -1.030642191714876560e-01 4.816356350522357777e-01
-6.029599349657883273e-02 -8.958585683723883919e-02 4.390614613469278060e-01
-1.618637668424744575e-02 -1.169122583997764808e-01 4.881371323794367889e-01
-9.846010813562396102e-02 -1.017282774082688968e-01 4.846328060228225487e-01
-4.466774572026608985e-03 -1.136151708442874053e-01 4.767837490324083882e-01
-6.080183484093506369e-02 -1.118446079598548193e-01 5.189326028377116984e-01
-8.298140156739691742e-02 -1.064111267912425940e-01 5.133032142658715546e-01
-2.170119443252196967e-02 -6.814905620376543460e-02 4.425213666422997405e-01
1.052799710833030727e-02 -1.265116115390482188e-01 5.231332379394595389e-01
-6.681523698815083900e-02 -9.892810766463519534e-02 4.602305928699347848e-01
-3.525744719755853629e-02 -5.664738951813803186e-02 4.400295179977643523e-01
-4.864610215952656913e-02 -1.076724821162875628e-01 4.830264243621626985e-01
-5.940680994730198478e-02 -1.003955931508586780e-01 4.638608688730814222e-01
-7.633613677972504730e-02 -1.084817298924862783e-01 5.108029365245020381e-01
