-9.018887098641921451e-02 -9.020024890037341148e-02 4.597845301007435492e-01
-8.954408469060574915e-02 -1.051026315441192932e-01 4.999018163150176775e-01
-7.739927730072500289e-02 -1.009797154486824361e-01 4.704989546801475186e-01
-4.360873842519564364e-02 -1.113676443067159877e-01 4.931781029428151664e-01
-1.313625743538087039e-02 -5.821020822577368387e-02 4.402812953606953239e-01
-1.045946785794386047e-01 -9.493680280568825292e-02 4.783097812312651076e-01
-7.563642403289685956e-02 -9.239424737457062331e-02 4.494637932091258836e-01
-2.461851432171654336e-02 -9.328797996776666546e-02 4.567529017348619935e-01
-4.634816520527078841e-03 -1.242893870182827237e-01 5.337633824198063648e-01
-7.222565469522401749e-02 -1.083483133719899127e-01 5.020419642825475481e-01
-8.397402460691988368e-02 -1.061772533316480138e-01 5.048884741214374472e-01
-2.699563923191246329e-02 -5.291104100382934550e-02 4.403768766450359973e-01
-5.427777768767619304e-02 -4.828345379496734591e-02 4.392156677547391919e-01
-5.331452434927968359e-02 -8.075054157188078785e-02 4.388046519155516245e-01
-2.341890429930830464e-02 -1.184910018196884685e-01 5.027080496625990769e-01
-3.343694455580061009e-02 -6.023299933685506702e-02 4.408312057797293404e-01
-5.061320858541751289e-02 -1.124674866058010259e-01 5.043191948809123692e-01
-9.539440507399930824e-02 -9.043796835999406980e-02 4.638145948354905901e-01
-5.596424861695684788e-02 -7.585196247775755074e-02 4.357658881875081658e-01
-5.939843396184975310e-02 -1.068278935601362223e-01 4.848262598014104197e-01
-4.134366909485071712e-02 -1.144988411249270172e-01 5.045840121956455260e-01
-7.860065229355298055e-02 -9.582907397156974205e-02 4.592465611298834904e-01
-1.928889278142912819e-02 -1.000615939943148569e-01 4.615026462520298023e-01
-1.053675374817023419e-01 -9.453878930806912384e-02 4.796442707466545552e-01
-5.484636683322745981e-02 -9.736444845315973817e-02 4.597957036150956966e-01
-1.006309481189468086e-01 -8.867210415145818092e-02 4.691958436705265800e-01
-7.569420063778398156e-02 -1.000247375030520885e-01 4.672831405982146857e-01
-1.552047441660442569e-02 -1.001621226955957678e-01 4.609436619186718653e-01
-9.435440835350930588e-03 -1.081601301111567853e-01 4.692477007407380163e-01
-1.070378160747041951e-01 -9.920466434096546215e-02 5.019206300271332744e-01
-9.890660568348255688e-02 -1.016516286368110977e-01 4.891325815562397317e-01
-2.037347259763338039e-02 -1.044126659158058218e-01 4.673506392270146970e-01
-5.080578907374852515e-02 -3.535421434611550617e-02 4.404171407414564365e-01
-1.170776968222791287e-02 -7.655050574207836189e-02 4.458974505509653019e-01
-5.804991621327571655e-03 -1.115907628399941398e-01 4.739854778037136951e-01
-9.280461031682757378e-02 -8.362130772595774419e-02 4.624301184422329181e-01
-7.936684309889648070e-02 -9.895068564449839565e-02 4.660528743094197734e-01
-8.646151207718076603e-02 -1.053696232599480587e-01 4.965343197412390164e-01
-3.999931013036092664e-02 -1.159010555927033614e-01 5.229552560866777000e-01
-6.435906206129082818e-02 -8.376158540107596362e-02 4.332939409903982519e-01
-4.963483178268998652e-02 -9.726558465337692416e-02 4.607112982163547032e-01
-1.912622447499167169e-02 -9.193254871091287306e-02 4.540922952439863658e-01
-8.317616512427708497e-02 -9.105568626075850880e-02 4.535846370554170170e-01
-2.061412049044568373e-02 -1.164638998420006871e-01 4.915654952768951924e-01
-3.237866537225196628e-02 -7.905878096540941424e-02 4.461248083104997209e-01
-4.359265930528671840e-02 -1.147094580454896123e-01 5.115101012137079906e-01
-8.534041662446420484e-02 -9.152337734573379180e-02 4.552747542943313408e-01
-5.941528690774608434e-02 -6.654824604210697603e-02 4.350510024388755115e-01
-1.159043172696793723e-02 -5.671882870822052974e-02 4.398458340250446796e-01
-1.181688128424289962e-02 -1.176018479271251777e-01 4.880882304599481469e-01
-3.829555405894138898e-02 -5.928807252054275195e-02 4.404118696919469556e-01
-3.566976172967448178e-02 -1.057372191111702608e-01 4.761520768543691107e-01
-2.231208934703996991e-02 -1.140272828735672817e-01 4.874086344147764427e-01
-1.097586712508524798e-01 -9.209345128007370707e-02 4.873024460633615940e-01
-5.664520952044892199e-02 -1.005184550572387481e-01 4.658366960894332331e-01
-4.451477097758135132e-02 -4.189669779553906181e-02 4.383959683000287488e-01
-5.315213566101590487e-02 -1.130027383495092325e-01 5.209920804000577332e-01
1.009756563476611052e-02 -1.266709180351929531e-01 5.250880527998362801e-01
-6.090991796429010008e-03 -1.252228376817312583e-01 5.170840339849676059e-01
1.016532254038785520e-02 -1.258783141237268810e-01 5.367602884951818698e-01
-9.943296032256160322e-03 -1.199892156310909674e-01 4.941433516678135351e-01
-1.272776066087225044e-02 -6.644357445360009329e-02 4.423939913288063019e-01
-5.319899934417191001e-02 -9.598825023370867460e-02 4.575628180331981487e-01
-1.064011255650848531e-01 -1.000004623455923586e-01 4.992836499368170644e-01
5.953681419510006324e-04 -1.264391413603438152e-01 5.248085785639459155e-01
-8.758675104377906806e-02 -1.049521121808295598e-01 4.935679999988732969e-01
-5.743669296991512491e-02 -1.120840950970187488e-01 5.133661524549860689e-01
-4.084050220749495946e-02 -1.153255333861227389e-01 5.289357883176767361e-01
-1.709020383090477727e-02 -1.191319509151322065e-01 4.970145761851103572e-01
-2.545436183893864945e-02 -1.070553657471368658e-01 4.747255000867433017e-01
-1.070715324657052075e-01 -8.947145461601371808e-02 4.821175910874417880e-01
-7.617170380433013754e-02 -1.056980173334334250e-01 5.274519977628702172e-01
-6.952379447313182526e-02 -8.314892122950928721e-02 4.334257038349507152e-01
-1.211724688002619940e-02 -1.183477905896051507e-01 4.905064561412081914e-01
-9.616406990272464983e-02 -8.057608441701051560e-02 4.722785511644197465e-01
-1.047299698228917626e-03 -9.611353041057453528e-02 4.575130030293560468e-01
-7.415895395691014802e-02 -7.976935998206910461e-02 4.381852132307158532e-01
-9.739384905862447095e-02 -8.957114101698762654e-02 4.667358157898449100e-01
-3.296129474321402020e-02 -6.617074073393791611e-02 4.416653446924259652e-01
-3.393634049033931316e-02 -1.158229717899392219e-01 5.020528545883028437e-01
-5.046566955507790497e-02 -1.109484636397176649e-01 4.956843590099954122e-01
-2.883632873892091192e-02 -1.183758211741588462e-01 5.279704964634720499e-01
-3.044442514303892511e-03 -1.116380372506438207e-01 4.741070312655974450e-01
-3.461245408779229510e-02 -9.551554292140751468e-02 4.606525545942142252e-01
-4.353498472962423482e-02 -8.205845548163852310e-02 4.466565289260269189e-01
-7.521226763625768474e-02 -1.046851077503819921e-01 4.827039314917179191e-01
-2.154688675277161014e-02 -1.168140707185655880e-01 4.937957119823749297e-01
-4.475158638088111429e-02 -3.641270655292992708e-02 4.382884905440802559e-01
-4.338881616811112590e-02 -1.139046499950271962e-01 5.037324375864018489e-01
-3.351124931790316203e-02 -3.754497377666995289e-02 4.395065796212263010e-01
-4.656566132722120624e-03 -1.238469376589312609e-01 5.054955807631295039e-01
-3.422156510603302504e-02 -1.099352595623073331e-01 4.840437242486080316e-01
-2.585454571181074537e-02 -1.049689155750603703e-01 4.711992915694020456e-01
-4.191322663357240769e-02 -9.143959755852311411e-02 4.550942009539126198e-01
-4.974228054515361652e-02 -9.508285013414705111e-02 4.571750776543271333e-01
-5.387585411626302778e-03 -1.234955529480604025e-01 5.044579021212168835e-01
-2.954173590489123091e-02 -1.101700995995800597e-01 4.823301047262994468e-01
-3.419632469366697559e-03 -1.105949124556792479e-01 4.724826170116290247e-01
-2.042894168443524019e-02 -1.194568647912071929e-01 5.398958279335823729e-01
-7.650148900571995814e-02 -1.067342662058567287e-01 5.228411998547721762e-01
-2.891205428842603779e-03 -1.050003096742482406e-01 4.655929508291679619e-01
-5.980538918643989177e-02 -1.113121954555125331e-01 5.097167118445810052e-01
-5.749989751249542230e-02 -1.070497808322086603e-01 4.849797768244693552e-01
-1.636736484645457887e-02 -1.204553678897179597e-01 5.409490814986430696e-01
-6.101591894051075493e-02 -1.065924115430552377e-01 4.845204454349846812e-01
-9.274010957928600918e-02 -9.406874330284736851e-02 4.644514129748348874e-01
-4.312703727497504275e-02 -7.892508615669746597e-02 4.443145425700032458e-01
-7.937594343745901782e-02 -1.067482453826893024e-01 4.989613365817560098e-01
-4.917835420554476401e-03 -1.251218440679443267e-01 5.131977868460809722e-01
-1.019209703735791117e-01 -8.577716858983186476e-02 4.745432544073898695e-01
-1.945900398804461390e-02 -8.301729420223175060e-02 4.482278778226710392e-01
-7.013272403729260696e-02 -9.542308462687749959e-02 4.546541689891976934e-01
-4.735892655287170933e-02 -8.804160409177652635e-02 4.500817737554511089e-01
-5.847498941161440034e-02 -1.102626404052867021e-01 4.989289734515408581e-01
-4.932597307242586604e-02 -1.032983506696114190e-01 4.718774877187353889e-01
-1.385229739604269643e-02 -8.741150355178445297e-02 4.505988580970017865e-01
-2.647396083438472575e-02 -1.156683717244108428e-01 4.961309981542105785e-01
-3.365940447035763866e-02 -1.013660221990279470e-01 4.689418053552739107e-01
-8.671491632819762485e-02 -9.727888216652529063e-02 4.657069738042363127e-01
-4.222548152404728694e-02 -8.917279568455634131e-02 4.524958868348462615e-01
-8.919528765480050359e-02 -1.048885536188541717e-01 4.956354615891299109e-01
-9.655254898350272563e-02 -1.031358878463226325e-01 4.963125504590418791e-01
-2.896938409622326974e-02 -6.689111834454009031e-02 4.421448459167169887e-01
-3.242588488377182165e-02 -1.016894174915458776e-01 4.690734804159401583e-01
-2.188683431956535072e-02 -4.199510420103245989e-02 4.405579572196552385e-01
-4.136721533969447973e-02 -1.149717366505636218e-01 5.315056527493726701e-01
-3.934967672187957705e-02 -1.068379647112988190e-01 4.792132487298494947e-01
5.328875224040234559e-03 -1.264023946705570001e-01 5.194343760559206880e-01
-8.090725246199097220e-02 -1.053557065335942594e-01 4.888023930955944785e-01
-8.621486822922232174e-02 -1.021568858888777243e-01 5.245248151958366023e-01
-6.971230695308605618e-02 -1.034252816584527307e-01 4.760298478846088366e-01
-4.828871156167597462e-02 -3.011604474806755041e-02 4.388469914323255283e-01
-1.014633481483464550e-01 -1.006958502748361850e-01 4.889639370040311239e-01
-8.056768006854153619e-02 -1.069430448159525565e-01 5.044966273073686613e-01
-7.672599789419490279e-02 -8.960090094438680208e-02 4.451879739766654298e-01
-3.446447431888030599e-02 -6.066427370083029430e-02 4.408428467661336669e-01
-3.662846863047962420e-02 -6.580142350686193908e-02 4.413124817960881185e-01
-7.530862677420988374e-03 -1.236047080363020800e-01 5.066855477346874359e-01
-3.928005763034968928e-02 -1.149496229049186552e-01 5.371451561036371114e-01
-2.913547651578869691e-02 -3.260598648272127614e-02 4.396557934642359999e-01
-1.287002252403609583e-02 -1.090995890470415897e-01 4.714120103567466247e-01
-8.859125683338806012e-02 -1.021375771241160302e-01 5.213313097201125457e-01
8.589581305678916853e-03 -1.266814793805469685e-01 5.255968066074108158e-01
-9.148784303159660652e-03 -1.240224810387811349e-01 5.112031842933596471e-01
-8.781290652842961564e-02 -1.047790790798348859e-01 5.121945112195088745e-01
-6.303382681278078825e-02 -1.109298931244665914e-01 5.120334063859065532e-01
-7.192284646976096485e-02 -9.910845087897098005e-02 4.644809048282393937e-01
-6.809966351685432795e-02 -9.297256726435644547e-02 4.430697202365579956e-01
-4.459669522834888017e-02 -1.145430600698294638e-01 5.277823498220706178e-01
1.407276960963469055e-02 -1.254944501090048403e-01 5.368888600689430968e-01
-5.296641068242499001e-02 -2.231486578166045134e-02 4.439240446650433713e-01
-6.268172297025537132e-02 -9.368396708201806589e-02 4.471385858373609912e-01
-6.008790054595179037e-02 -6.169196224007064688e-02 4.369024009012177912e-01
-3.377550683359745176e-02 -1.108610831565427918e-01 4.862026646932691154e-01
-8.669684335946072073e-02 -9.277603351639800155e-02 4.575279724043806451e-01
-4.462121617274930618e-02 -1.148753505142874054e-01 5.215205289103368447e-01
-2.392563820523059201e-02 -9.057203690835972931e-02 4.538545198868749186e-01
-7.384465699730088928e-02 -9.493359935431823493e-02 4.547333414291648834e-01
-1.049664466351680064e-01 -9.850106121967912298e-02 4.878694161116617356e-01
-6.220009753892554588e-02 -1.101515583393797015e-01 5.028875918678332724e-01
-6.096468627716647437e-02 -7.592129265285446627e-02 4.333883832876102571e-01
-1.031640523594313102e-01 -9.900837233464336584e-02 4.856917692784546992e-01
1.824063826812730160e-03 -1.265752276922244568e-01 5.221516987418061140e-01
-4.318228035073502780e-02 -1.151354768852512200e-01 5.164753258964672744e-01
-6.232625259639369697e-02 -8.458841958330864941e-02 4.349964774692489655e-01
-8.052891875429032606e-03 -8.642900810906568865e-02 4.506407205701509766e-01
-5.747207640695669445e-02 -5.619947676608835069e-02 4.382758459854392274e-01
-7.872562650524041195e-02 -1.053390695652119541e-01 4.873906835456654485e-01
-3.766343533465339732e-02 -9.852062312060073934e-02 4.647511563102970089e-01
-5.001370876964369300e-02 -7.072313003782597363e-02 4.388007633842320732e-01
3.517825509131333912e-03 -1.265293826251976672e-01 5.254249611369790074e-01
-2.064309954531622429e-02 -1.211557048573988493e-01 5.144976300287874560e-01
-4.166454350293762043e-02 -1.090190735395650257e-01 4.859353561373824237e-01
-9.684513943015941873e-03 -1.049307393714154213e-01 4.654753344586451957e-01
-5.820197373024391801e-03 -1.066786608824580457e-01 4.673093952105001336e-01
-4.877425024591069275e-02 -4.397234817559673992e-02 4.389226709182804109e-01
-6.656748120669182811e-02 -1.084711363631532949e-01 4.963518685393537577e-01
-8.156568504571749811e-02 -1.049720326035711859e-01 5.216267526221506357e-01
-7.080949245018991478e-02 -1.064280596043117172e-01 4.891617257558807386e-01
-9.682322012527469490e-02 -9.753468985755849030e-02 4.728572208278776223e-01
-1.031183218509808541e-01 -8.648099873212582167e-02 4.757434086644196647e-01
-8.732949934056849495e-03 -1.199011596123285422e-01 4.932333545418795540e-01
-4.635264295255624861e-02 -7.360301332153827703e-02 4.408845264478636339e-01
-5.946471983561929520e-02 -1.046501292038932995e-01 4.763718792861112994e-01
-8.585378811174862457e-02 -1.034209426636981538e-01 5.207210253033913716e-01
-6.875009594772657495e-02 -1.004528790351720269e-01 4.674208359682021641e-01
-8.251158365128698213e-02 -1.065002429676435020e-01 5.094649548112997195e-01
-5.859570632821945596e-02 -7.516561371792464252e-02 4.338584769141669018e-01
-2.860399913759937088e-02 -8.086939245789953601e-02 4.470859095203699729e-01
-1.011111085443337498e-01 -9.773247157765169169e-02 4.776690216887536922e-01
-3.151463847520183381e-02 -7.711044453097166962e-02 4.453958961347469492e-01
-4.485800784153007315e-02 -6.598754746639930169e-02 4.399764971148257819e-01
-7.705172139358160144e-02 -1.076462075709836291e-01 5.146025095669227722e-01
-7.443198067185090305e-02 -1.071955682573697277e-01 5.242070147387234424e-01
-5.636533077465349234e-02 -1.045226996823574450e-01 4.754298453900420718e-01
-3.430063697547645896e-02 -1.111699011726039188e-01 4.873170293432206868e-01
-4.849146985252028585e-02 -1.140148073391233779e-01 5.220346944452139981e-01
-3.127839083607059090e-02 -7.195529168999870162e-02 4.432159126270394656e-01
-3.982826009920432953e-02 -1.028914173358864287e-01 4.715843937887242987e-01
-6.365885506795723736e-02 -6.924470960915943274e-02 4.355818210105161237e-01
-6.548770953916902005e-02 -7.521722391470181401e-02 4.333694694698742578e-01
-8.576733037294416440e-02 -1.057714244037676332e-01 5.056472881508858874e-01
-2.579326509226743600e-02 -1.194715971363684431e-01 5.201621704255718903e-01
-5.259291262278587009e-02 -7.499086698252561967e-02 4.378959517804434376e-01
-5.042908953122531707e-02 -9.586959312783835396e-02 4.581848917597092785e-01
-2.053784465763749609e-02 -1.148345419474843115e-01 4.874479019712606442e-01
-9.658908639529228957e-02 -1.033994884845742812e-01 4.993479875839714199e-01
-6.347660510499684994e-02 -1.002845031983913560e-01 4.658378818437982627e-01
-3.841694573900349130e-02 -1.121802015208129832e-01 4.926592865548655720e-01
-1.452134914873443039e-02 -1.033747371623224415e-01 4.641264687063471062e-01
-2.310428310402717553e-02 -1.184022556936001752e-01 5.416212269375663135e-01
-8.564929893580389142e-03 -8.242012480188720680e-02 4.486014356824142846e-01
-9.453377353505711123e-02 -1.040679628945576363e-01 5.034579119070234920e-01
-1.448984340936715007e-02 -1.188374623590421897e-01 4.932403381181255653e-01
-5.635870778113689916e-02 -1.085829299334512416e-01 4.895412218943869798e-01
-1.837616365008268651e-02 -1.037757447443800052e-01 4.653279579300664270e-01
-4.005008927216419101e-02 -1.157212895103668926e-01 5.140628295781838331e-01
-2.512141190650269557e-02 -1.191657235113153801e-01 5.316612257897622706e-01
-8.086258290986792635e-03 -1.215976712008710742e-01 4.981112711504302459e-01
-2.698484146186080901e-02 -1.091219093823988240e-01 4.794750524477312537e-01
-1.247570083797288135e-02 -8.016195628675745755e-02 4.472959185625053902e-01
-8.824097965257743370e-02 -9.563638333312760031e-02 4.638241896425222555e-01
-4.750989483690756798e-02 -6.085494249337824318e-02 4.385211983070034791e-01
-2.955420329769633050e-02 -1.181032435917685475e-01 5.115970351332099764e-01
-3.413271720603659048e-02 -9.567482258730430900e-02 4.608662781023086241e-01
-5.252266180707856891e-02 -9.233571742490964684e-02 4.508562610340511867e-01
-3.516762240274830947e-02 -1.038599957619259356e-01 4.727191318099435158e-01
-5.276575308237093503e-02 -6.871506599283273842e-02 4.365971549887162628e-01
-1.003214873857621869e-01 -8.236014929411003549e-02 4.770285848042793431e-01
-7.025866406471692471e-02 -9.270989664396538099e-02 4.443882826114512463e-01
-2.934776510575799139e-03 -1.132425489890784703e-01 4.765743569814635539e-01
-5.269157650518452307e-02 -4.350976174527147744e-02 4.400827549722978183e-01
-1.019579400267863062e-01 -8.358786638620435694e-02 4.781784245234725339e-01
-9.824795184339067677e-02 -1.024075608658291531e-01 4.939183236018840906e-01
-9.970529800024588440e-02 -9.700089012370487207e-02 4.742551843760198782e-01
-1.608474106776882143e-02 -1.185684381176822788e-01 4.938247035885156011e-01
-5.555469082400144032e-02 -1.056808931338626550e-01 4.791214492635366140e-01
-4.545032898683283584e-02 -1.136447100924658782e-01 5.053828802797648567e-01
-6.904932384862796924e-02 -1.062596053906231380e-01 4.872744119389713080e-01
-3.227586219418776547e-02 -1.046219771983148555e-01 4.733138403426545571e-01
-8.670997966174774640e-02 -1.055264150502377568e-01 5.087203795132130280e-01
-2.606555747612426463e-02 -1.083378375563541357e-01 4.775521401596822257e-01
-5.489780586405048485e-02 -6.877077786272116355e-02 4.355714309805389650e-01
-9.634052745204615964e-02 -9.017492796181199310e-02 4.653194188085493233e-01
-5.543823294797244061e-02 -8.803110609668368669e-02 4.438878385470723664e-01
-6.969135646922716698e-02 -1.061814068319187482e-01 4.872603631724872209e-01
-1.834064144418669912e-02 -1.198241419017680720e-01 5.017177044306184719e-01
-4.168199334707699960e-03 -1.216940045084303618e-01 4.969703249838060000e-01
-2.110711543929127965e-02 -8.075398733000144214e-02 4.471345932559006031e-01
-4.811852519758036406e-02 -1.141311216463924416e-01 5.186932853970782631e-01
-3.741346523148007808e-02 -1.134648396480507360e-01 4.959314389868861306e-01
-4.936980151034169734e-02 -1.127873789039581243e-01 5.318960731353294946e-01
-3.200304789974932340e-02 -1.176089390682836799e-01 5.137715060950134305e-01
-1.160355049598395770e-03 -1.049849093945935535e-01 4.656226087076787423e-01
-6.860632109735594064e-02 -1.010227825561905574e-01 4.688266963044187552e-01
-8.565343383085421980e-02 -9.008416091799632819e-02 4.541981868692266389e-01
-7.694984997646725500e-02 -8.946000445188585781e-02 4.452841824174378349e-01
-7.377098627609762760e-02 -1.002215282776081073e-01 4.675677737332601391e-01
-2.794067045145275444e-02 -1.116905895275912136e-01 4.857886054498463113e-01
-7.105063502515705787e-02 -7.808453469186807383e-02 4.350674262263733438e-01
-1.835813559352393598e-02 -1.216747316209982888e-01 5.129986948256211043e-01
-2.330239588088817149e-02 -8.502737034607821265e-02 4.492238468267473195e-01
-4.433709502130631086e-02 -9.969783822378609772e-02 4.656722032519231558e-01
-9.530779411938408718e-02 -1.011822341810976883e-01 4.809833507817463105e-01
-9.817129885821392066e-02 -1.029619359275948387e-01 5.034600473791180919e-01
-8.895390997839948410e-02 -8.931792620295048168e-02 4.571935804134537040e-01
-2.976305416840064819e-02 -1.174353287996067058e-01 5.365554406116389563e-01
-9.467379336975006998e-02 -9.884140176147387935e-02 4.744640997730655840e-01
-8.315594012539109792e-02 -8.476618250638796870e-02 4.505566520025826582e-01
-1.381950048172920879e-02 -1.080021004126234391e-01 4.701219408408575107e-01
-8.873162080055700673e-02 -1.051264799787254983e-01 4.978928747978642044e-01
-7.805916785067930352e-02 -8.887774157950449616e-02 4.462285050135600950e-01
-8.811323962269684840e-02 -1.043144759730971899e-01 4.895590632580330004e-01
-4.706416518223290740e-02 -6.720167502249270453e-02 4.394996693679321109e-01
-6.644031470825861874e-02 -9.053915039582355329e-02 4.400495163508470475e-01
1.187444449255320791e-02 -1.260623400766280322e-01 5.350217783224398005e-01
-6.993025693505620921e-02 -1.083703910248025870e-01 5.253417679831210441e-01
-4.056866224529796089e-02 -1.132551813216576830e-01 4.975596859019138507e-01
-5.723764669709648090e-02 -1.118472890203118797e-01 5.105262820533187362e-01
-8.757004993365453960e-02 -1.054024011861998539e-01 5.046268263309378055e-01
-7.582932644698576335e-03 -1.149429956954885895e-01 4.797139666107366751e-01
-3.405856297365930652e-02 -1.153111529032070787e-01 5.000438365698695042e-01
-9.245255249056751751e-03 -9.576271847074477317e-02 4.570266418667165431e-01
-9.858930784480583048e-03 -1.243551380828831349e-01 5.169922952647910686e-01
-9.227769109263608827e-02 -9.433429966037633341e-02 4.644842247460367890e-01
-3.626161752218900330e-02 -9.156283403780481056e-02 4.556519430835462847e-01
-6.778463806465222230e-02 -7.393785909729322370e-02 4.348255258443968208e-01
-9.366982107941392022e-02 -1.043232918126439090e-01 5.031595366437939809e-01
-6.387539344669038166e-02 -9.196338087807573447e-02 4.432359608919059224e-01
-8.445981290863241453e-02 -7.627457994187827883e-02 4.576526870574324501e-01
-8.046380870270524593e-03 -1.247297670732659680e-01 5.242615370855415735e-01
-2.950273077403207239e-02 -8.610680127026459907e-02 4.506617155979207867e-01
-4.620231582532382392e-02 -1.103063958722918098e-01 4.913199372551498856e-01
-9.361838164267186069e-02 -9.836394333765000053e-02 4.725234817201384718e-01
-4.463095280121912728e-02 -1.140213731224687110e-01 5.072471558886816334e-01
-4.745440411993686464e-02 -7.850063100359083723e-02 4.423128917173167474e-01
-2.391413972907823621e-02 -1.196544434960061798e-01 5.111094505616946559e-01
-8.129041287785097880e-02 -1.043336978991278585e-01 4.835169134581118189e-01
-7.348961441868512301e-02 -1.055623552225311845e-01 4.858073181269639829e-01
-6.724429042344076679e-02 -1.094483432106260756e-01 5.237758232779388123e-01
-6.752896367271586653e-02 -7.719426291214109837e-02 4.329571192584209527e-01
-1.546238977484051119e-02 -1.226176390187456305e-01 5.227719745060455114e-01
-2.063931223826695471e-02 -1.139198370637485302e-01 4.854291659209580834e-01
-2.980091238732794287e-02 -1.182697794888105669e-01 5.157752309449190609e-01
-8.583481238992986262e-02 -9.992696345380512601e-02 4.713574077392019279e-01
-2.758170838794590796e-02 -1.126914205600575147e-01 4.882097143358524738e-01
-4.525418942696192437e-02 -4.253280287428719275e-02 4.384960792820167819e-01
-1.302167015640753184e-02 -1.088691704557518264e-01 4.711073056486324018e-01
-5.666558392454586895e-02 -9.995417006789551750e-02 4.646874769729749111e-01
-4.506820673137647282e-02 -1.003986656598789690e-01 4.665626865762798059e-01
-1.723311114321609411e-02 -1.168335404929093380e-01 4.891199586045307246e-01
-6.279899649378152537e-02 -1.111399554351895497e-01 5.170061918981566640e-01
-6.337475410204196358e-02 -7.580770064021423449e-02 4.333197620481725743e-01
-4.674405348547963635e-02 -8.317159425738425427e-02 4.465743021846840244e-01
-1.947105699469862256e-02 -1.034667151953664460e-01 4.654620778364481071e-01
-3.375477129938454779e-02 -1.093439876854229720e-01 4.825383723771137223e-01
-1.522097771905925497e-02 -1.219517017247965657e-01 5.345716460332301523e-01
-1.117866270244251281e-02 -1.094389666225092234e-01 4.715262324605649646e-01
-4.276218336012572313e-02 -1.153297253139923539e-01 5.179023416927246437e-01
-8.788260476398288001e-02 -9.030936729330961421e-02 4.566525538271656304e-01
-3.718667787920513362e-02 -1.165366234605773876e-01 5.234625630458763501e-01
-1.001919046290453141e-01 -1.023036816992611425e-01 5.027377787072816462e-01
-2.448978573041471485e-02 -9.402172320222558499e-02 4.574975204362882186e-01
-3.726435137359466326e-02 -1.162663093204634873e-01 5.285959345428282719e-01
-7.447699209489894168e-02 -1.075952799892801043e-01 4.991613948762917974e-01
-6.840643489300668456e-02 -8.264373063382517148e-02 4.329981273287499821e-01
-1.964513405103298499e-02 -1.133869191259221781e-01 4.834496309321416052e-01
-2.761300764202077873e-02 -1.185174905084808855e-01 5.310729872747242952e-01
-9.013745779474967301e-02 -1.049561450865240109e-01 5.054364757227788330e-01
-8.320541580597019815e-02 -1.001444759713937399e-01 4.704339311935694656e-01
-5.493920458653121092e-02 -4.365747306004864187e-02 4.404322492477463213e-01
-4.367158119125468668e-02 -1.147637154520237540e-01 5.127729473398713322e-01
-2.494625430487625029e-02 -7.380434701771573791e-02 4.442316940997429464e-01
-6.396815080280962573e-02 -1.083096765715669679e-01 4.935995074242763847e-01
-3.091237606846643574e-02 -4.917549368030273149e-02 4.404603402439761228e-01
-4.795229282619331568e-02 -7.655717045042174929e-02 4.412732170894239081e-01
-8.943954460187182598e-02 -8.298033106575382345e-02 4.583216332116031855e-01
-5.395605102473031295e-02 -4.151624258541076334e-02 4.406478026661073133e-01
-1.723992817591173468e-02 -1.140741056581822954e-01 4.828145664874691212e-01
-2.925676633923970926e-02 -1.029441629087750193e-01 4.694310915858206923e-01
-6.963605024237007335e-02 -1.088532155225310355e-01 5.029091035198987036e-01
-2.045419705257327594e-02 -6.519399681178879302e-02 4.421103614246392755e-01
-5.466342570413456475e-02 -7.901565362961067429e-02 4.372482005380772807e-01
-5.161513027246936169e-02 -9.164445679031876790e-02 4.505941707783640560e-01
-1.435585998665225502e-02 -1.228750242934179421e-01 5.244689994903303232e-01
-9.034944421023868855e-02 -1.044759737504189212e-01 4.941883215426025600e-01
-3.696910900101611774e-02 -7.513112961237670973e-02 4.438508357195195542e-01
-2.502921232592746070e-02 -7.089451412124622709e-02 4.433370302163978649e-01
-7.455736530028081455e-02 -1.014762485550996379e-01 4.714888446337308081e-01
-8.123667743515158857e-02 -1.029643381939092661e-01 4.779591256854457404e-01
-6.628276594289325696e-02 -1.056208007378557218e-01 4.823345708144708421e-01
-2.216188903398263674e-02 -6.841978348295250922e-02 4.428574048163185783e-01
-7.874930571536153945e-02 -1.042805229924191335e-01 4.822999685107024481e-01
-9.108931292262495427e-02 -1.018058542680710526e-01 5.197280188249394639e-01
-3.291906938140675559e-02 -1.135474497908608299e-01 4.937044002443836677e-01
-1.892161742729096124e-02 -1.145180247819761743e-01 4.852012219050824693e-01
-9.184030135219062307e-02 -1.042331119976152159e-01 5.092467021783946279e-01
-7.926059412196210380e-03 -1.185970655121779266e-01 4.889986502719112504e-01
-1.805147815771588823e-02 -1.218800171505971253e-01 5.213713521058139788e-01
-1.937333058063494054e-02 -1.196349047608792626e-01 5.408504607300417266e-01
4.303344278924266676e-04 -1.258686679089207616e-01 5.320614619241866849e-01
-8.147099066238315535e-02 -8.970687502554414161e-02 4.503774184841513040e-01
-5.126386624992511354e-02 -7.656854874770810393e-02 4.389201115047827173e-01
-3.478995593737222586e-02 -9.792351725842624033e-02 4.639788308919753912e-01
-3.552729049006387446e-02 -3.209062137215187155e-02 4.384265242490595904e-01
-3.786538322564276821e-04 -1.043845505550932834e-01 4.650352000891514459e-01
-1.763781164553436184e-02 -1.213687329580614427e-01 5.334199429304160578e-01
-2.217953866413527667e-02 -1.177643868837092711e-01 5.451567401453473183e-01
-7.062724159259277379e-02 -1.013692849491005105e-01 4.702543411217154912e-01
-1.404532586186152052e-02 -1.134976521907586910e-01 4.791493616746545503e-01
-6.218724684677157111e-02 -1.096784800557524253e-01 4.996380330553312765e-01
-8.800894939910512693e-02 -1.032850929883645380e-01 5.184783458886278451e-01
-8.628241197203845303e-03 -1.231766197754844971e-01 5.054515749206770492e-01
-9.715918836916359602e-02 -1.033089538825677223e-01 5.068202597545500288e-01
-3.919540146975172834e-02 -6.329185432386887078e-02 4.408109383210074839e-01
-5.767381227769007718e-02 -6.217533075723567781e-02 4.359609691318749314e-01
-3.171517609340587102e-02 -3.917977466556426397e-02 4.400268067773309699e-01
-8.468014515138688747e-02 -1.048082029694186318e-01 4.880630415922282972e-01
-5.416975281376211482e-02 -9.040826603616021473e-02 4.482709350811083793e-01
-1.513667376432585414e-03 -1.262583216810913844e-01 5.241914400426670451e-01
-3.117683890899630023e-02 -1.179771826082757213e-01 5.204246245429442475e-01
-7.063639257468080912e-02 -8.259983758352489047e-02 4.343475224475237817e-01
-3.477509653950702773e-02 -6.350485362282916324e-02 4.411485235567991769e-01
-6.578703912625807892e-02 -1.091506304745574335e-01 5.008113147322968972e-01
-5.230480073248719615e-03 -9.241687500263337518e-02 4.543776165423184521e-01
-8.625855056415121513e-02 -1.053425036219952649e-01 5.118809416916101362e-01
-6.027339269971416363e-02 -6.162032598384530047e-02 4.369908043969708000e-01
-8.689244444062259320e-02 -1.030705107683151933e-01 4.812871191290579165e-01
-5.047550145035210184e-02 -1.131393174133037832e-01 5.104239300748040220e-01
-1.499599517879653642e-02 -1.084462973880972458e-01 4.712865048109403099e-01
-4.652911905196120690e-02 -8.833296470309591475e-02 4.506632868118916058e-01
-3.060701973036454582e-02 -9.539381341899855205e-02 4.602250536337171294e-01
-4.752776591963155106e-02 -3.661499278097096050e-02 4.388034938518650119e-01
-1.683877710862026825e-02 -8.052640099792122974e-02 4.472871562712491533e-01
-1.502028289260640311e-02 -9.476234584433208818e-02 4.560363350940971894e-01
-2.494795962284937496e-02 -1.161922528316570447e-01 4.965536387469527968e-01
-3.263627457765558293e-02 -1.161662346442899757e-01 5.400748909164123646e-01
-6.196981481143638837e-02 -1.089094560449723192e-01 4.948797554606041982e-01
-2.651054170057599857e-02 -3.774891962140055485e-02 4.404999003079422826e-01
-9.623093943219299118e-02 -8.083045495216296950e-02 4.719244813238698266e-01
-5.554515137273905584e-02 -1.099050950579428393e-01 4.946610786932627013e-01
-4.841619080578284107e-02 -4.128498370718618887e-02 4.388866339800029936e-01
-9.330050220149073426e-02 -1.034034045312594435e-01 5.119802027657557320e-01
8.191985967930113383e-03 -1.257267562531303728e-01 5.158016679431942642e-01
-5.048307059782819461e-02 -6.549740947710837313e-02 4.378781387259990665e-01
-6.334030111152549013e-03 -9.671652590269998184e-02 4.580031765843443070e-01
-6.341615057986262072e-02 -1.059125991280812223e-01 4.824480826880033213e-01
-8.062641459157511570e-02 -8.476004026421320170e-02 4.467882957594406790e-01
-7.010104141758521923e-02 -9.612074792782750177e-02 4.564346720472490238e-01
-4.415251985945255198e-02 -6.013689262089046833e-02 4.394922184218733596e-01
-4.540523901172324045e-02 -8.467925463162967459e-02 4.481385445063407191e-01
-6.219355208354333808e-02 -1.037378844470806111e-01 4.746426033801469657e-01
-1.373213219507129872e-02 -1.004738389116410363e-01 4.609732660148865291e-01
-2.663518573947908086e-02 -1.104287135410703252e-01 4.817288161108912448e-01
-1.092327272497978230e-02 -1.203365598166710321e-01 4.956107569987888706e-01
-1.723855159796877992e-02 -9.627047089181851869e-02 4.575455442847907728e-01
-2.411052707178709675e-02 -5.871154016906817569e-02 4.408944247354019685e-01
-1.078281060630162901e-02 -1.043947501540539585e-01 4.649312162494212974e-01
-3.647670069946487570e-02 -1.151795310247103743e-01 5.023214096256203298e-01
-6.514149312331572739e-02 -1.082071377501395842e-01 4.939999760687990848e-01
-2.942767320870978438e-03 -1.260314075832603131e-01 5.232806167705963407e-01
-5.290355389569547512e-02 -2.477218103177762989e-02 4.425712929381540039e-01
-6.989390732127838401e-02 -1.075450504571399540e-01 4.943372020714003057e-01
-3.887636628860318549e-02 -8.323623340118167790e-02 4.484091595275626618e-01
-5.654247859489344719e-02 -8.987278843968449227e-02 4.452047371823040778e-01
-1.435014127231811973e-02 -1.222210207575493146e-01 5.085000852046703823e-01
-5.674185571056509364e-02 -1.046943282892095206e-01 4.760237158796459256e-01
-6.438021038805674667e-02 -9.081965153724273765e-02 4.411427784536345875e-01
-1.180331987017240597e-02 -7.930958261873699566e-02 4.470057982359454396e-01
-8.005810721960489318e-02 -1.054673701178640011e-01 4.890532839915259222e-01
-2.891617948176397959e-02 -7.644404671738681822e-02 4.452788012208640511e-01
-2.805363137311654188e-03 -1.256087139237417050e-01 5.137249976297233456e-01
-8.317746922104107821e-02 -1.042410922642073162e-01 5.220447115364649227e-01
-5.852903244833486396e-02 -6.666188674462183994e-02 4.349011170446833163e-01
-4.840970885948539526e-02 -1.059643702414794775e-01 4.794908430153833612e-01
4.362735186482702941e-03 -1.265418608980123372e-01 5.234523697000040832e-01
-2.587538380612581027e-02 -7.764995411843968187e-02 4.457839212626588665e-01
-1.152511499003523732e-02 -1.125993667988660907e-01 4.766602635311307790e-01
-1.549158214279446229e-02 -1.151522204908101005e-01 4.836262713322652673e-01
-5.336901009869357559e-02 -2.779188546725804357e-02 4.464577173003155819e-01
2.658156330895757036e-03 -1.265900966477720990e-01 5.228328761924257995e-01
-7.668773081968670823e-03 -1.183342302068621510e-01 4.880939329089877265e-01
-9.303047782368675800e-02 -9.611296134014525594e-02 4.676570612863978904e-01
-7.423676554914789005e-02 -1.046699914913980095e-01 4.823400963257318264e-01
-4.301655348256792910e-02 -4.064522484458519408e-02 4.383608252031652719e-01
-1.296665227212178383e-02 -8.587816349173713060e-02 4.498119695148880548e-01
-8.907576222672400346e-02 -1.032024025507219667e-01 4.839537736115743782e-01
-6.456708592346253883e-02 -1.093585812424171105e-01 5.007192659786030564e-01
-6.729526274381780748e-02 -1.101689189518418044e-01 5.154484893760556963e-01
-1.004302951977469743e-01 -1.010499818224761953e-01 5.092667763453060381e-01
-7.176274919619640702e-02 -1.040473313987913678e-01 4.792055023523452695e-01
-1.679632329946428165e-02 -6.308970580256630101e-02 4.416268719758984496e-01
-7.771689062330598696e-02 -1.015632227601293153e-01 4.723710522793043154e-01
-1.978085989246348986e-02 -1.127792940932868110e-01 4.822926313357587258e-01
-4.896089424032725596e-02 -3.685702373894119560e-02 4.393636944470897809e-01
-6.688964955360537923e-02 -1.053154741058077853e-01 4.811132980012182148e-01
-7.091832534134009762e-03 -1.176642158777539693e-01 4.860445132076418040e-01
-3.324317758467104644e-02 -1.168467579315626559e-01 5.343563276150746777e-01
-3.630446038157812694e-02 -1.025825335883735479e-01 4.707130155878381794e-01
-3.576813787686124180e-02 -1.137540552235759422e-01 4.958472545271340737e-01
-2.200996427308930629e-03 -1.215765505238899091e-01 4.961839946225085618e-01
-5.876680101488819530e-02 -1.119859262974224473e-01 5.185723444962445638e-01
-3.336381326426316601e-02 -6.863252921086766822e-02 4.420363771216068716e-01
-8.273036042332979068e-02 -9.798161806044444755e-02 4.651162061394617520e-01
-9.078145234087946214e-02 -8.193425240450175062e-02 4.609543810226980343e-01
-7.998449818017322466e-02 -1.070050746439923511e-01 5.123750683714639598e-01
-1.323819894130489477e-02 -1.222005275687175624e-01 5.064691477327892821e-01
-3.667357485009423851e-02 -1.162693327238660812e-01 5.303124157201350997e-01
-5.995410203135020932e-02 -1.107782094196826800e-01 5.281610302944017565e-01
-3.813794520736742133e-02 -1.025475390056497516e-01 4.706872740215020112e-01
-3.915812999376877546e-02 -9.969560347637262954e-02 4.663938141421747341e-01
-9.016570717337521468e-02 -8.177443725196040236e-02 4.601403683187637594e-01
-4.783678822946372394e-02 -3.986833387964074105e-02 4.388210796609194886e-01
-9.256460757728141031e-02 -9.526311058258711550e-02 4.660574436384677943e-01
-9.018061767655367877e-02 -9.213740230664577147e-02 4.613284102255531538e-01
-9.954951077185286712e-02 -9.801795994137205148e-02 4.765306982634938682e-01
-1.496291291887879606e-02 -6.609791094436595627e-02 4.423205144239615860e-01
-7.023440356267381113e-02 -9.426182826635659540e-02 4.506133913439195893e-01
-2.615221996042437630e-02 -1.169545714079975457e-01 4.994578091776874507e-01
-1.089882205728819886e-01 -9.516312011893925116e-02 4.942922853480654632e-01
-6.209459686604289902e-02 -1.112879260651071234e-01 5.172204614767842434e-01
-3.370989389665234731e-02 -4.220399477806194982e-02 4.399305311566410470e-01
-2.448689889565486277e-02 -6.684837962877379636e-02 4.423942600380713630e-01
-6.784997956044744316e-02 -9.410643943160519609e-02 4.442996531203159960e-01
-5.532875967736072126e-02 -1.095320232490928636e-01 4.928537757587047041e-01
-4.908017506338024222e-02 -2.927908259574907301e-02 4.391147152662058795e-01
-2.146299172952155498e-02 -4.040132205746009564e-02 4.403196211320946629e-01
-5.814699348669474105e-02 -1.120554680218231736e-01 5.213050993049961335e-01
-2.140980870968251654e-02 -1.208537496854148741e-01 5.152472711163533781e-01
-7.804615262184740054e-03 -1.240348929926580468e-01 5.315859322144398380e-01
-5.056610792846870372e-02 -1.129926451821927219e-01 5.091011624403226632e-01
-2.678430880178190449e-02 -1.002203530884116234e-01 4.648587476673958219e-01
-4.415156557436506618e-02 -1.044953307988132490e-01 4.750788174635265926e-01
-1.075429181826586672e-01 -9.198577163832227788e-02 4.821004953061153731e-01
-5.697160286818300778e-02 -1.015571101003229365e-01 4.681820689563431781e-01
-5.350724955823894791e-02 -9.759310396080403405e-02 4.604627501296703063e-01
-7.059106154012509404e-02 -8.847744686220644639e-02 4.387180364787125475e-01
-3.567488070931382899e-02 -5.652142296128653820e-02 4.403240396196724249e-01
-9.083825254030232499e-02 -1.038241091055728121e-01 4.901537941567520318e-01
-7.406483249156106674e-02 -1.070166316415906010e-01 5.257143593909312518e-01
