-5.181592739424903393e-02 -8.106421115821944856e-02 4.408164723381300942e-01
-1.097271661681911009e-02 -1.168446053875168283e-01 4.855730048276800659e-01
-2.221363536116797641e-02 -1.072717394884292463e-01 4.735831221981997574e-01
-4.679652628803634279e-02 -8.180709442539021992e-02 4.461848269650300902e-01
-9.289959476318676579e-02 -9.596722944315988491e-02 4.685441465140972039e-01
-1.065482492571784290e-01 -9.503912721445849365e-02 4.844372575921067625e-01
-6.720438836677447569e-02 -1.095232898883514994e-01 5.076788281737184549e-01
-6.697690443388916448e-02 -8.668466009354368340e-02 4.364192077659445057e-01
-3.126023218234059986e-02 -4.259225923997789209e-02 4.404107011229015378e-01
-3.232397420212917288e-02 -6.805426126232265449e-02 4.422810361548387137e-01
-1.266016938478558077e-02 -1.234130376955844127e-01 5.232940165567961932e-01
-6.036184097688148537e-02 -6.238685379715993434e-02 4.368449031018409312e-01
-3.283805289627114016e-02 -1.174733769776333953e-01 5.213146017406947719e-01
-1.797484291046783783e-02 -1.008910868641305497e-01 4.623687144658154002e-01
-2.330045541229552181e-02 -7.048470199768064326e-02 4.434788704324407194e-01
-3.390872544542502393e-02 -9.890611509356754538e-02 4.657799729943912781e-01
-5.008254636083627614e-02 -9.742329972163352170e-02 4.617659135662365855e-01
-3.685195932916605910e-02 -9.367899526624652584e-02 4.588473189886222436e-01
-7.164516783469188077e-02 -1.060778295394686072e-01 4.897104500440692121e-01
-5.838011274085345287e-02 -1.085028694488731765e-01 4.915142452211424540e-01
-1.015822514498091605e-02 -9.118785720216258939e-02 4.535057306611820493e-01
-9.979260865869163388e-02 -1.010569959424653386e-01 5.097035940148463284e-01
-1.716190859917660072e-02 -1.199530425033591002e-01 5.007460163700440114e-01
-3.586270553348141349e-02 -1.158207660826496010e-01 5.055428440791335243e-01
-5.512186090381878539e-02 -8.740148380848283827e-02 4.447557947862175731e-01
-1.042584709402407939e-01 -9.973946152483650907e-02 5.076402990914256064e-01
-4.631785298820873670e-03 -1.199688107942880194e-01 4.924751275816311447e-01
1.463837972420751511e-03 -1.216650311718148608e-01 4.967689684652521476e-01
-8.308988652167625943e-02 -8.674976521865984669e-02 4.512877665294324214e-01
-4.399306846927019538e-02 -6.349993627772146376e-02 4.402075292754686342e-01
-1.302773230953729357e-02 -1.233967280858340176e-01 5.168216577593165439e-01
-6.552558810111278054e-02 -1.006827310707292256e-01 4.686975629460450321e-01
-9.483379707038501472e-02 -1.013054409065921591e-01 4.830333144208611706e-01
-8.156383191311918079e-02 -1.033549595724405773e-01 4.814530382491048477e-01
-4.189512649146838463e-02 -1.028352952520325131e-01 4.720550971172470800e-01
-9.049616607763889820e-02 -1.038911278263252719e-01 4.931385867120875455e-01
2.070077961941962745e-03 -1.236052548633140291e-01 5.029216158136210479e-01
-6.406863561028938725e-02 -7.619641756472742000e-02 4.336045292373307825e-01
-6.317549322718932214e-02 -1.096575134232140591e-01 5.026705840002538839e-01
-3.903315671681408666e-02 -4.625743751718031788e-02 4.391860445452359096e-01
-1.246025999265576792e-02 -8.315128767812808575e-02 4.486737794844825045e-01
-4.082313731744285912e-02 -1.147822440610786199e-01 5.073281350293860070e-01
-2.100696667107670307e-02 -9.343489401308045783e-02 4.561395443491974011e-01
-4.791280116421692270e-02 -8.770661900808426892e-02 4.502718687077644222e-01
-3.720429269538983591e-02 -9.251122945572648471e-02 4.573509877356157771e-01
-8.542054126049275498e-02 -9.794814935044379722e-02 4.679230966794805657e-01
-4.109039253188497692e-02 -3.747647223783529685e-02 4.382805706371865617e-01
-5.180560464111987062e-02 -8.340892376783066997e-02 4.430372286256599734e-01
-7.333314653559513951e-02 -1.003523709345897214e-01 4.695252605993867068e-01
-9.230090540305387059e-02 -1.003764115894834746e-01 4.779871902286438878e-01
-7.031844775278217607e-02 -8.011857983351879098e-02 4.345171991240316389e-01
-6.573732252388048147e-02 -1.089280087397398455e-01 5.012345439021639315e-01
-1.649959354320498089e-02 -8.677091374980447358e-02 4.503627582405579921e-01
-8.752078871494968493e-02 -8.371814410315152333e-02 4.546664359464857030e-01
-1.687061843491978463e-02 -1.215726561958319490e-01 5.335887208119546310e-01
-8.142443334091406526e-02 -9.222765411219760456e-02 4.555367735418697772e-01
-6.543979449070758125e-02 -1.063153975465030709e-01 4.871502728370016855e-01
-7.531910714074679936e-02 -9.989594994208976508e-02 4.685485409931898770e-01
-8.931169876037031718e-02 -1.041967931781462575e-01 5.113530103805646876e-01
-9.623433699369902949e-02 -1.020278534385809649e-01 4.897571082876991944e-01
-9.990992401081899218e-03 -7.454817632803255323e-02 4.453658211829034652e-01
-5.092330049312233931e-02 -9.126163264668543662e-02 4.515132313192393720e-01
-7.796887869936651753e-04 -1.169968142455546506e-01 4.842334182166893042e-01
-3.894883702855114066e-02 -4.295855430689467930e-02 4.389768693429792479e-01
-4.165532585502070700e-02 -1.116258321066347370e-01 4.935086127806890266e-01
-6.040642440704933891e-02 -1.111122152003035102e-01 5.111900702138799657e-01
-4.050344338409189726e-02 -9.386945842998752065e-02 4.591311432591050901e-01
-9.667432019173083368e-02 -9.877179304144066696e-02 4.774322879717597945e-01
-5.253056158131173131e-02 -7.703387865483336816e-02 4.389377033285599694e-01
-3.170439331276316691e-02 -1.082880767680280132e-01 4.800086823896604904e-01
-6.714840652485699890e-02 -1.081708699278620539e-01 4.970074921000837143e-01
-5.984374612280787820e-02 -1.021129011153195515e-01 4.710663041586423128e-01
-1.983909229210099184e-02 -7.759982228738930565e-02 4.459458478928572389e-01
-8.182059989434897762e-02 -1.063174014935221734e-01 5.113766587952042197e-01
-7.465476984129638949e-02 -1.070123601621594117e-01 4.975704916837871972e-01
-5.911426080404937056e-02 -1.108011493997182878e-01 5.057006328009310270e-01
-1.580343621970657642e-02 -1.223449260340161021e-01 5.130497556599414866e-01
-2.230301345180036449e-02 -6.556027159815666638e-02 4.423537339358613596e-01
-7.814279725414385869e-02 -7.909078443552793047e-02 4.434638192034863757e-01
-1.059283340074203689e-01 -9.459850505251192476e-02 4.818427013101181933e-01
-1.208469370582226574e-04 -1.261901601684878860e-01 5.288172518591870430e-01
-4.400714501783825616e-02 -3.734755594695503972e-02 4.383978250860551262e-01
-1.821911910951751895e-02 -1.070464119047411788e-01 4.708840609487827122e-01
-8.240065641936909768e-02 -1.036850621288168267e-01 4.832234283023448818e-01
-9.717573685508953951e-02 -9.244697690289427339e-02 4.672804135504515788e-01
-5.978740909042834506e-02 -1.104925270515572655e-01 5.040166127392737838e-01
-5.408858793999461040e-02 -1.124731156990081693e-01 5.245415043866067384e-01
-3.078958563704108260e-03 -1.238682526426912456e-01 5.045043334290936210e-01
-3.948522626488846360e-02 -1.154613009941869162e-01 5.104746687803792815e-01
-9.147346516143409212e-02 -9.695497456208042319e-02 4.695708174266692847e-01
-4.882938022755586860e-02 -1.066909535051930036e-01 4.826520347323248195e-01
-5.931283525683365976e-02 -9.564506457301062692e-02 4.556387828465550682e-01
2.937682010714814940e-03 -1.252940723398384415e-01 5.107153869692016013e-01
-3.812967095957419100e-03 -1.083690052177745666e-01 4.692401053039094716e-01
-2.948779708195476898e-02 -5.009742336278785041e-02 4.405659249972763147e-01
-1.027693008102828071e-01 -9.565832684469850744e-02 4.760807812774731640e-01
-5.104269958050657030e-02 -8.996646598728012811e-02 4.503182484797642604e-01
-7.358376981241407377e-02 -9.627055455922711724e-02 4.594217336990770728e-01
-1.802070499416008956e-02 -1.219206891633263512e-01 5.160447762826995133e-01
-1.889970337180184659e-02 -1.110325488832150653e-01 4.781169275033666510e-01
-4.905323339944658162e-02 -9.842459073670473124e-02 4.635892867836758358e-01
-2.887814320033479584e-02 -1.185173740702049339e-01 5.213993651379790206e-01
-8.679546984937490384e-02 -1.026393023102802060e-01 4.814321828174378815e-01
-9.634063150596067215e-02 -1.014062404055875999e-01 5.145426866835262070e-01
-5.699632146770631375e-02 -7.681499139829148226e-02 4.360121354041400221e-01
-4.535323879650897394e-02 -5.368190813610929091e-02 4.391750046765943716e-01
-9.783817934637498159e-02 -1.020222045913840719e-01 4.931789583645405650e-01
-5.294212374144174199e-02 -1.123265852356448574e-01 5.092155615844164984e-01
-9.311401301068789049e-02 -1.005028923647339201e-01 4.789570022020988582e-01
-5.547604589514235768e-02 -9.653753931908508334e-02 4.588496702860463961e-01
-5.108846961584110474e-02 -1.107498389288191637e-01 4.964008384316984657e-01
-4.800560544595012386e-02 -4.280236454053223255e-02 4.389823993471365648e-01
-1.675185027105002139e-02 -8.683012661341479865e-02 4.503873514061415562e-01
-4.022725808310833456e-02 -1.057838004429655226e-01 4.777688218771722339e-01
-1.707262011535792476e-02 -1.144614522473522966e-01 4.836629040715029193e-01
-5.965985688556837974e-02 -1.113506068012444228e-01 5.122872478397032525e-01
-3.137639558262075856e-02 -9.669955886519590593e-02 4.624865073611115762e-01
-3.248068000300044934e-03 -1.139852845136345161e-01 4.778965076612450291e-01
-9.109372010480921988e-02 -9.805227644639832874e-02 4.715424455223030109e-01
-2.304487739449290543e-02 -9.049362176244925282e-02 4.537960194634513833e-01
-9.934834488584047552e-02 -8.097230983970640783e-02 4.769620265249760460e-01
-8.077449420577215156e-02 -1.052877226806093053e-01 4.911086305219181658e-01
-2.021767185252857854e-02 -1.206081708277137454e-01 5.094727640015943582e-01
-3.215097941476033339e-02 -6.920775692954034275e-02 4.425108792821244030e-01
-2.566336948290792730e-02 -8.675968860931611293e-02 4.510781280844337604e-01
-6.008886537786458336e-03 -1.250359686200093745e-01 5.279168164557884735e-01
3.860522963056324704e-03 -1.236350698640845264e-01 5.034143063509746163e-01
-1.389472111004239063e-02 -1.229393924201963445e-01 5.256968616374824155e-01
-8.606979195227816570e-02 -9.496225656574747154e-02 4.625179146259537077e-01
-4.144030303723141712e-02 -8.841748519506845150e-02 4.525987451383207127e-01
-2.818285142763439152e-02 -1.044641182673563540e-01 4.717419706616003405e-01
-1.633726618678511475e-02 -1.223597619110441265e-01 5.218541626406560940e-01
8.906325312333289099e-03 -1.263373446685846502e-01 5.220879087430995158e-01
-1.589574554509395887e-02 -1.124449387947068224e-01 4.786395054149703565e-01
-5.897949084972015088e-02 -6.023072609047909476e-02 4.373335862633656035e-01
-5.579277615257089568e-02 -7.278853977665765418e-02 4.359972217270413619e-01
-7.944406076583990228e-03 -1.190050894008632260e-01 4.904194058472569062e-01
-2.129770235609186949e-02 -1.174263530687865986e-01 5.472433103961127365e-01
-1.043042448464363281e-01 -8.539947521658167173e-02 4.789481678902594020e-01
-6.721305919571379794e-02 -1.044332401310178599e-01 4.792418150212395811e-01
-6.511995501169752509e-02 -1.014315451892332937e-01 4.706172794466219611e-01
-7.582280550148309817e-02 -8.895291272906377666e-02 4.447610120845496562e-01
-9.177850666561541970e-02 -9.974992416056069344e-02 4.761059642064562336e-01
-2.785916842160592738e-02 -7.649468385141600102e-02 4.455957547865349588e-01
-2.098134794862694177e-02 -5.857412136010700654e-02 4.409696811119868665e-01
-4.801654622513112924e-02 -6.723261851853744309e-02 4.396309799262764773e-01
-7.113363484056418884e-02 -9.271865484229536991e-02 4.472517092873563027e-01
-1.091112389203618138e-01 -9.472945043391307884e-02 4.946108869343626702e-01
-5.694952112917629761e-03 -1.248808904718889529e-01 5.127731176288207182e-01
-5.549082902996550076e-02 -1.065357139572087747e-01 4.835324384590238833e-01
-3.937571052532808091e-02 -1.066461090765193076e-01 4.793517997194313152e-01
-7.180297216150641204e-03 -8.601505107298490493e-02 4.506958474034930551e-01
-1.043222415075223675e-01 -9.765977023959071524e-02 4.849121711469175922e-01
1.508098958582018700e-05 -1.221089302230018714e-01 4.978908950981641990e-01
-3.699375134803194881e-02 -1.143803769437257700e-01 4.998292545496670902e-01
-9.957491981283866922e-02 -9.539944674838855831e-02 4.724247236520952575e-01
-1.063346438710257302e-01 -9.163416010623669228e-02 4.795226842938382084e-01
-6.561196794547613509e-02 -8.842174710790171033e-02 4.388126016266148954e-01
-7.179515357841909778e-03 -9.650183004203502501e-02 4.579556677802243958e-01
-4.191594169000295404e-03 -1.206490187297647038e-01 4.943445001065301381e-01
-1.573461491895780662e-02 -1.222537419839576783e-01 5.121834173487433972e-01
-9.345661995829653013e-02 -9.152356987224798124e-02 4.632416834654549120e-01
-1.000698927708794234e-01 -1.019942986335752588e-01 5.015276621075083208e-01
-2.639837306927238225e-02 -1.081898702229670967e-01 4.778178796948046037e-01
-2.473055993148274775e-02 -1.180003164961936080e-01 5.413083647850001068e-01
-5.889833678523306165e-02 -1.080289565280033032e-01 4.898316504239211278e-01
-9.064959645327723414e-02 -7.841157491530326151e-02 4.650572338642126047e-01
-7.304301984936309444e-02 -1.009068040915569175e-01 4.710464614787265303e-01
-2.313919248031984580e-02 -4.208947553363587973e-02 4.407178513117373519e-01
-1.000298378017927814e-01 -9.785262267510959344e-02 4.783556398985814861e-01
-7.613041515187087514e-03 -1.230432279274353419e-01 5.042736897891506587e-01
-5.443623258917278107e-02 -9.842349468008242119e-02 4.628157338115356789e-01
-9.312550938011433799e-02 -9.008612522378994791e-02 4.624650321768919992e-01
2.090819420395594909e-03 -1.259524014443898499e-01 5.149595919261112931e-01
-9.538319269083668506e-02 -9.778030732536975578e-02 4.738371466076480298e-01
-4.810818315029233988e-02 -1.121630705275288298e-01 4.990766148081995923e-01
-4.770878903674207611e-02 -1.133550233054230055e-01 5.310375742126057785e-01
-7.738095356862390028e-02 -1.072415521928162946e-01 5.026753972796353942e-01
-5.230827837957840662e-03 -8.300258557594104858e-02 4.491607518308245450e-01
-9.002816949646814948e-02 -7.645846049746989059e-02 4.668437301991059107e-01
-7.886380505694573495e-02 -1.070512546471890369e-01 5.128006647589993250e-01
-7.618298596946751489e-02 -1.049722936120605493e-01 4.862866754889328957e-01
-6.785959109618031060e-02 -1.098080298325397053e-01 5.158021706998811018e-01
-3.678817746340801165e-02 -1.134218471668305694e-01 4.959948183888235884e-01
-5.090173375595714866e-02 -8.999487117753339482e-02 4.504182845820095538e-01
-6.309882197297574102e-02 -1.083621920384770232e-01 4.946201433837025263e-01
-8.394979242444781942e-02 -1.020911190337650404e-01 4.775346771777647104e-01
-5.713970340592329500e-02 -5.261416653371563806e-02 4.390630744435604638e-01
-2.864247062598843444e-02 -1.067871215691595654e-01 4.762003720989236299e-01
-7.276527683184434714e-02 -8.976254985432369216e-02 4.422819224154119766e-01
-4.045857978962700413e-02 -1.088485235027679687e-01 4.853650227863250399e-01
-1.048907887736846983e-01 -1.003318969980921405e-01 5.010733072799395948e-01
-5.706669783698922749e-02 -6.935950967117394950e-02 4.352581418289857562e-01
-5.114808128178918722e-02 -8.255904617195504447e-02 4.428610008717841495e-01
-5.014675026537544766e-02 -6.422657066598996822e-02 4.383510258460422970e-01
-3.550179313714433432e-02 -4.244732879652340918e-02 4.396869699746181470e-01
-6.309239285964483336e-03 -1.209156541267864399e-01 4.955514955489972451e-01
-7.891802419885353415e-02 -1.064229907145822912e-01 4.980421343133843992e-01
-2.215426689589366019e-02 -9.036129764408822040e-02 4.534204538747447222e-01
-5.451524550960547277e-02 -1.118881432270759785e-01 5.080294781956922190e-01
-3.398786612076440394e-02 -8.389149551094608748e-02 4.492054812316557677e-01
-1.068226129214759623e-01 -8.993434519979015551e-02 4.808860730718508281e-01
-9.181852322724138107e-03 -9.775704712112812111e-02 4.589450389673797592e-01
-5.040377602452378314e-02 -9.500652695638041323e-02 4.577724807037612531e-01
-4.481656324043738204e-02 -6.447166212133713381e-02 4.401135993502952037e-01
-2.054732538563757913e-02 -1.079310528421515009e-01 4.736713881722897090e-01
-6.911225205913085201e-02 -9.628351856122126240e-02 4.580428713551576991e-01
-4.268104386490881828e-03 -1.094073900566526480e-01 4.708431188997863059e-01
-1.908657011130325196e-02 -1.090909158467074369e-01 4.745539075532713147e-01
-1.218736021132800149e-02 -6.284029199587444492e-02 4.414007196027491808e-01
-6.287944946729186538e-03 -9.138640300194292299e-02 4.537935319439299620e-01
-5.424360669666165174e-02 -3.896138096187546501e-02 4.448007146745181495e-01
-1.009575079966481964e-01 -1.013830487213502468e-01 4.956474064512456645e-01
-6.660257088650756163e-02 -7.082078099469665822e-02 4.365031598564298454e-01
-1.017501621339071682e-02 -1.136076542337710188e-01 4.782128250130099345e-01
-1.466189440385739021e-02 -1.211547236250980347e-01 5.030967183089460892e-01
-6.156229887984840388e-02 -7.844613128947007519e-02 4.338355210693417563e-01
-4.820763569849335906e-02 -7.237514478612483426e-02 4.404393434132313212e-01
-4.572061876632635413e-02 -1.145197691291745257e-01 5.201726627545900650e-01
-9.798413983840362218e-02 -8.289885517224249156e-02 4.707744776595777503e-01
-5.694499312909288152e-02 -8.817594018381050280e-02 4.440946195141741715e-01
-7.456900288718751324e-02 -1.045429540226868598e-01 4.837225632235450101e-01
-1.317335298281157793e-02 -5.557205115919876953e-02 4.398980597704652551e-01
-8.091403140255529897e-03 -1.209430447546687021e-01 4.962255259521630713e-01
-6.581302340745252832e-02 -1.024263520043989240e-01 4.733571133201928127e-01
-9.495659191249092301e-02 -9.233451836267884960e-02 4.647037213294902824e-01
-3.134190508809930886e-02 -1.169733659916138147e-01 5.364877777504171164e-01
-1.039673878002082552e-01 -1.002683630032404211e-01 4.949703540617927389e-01
-2.418877189028333791e-02 -4.448189180972922374e-02 4.408057222083341942e-01
-2.261872078323116236e-02 -1.157709549518352310e-01 4.922864312132046449e-01
-6.518150439159804688e-02 -1.074580520943287237e-01 4.920698539695499418e-01
-6.680041613132928213e-02 -1.083080629814856255e-01 4.976944786956856714e-01
-1.157918246930299613e-02 -1.084918191936876525e-01 4.704400547941897659e-01
-8.475588016774605882e-02 -7.873577416572290211e-02 4.547971844177290945e-01
-1.461437596787688691e-02 -1.224141750275241913e-01 5.320129115469660608e-01
-2.951614410535352562e-02 -1.172145063320935016e-01 5.046729336613087202e-01
-2.632489238484436028e-02 -1.178218713079609153e-01 5.035317163287019726e-01
-3.244579064181547096e-02 -6.437344719380622138e-02 4.416354169582478728e-01
-3.881441734189076259e-02 -4.328659921737113003e-02 4.390256147685257515e-01
-3.487951918529621359e-02 -5.536900997330385099e-02 4.403968645746811905e-01
-4.082381999868692907e-02 -7.540148582788240572e-02 4.440452979502372832e-01
-6.797951276843514079e-02 -7.080720563090248110e-02 4.381523663398932400e-01
-8.526267685465657720e-02 -7.855980657435991665e-02 4.556615624202087766e-01
-1.483790399275360279e-02 -5.215193696779490268e-02 4.397845787698032027e-01
-9.035025590644236992e-02 -8.488888923654243357e-02 4.584800854937503001e-01
-1.399806038618023676e-03 -1.120710493122707430e-01 4.749835139810315576e-01
-4.642913527736480112e-02 -1.125068184589006481e-01 4.994640545465243164e-01
-9.161169251014013304e-02 -9.759136041471613843e-02 4.708501422924943336e-01
-7.578183787462164367e-02 -1.078697693482793124e-01 5.077245894858668507e-01
-5.926087156670181710e-02 -7.802249877608927187e-02 4.349071748933216464e-01
-3.524888487369592233e-02 -4.831686533244976267e-02 4.400133005062897840e-01
-2.156106221619588648e-02 -6.682960230737672314e-02 4.426485232098471001e-01
-4.837201199510426236e-02 -1.072675989950279823e-01 4.844156007161433686e-01
-6.881203544454618515e-02 -1.094981891206075753e-01 5.183642887338202332e-01
-3.278138918506744159e-02 -9.944714474419860673e-02 4.664704583761209999e-01
-8.585190535263807765e-02 -1.049323635892173978e-01 5.139796680110291227e-01
-6.807499591426534324e-02 -7.716011700017630370e-02 4.333972348999510227e-01
-1.541088268766743416e-02 -1.224810223991138342e-01 5.255349787273753126e-01
6.974585254082364683e-03 -1.261748497323722240e-01 5.184325273702492520e-01
-6.131217575281310700e-02 -1.066055790877008941e-01 4.859671050175498608e-01
-5.105323544192372914e-02 -1.133500561038045945e-01 5.188861800955197889e-01
-5.375345033650848897e-02 -6.996531480412884751e-02 4.367829966983835521e-01
-2.970129185472595440e-02 -3.682602050019861961e-02 4.401014893447832699e-01
-8.707686737734357529e-02 -1.051573031216393311e-01 5.071493237074126137e-01
-6.609148198217446035e-02 -1.094709814004020676e-01 5.054878929903001694e-01
-1.820417208711970491e-02 -1.173537440837745388e-01 4.919843430554080577e-01
-3.020608984132880717e-02 -1.143072564650338269e-01 4.949493917743648108e-01
-8.510052063634367114e-02 -8.211532587393499671e-02 4.529883477864323216e-01
-2.103936262633536447e-02 -1.141616045498231591e-01 4.866182448951852368e-01
-6.283341095694307266e-02 -7.366662185018429954e-02 4.341796252086000951e-01
-2.476221177769304463e-02 -1.185146950686650769e-01 5.383634857732773060e-01
-4.829586804182306459e-02 -6.485856738897501084e-02 4.391567545691640317e-01
-9.239451350142355301e-02 -9.828860287593695066e-02 4.729957088191332204e-01
-1.922446672500927392e-02 -1.175193826867693692e-01 4.935843603958212644e-01
-2.676659829475473013e-02 -1.184602753439324418e-01 5.078814152574031571e-01
-5.416046758320901267e-02 -1.119840943575255571e-01 5.082694127131469619e-01
-3.330398893605950039e-02 -5.778337055353965218e-02 4.407567517673408042e-01
-4.661960854846271957e-02 -6.753544284313642287e-02 4.400922210851002103e-01
-3.047503756977337601e-03 -8.441732257520756511e-02 4.498070231150814169e-01
-1.572179559876554084e-02 -6.006142527013771937e-02 4.409678582369705446e-01
-6.617348867930325507e-02 -8.533024849057392613e-02 4.343467502430707339e-01
-3.657838852380464190e-02 -3.005641108399492029e-02 4.384292869781263313e-01
-4.184340001234868739e-02 -4.250250002954981954e-02 4.387324283114283907e-01
-5.953117085036675749e-02 -1.058918679365577903e-01 4.826965621544532792e-01
-1.786912252575565893e-02 -1.197966354456973248e-01 5.011176398827271727e-01
-8.041250619768672281e-02 -8.604961055892317023e-02 4.470513133050787458e-01
-5.794131217115379429e-02 -5.909777446580583710e-02 4.375440432730493545e-01
-4.165881034295176866e-02 -1.152704435053575477e-01 5.266924499064783438e-01
-7.136969582357455266e-02 -1.046112557009933469e-01 4.827312620834148249e-01
-6.541960692778205078e-02 -1.084947454873748385e-01 4.976928640970814666e-01
-8.347866182019403683e-03 -9.697883717031699491e-02 4.583125188032785569e-01
-1.181616564737399643e-02 -8.386199502330875244e-02 4.490813636647854601e-01
-8.329608915659644786e-02 -1.042905651013761453e-01 4.867326979245180096e-01
-3.609667283919480718e-02 -1.148880929607728335e-01 5.011468580332980594e-01
-1.962939450519946005e-02 -9.910705415160345200e-02 4.608520506783506665e-01
-7.323385199490710373e-02 -1.064766039852698826e-01 4.933002185378663751e-01
-6.567240144435169957e-02 -1.092666194126055146e-01 5.035332958614425758e-01
-5.223592775028942925e-02 -3.327087300387947255e-02 4.414380546914840053e-01
-1.863956392918803689e-02 -5.585398794079612234e-02 4.405656016724375235e-01
-9.169873204370519726e-02 -1.015054496936644152e-01 5.195882534465015024e-01
-4.275532427454296208e-03 -1.122523073224354351e-01 4.752503341740422216e-01
-7.577060940783247878e-02 -1.074397484756258042e-01 5.198361693677524542e-01
-6.603528958526382053e-02 -9.561241420879733333e-02 4.547687875317252271e-01
-8.572893783520710298e-02 -1.027277379212207103e-01 5.231543180621361921e-01
-7.256959970351212902e-03 -1.246366059286729139e-01 5.293920517040570095e-01
-3.466882412258183443e-02 -1.154913669013028499e-01 5.407134422675100582e-01
-5.742276263796199792e-02 -9.131254008865088978e-02 4.481468913367454565e-01
-3.478402440303715593e-02 -9.041191182415687921e-02 4.551782543283224847e-01
-4.896620338202858913e-02 -1.074016263832035661e-01 4.848950867734277415e-01
-3.911737171211653041e-02 -1.159746860232662852e-01 5.244627235705725532e-01
-2.690683890729732948e-04 -9.983384245924724343e-02 4.606875104956756339e-01
-2.886021144895488041e-02 -3.389614488211353110e-02 4.399054398484065209e-01
-1.742535691836175765e-02 -1.190254743569927748e-01 4.972640255293707678e-01
-3.944289693706199557e-02 -7.540470494437308269e-02 4.442319837690668627e-01
-1.944775431043361744e-02 -7.380040076045003838e-02 4.444333017264534003e-01
-4.896770339636778019e-02 -1.137114804780323674e-01 5.248020909746545781e-01
-1.016311236982362365e-01 -8.690429784347863951e-02 4.722427829165609103e-01
-5.285505712087829044e-02 -3.183334870671069433e-02 4.419455238996984336e-01
-4.598654037653408105e-02 -1.074600036988209995e-01 4.842258761824636548e-01
-8.126933993446029680e-02 -8.723596865613857110e-02 4.488157641098829975e-01
-7.540943662313964735e-02 -9.961143574506250986e-02 4.677247387314639182e-01
-3.689078264278274760e-02 -9.588459893408476931e-02 4.617369736575321348e-01
-6.220905974613745448e-02 -6.629065186210374161e-02 4.364089961927070105e-01
-4.428454680481234973e-02 -1.090262392988433360e-01 4.876940411053883317e-01
-6.564514276870744847e-02 -7.029462454889781609e-02 4.360259748739943042e-01
-1.864899497551879629e-02 -1.194824759503694406e-01 5.008095929884016639e-01
-4.682327643970045708e-03 -1.196447089289205817e-01 4.915162660547629514e-01
-2.542619725256168098e-02 -1.044217053596087907e-01 4.703668338086840484e-01
-3.358896071102444869e-02 -1.173021448791276983e-01 5.213263633740070624e-01
-3.693312845700551933e-02 -9.326029524341321320e-02 4.583107018253745890e-01
-1.988148143446298241e-02 -7.530785034382313226e-02 4.449651099725816517e-01
-7.825843272345331392e-02 -1.015598729123150246e-01 4.741733264797104996e-01
-2.155352651021759380e-02 -1.067381830186885650e-01 4.722270309522762499e-01
-1.229068991926949607e-02 -6.986449098707016303e-02 4.434560409132830561e-01
-9.784095144958758483e-02 -9.334389174145810153e-02 4.687550726052581718e-01
-7.002294127740943397e-02 -9.018472727843310222e-02 4.412474817604684074e-01
-2.258647786325169299e-02 -5.472237078703283408e-02 4.404198583520272936e-01
-4.506042549612525316e-02 -7.624073665577946191e-02 4.428920381791625061e-01
-2.977907115851545494e-02 -1.180961312771203614e-01 5.274391203940252959e-01
-9.675714519653665774e-03 -1.171272723964744827e-01 4.857367465197645062e-01
-8.314838049994824343e-02 -8.806982502503644950e-02 4.517974930780627729e-01
-8.517050340917195483e-02 -9.024590757762766813e-02 4.547150704204654392e-01
-1.365265761131033949e-02 -5.706785851547863109e-02 4.401874202544848735e-01
-6.529655170563680722e-02 -8.055722454948037459e-02 4.331887698865792835e-01
-8.360219884713351521e-03 -1.021347908175114089e-01 4.629657166053486317e-01
-1.879081880176158154e-02 -1.187434138768497516e-01 4.978685481540958691e-01
-6.912177285540790916e-02 -7.251304095756001822e-02 4.373635851384922724e-01
-4.502942361908622571e-02 -1.048204493982480834e-01 4.768805174117398127e-01
-8.853892502496338301e-02 -1.038640322390462362e-01 5.149023409538096008e-01
-1.593287287041945596e-02 -8.943645916118399264e-02 4.518874055975130588e-01
-9.307053617372440524e-02 -9.602024661857955223e-02 4.687423093507737115e-01
-4.279063390244629284e-02 -1.061705537181219378e-01 4.798311841285821111e-01
-4.855223144843339583e-02 -6.943279176387419371e-02 4.398493286008248182e-01
-5.275910004556648436e-03 -1.251542234220468508e-01 5.287760277713726698e-01
-8.923864606261040777e-02 -1.025181904008249656e-01 4.830632788301852387e-01
1.497728271754798085e-02 -1.255259721217301672e-01 5.362656193840583674e-01
-9.634016268137850919e-03 -1.227636597105139921e-01 5.047714219791522572e-01
-3.047466302469786781e-02 -9.925262724704587980e-02 4.655906847614351696e-01
-4.023781499697104413e-02 -7.837117162976163509e-02 4.454297617203815673e-01
-7.778548106752784796e-02 -1.069628391310663285e-01 5.008424431013308586e-01
-9.590672645487090253e-02 -8.162698624243060197e-02 4.689440586739732075e-01
-2.093058486569212770e-02 -1.188532090323753121e-01 5.013768524376123192e-01
-3.799684788371142895e-03 -9.772659002950467855e-02 4.590242370693607965e-01
-6.436304093768982493e-02 -1.096447230783075544e-01 5.042632725961415652e-01
-1.285127512396005631e-02 -1.229250006103631832e-01 5.110898561079360025e-01
-3.753530175949335024e-02 -5.981657160292198211e-02 4.408319261869224626e-01
-8.110370470487880679e-02 -1.063493186825150288e-01 5.013863013111929945e-01
-7.505426282296352725e-02 -9.819619875902338424e-02 4.642575065543037560e-01
-1.231851855770043844e-02 -1.203704984568667175e-01 4.966682497696111032e-01
-2.774252302694093716e-02 -9.778320506259996492e-02 4.628226924501964712e-01
-6.021208764869556002e-02 -1.092470130507396664e-01 4.966392471028989175e-01
-5.365898259779897789e-02 -3.641834693821594665e-02 4.419099385720696160e-01
-7.069818418220419343e-02 -1.085412119403206532e-01 5.042511581923770914e-01
-2.956497780503055534e-02 -4.665569025925516561e-02 4.407000322237183965e-01
-3.905513268650807890e-02 -7.411795051330698214e-02 4.437559669623584169e-01
-2.479696038864712820e-02 -4.142166221872998350e-02 4.407728454378617711e-01
-5.320960958410020369e-02 -2.518531415414822922e-02 4.442924693434862071e-01
-3.662537696287389288e-02 -1.144160727382611958e-01 4.995985668876686825e-01
-6.438932207134957786e-02 -1.085252476501217950e-01 4.968704149916919333e-01
-2.213731413736380604e-02 -1.106612284519678385e-01 4.799972342797586000e-01
-2.043423179729261102e-02 -9.900780722312298165e-02 4.610808443779398358e-01
-3.023616174561514006e-02 -1.111631924059017229e-01 4.857985135596417647e-01
-6.007183724854887885e-02 -1.106742019409718281e-01 5.279191204115465386e-01
-6.175638452330422384e-02 -1.094497266587994011e-01 4.994075063041114038e-01
3.797096644884493267e-03 -1.255283547168607461e-01 5.121578870996101873e-01
-2.027398655103418781e-02 -1.143774651329641512e-01 4.862851792839251730e-01
-1.637937217070415188e-02 -1.216589737053268006e-01 5.089741689199164254e-01
-2.561453580404032468e-02 -1.088691181138543573e-01 4.787662569622003206e-01
-8.143928327904338682e-02 -8.871024813029337874e-02 4.501925215666807145e-01
-4.748602464636682285e-02 -4.420401404536324769e-02 4.389232353666540076e-01
-2.739369005760049561e-02 -3.895131381940113852e-02 4.405974421270122399e-01
-9.664548529982662506e-02 -1.030668014568299762e-01 5.019902854997022601e-01
-6.321996370522012243e-02 -8.212250751336618027e-02 4.342508295614972980e-01
-3.422479009872857886e-02 -1.163869627767897957e-01 5.353978450095687736e-01
-4.611061894648938592e-02 -8.218588490530918944e-02 4.466673022243511371e-01
-2.563387743403812424e-02 -1.028492269679283505e-01 4.678804799260291025e-01
-7.627625675150720430e-02 -1.022064840955184267e-01 4.759061113703648704e-01
-2.082845755531500045e-02 -6.983743136772185833e-02 4.433523002548240277e-01
-2.142995967157912754e-02 -1.150444540562134133e-01 4.891339808824812230e-01
-8.219591709187193396e-03 -1.247462494807875522e-01 5.174339731093711148e-01
-6.919315934339204111e-02 -1.002828210132537118e-01 4.684494086137533930e-01
-9.865099858054282578e-02 -8.103765227653628167e-02 4.753141230233694503e-01
-6.406249842309896803e-02 -9.346647839774106792e-02 4.480841476835417669e-01
-2.911037094047028498e-02 -4.906605482792997242e-02 4.406460177070719575e-01
-7.586586817725156015e-03 -1.164388006459217001e-01 4.833828944142997686e-01
-2.941331509723192975e-02 -5.152897664836520591e-02 4.405518045698274543e-01
-6.012663428109968344e-02 -9.517380687857973642e-02 4.540736411909944703e-01
-3.879917358662882121e-02 -9.963033203750960853e-02 4.668642690887725988e-01
-8.087698067873545782e-02 -1.050272404336388410e-01 5.220235407735485111e-01
-7.017709652635169271e-02 -1.032698603189554087e-01 4.773177890991039951e-01
-8.617456416396504504e-02 -1.051706651455807939e-01 4.983241352149385683e-01
-8.813020548910815988e-02 -1.042184701524664636e-01 4.918511977459866236e-01
-7.660218446638300538e-02 -8.684932433048535294e-02 4.430837051560627127e-01
-4.792522966447652910e-02 -1.039578699227481084e-01 4.748317359605283561e-01
-7.367530923227899597e-02 -9.888110571654480652e-02 4.656029619511910522e-01
-8.357815519276298732e-02 -1.006771417713937661e-01 4.733746634502167261e-01
-2.246158358699008178e-02 -1.001729086595996160e-01 4.629451382721092023e-01
-4.216192313439635214e-02 -9.089703480859771811e-02 4.550699224841004975e-01
-5.229204452567455530e-02 -1.107724440252720183e-01 4.975516999652452865e-01
-1.021479637218820902e-01 -1.012734313360107719e-01 5.029436560688325120e-01
-2.274897268052502794e-02 -1.100369946756471762e-01 4.791503949395992668e-01
-5.185665617587905535e-02 -2.885445008410051845e-02 4.411035786862370078e-01
-8.618295095448977317e-02 -9.451521511700836098e-02 4.617882786480086432e-01
-5.895771838120993785e-02 -8.865085336121932003e-02 4.428193887702341902e-01
-2.291863325935258530e-02 -5.291136531427809847e-02 4.404368572203828935e-01
-3.485017295237152063e-02 -1.091155249765271840e-01 4.829533422745085347e-01
1.603572455098047946e-03 -1.260866794130180990e-01 5.311044611196145127e-01
-9.692071810073744909e-02 -9.090730881949547759e-02 4.665539049153630824e-01
-3.065245155756522039e-02 -9.188504244988951464e-02 4.569392137750989957e-01
-7.259734748759133494e-02 -7.548557080900918093e-02 4.380011222922656211e-01
-1.060639533951240471e-01 -9.116066596741137507e-02 4.788425650180658244e-01
-1.028882787422362582e-01 -9.249407264673498164e-02 4.730062501281991905e-01
-4.247456916357993106e-02 -1.109983211352809085e-01 4.922140736902533287e-01
-2.320566042160454936e-02 -1.062305888820844479e-01 4.722679248214450287e-01
-2.886004606035992570e-02 -1.185566497951419107e-01 5.205461146647573090e-01
-5.761579026083848802e-03 -1.170609160291577605e-01 4.846914455914413944e-01
-2.257974260215262624e-02 -1.200363220787410701e-01 5.284402703358236364e-01
-5.966599488098030257e-02 -1.013827445423650386e-01 4.694167424254552801e-01
-2.015058097290567049e-02 -1.146411093833758915e-01 4.867440044347088324e-01
-1.668177697172545677e-03 -1.093661151661995401e-01 4.708660573426253770e-01
-7.738975193793942720e-02 -9.258616864116006595e-02 4.524889267951054950e-01
-5.919171034727353786e-02 -7.644545926729535978e-02 4.344953301344509078e-01
-3.576902639756193302e-04 -1.137053509645343519e-01 4.774563306060568557e-01
-5.698571471118758780e-02 -9.636627765068578322e-02 4.580308774399076688e-01
-2.046904955035024065e-02 -3.998594213219455046e-02 4.400551437059234683e-01
-3.347667511021133746e-02 -1.172356786978270560e-01 5.160743354984944631e-01
-1.346418602728050376e-02 -1.232775039546604029e-01 5.155823846344174122e-01
-4.831240513413254112e-02 -6.842491708401285400e-02 4.397476738851026634e-01
-6.591324869670865672e-02 -7.861299071643967906e-02 4.330760290670863655e-01
-1.721543869777680119e-02 -1.194875740419986537e-01 5.440752709201275295e-01
-1.026203193911789102e-01 -9.904583806178285377e-02 5.120217937748512416e-01
-3.468138704417976503e-02 -1.157590630098315337e-01 5.388571885779973591e-01
-1.754897712874610438e-02 -1.132024679150751001e-01 4.814447721843110317e-01
-3.317155731172420630e-02 -7.208763009539706501e-02 4.433419324985606869e-01
-7.845622976249497227e-02 -1.066810299819566932e-01 5.189868969708782975e-01
-3.255881069787852633e-02 -7.152823243025610567e-02 4.432237056941546460e-01
-1.994683738811916379e-02 -1.206972606078527410e-01 5.318910308035091905e-01
-2.531629883227278291e-02 -6.069335639113727227e-02 4.413420149866539854e-01
-1.037091847115740595e-01 -9.714880229865731354e-02 4.819130288323994482e-01
-2.164785448966682901e-02 -9.866348628131708931e-02 4.612597589972754486e-01
-2.547441692753933673e-02 -1.194906739837348769e-01 5.195014221327254322e-01
-8.394582523594430745e-02 -7.610768188245656263e-02 4.562972198772221599e-01
-4.073416737270962873e-02 -1.076607663015370503e-01 4.824282530337257180e-01
-4.875902288108223404e-02 -9.687409001806381037e-02 4.612294394160506572e-01
-6.056137227154761993e-02 -9.954814107691001279e-02 4.651760536659807488e-01
-3.713994872658250845e-02 -1.165086404334011588e-01 5.180761707703470664e-01
-4.788408992004848132e-03 -8.612281994512344108e-02 4.506914631623488710e-01
-3.491316728342552106e-02 -1.155261207899808407e-01 5.025659831701925206e-01
-3.934811724835100832e-02 -1.104296467067401172e-01 4.888462507169948346e-01
-1.879311226993411396e-02 -8.931956684335261298e-02 4.518823936607295755e-01
-8.289560762694966889e-02 -9.186030896883022601e-02 4.557106611049223654e-01
-7.796737312209874038e-02 -7.655596184393005654e-02 4.452561461076209870e-01
-6.156369820968095319e-02 -8.883986352624169414e-02 4.414182412665877964e-01
-7.548305631399369886e-02 -9.224723750280267032e-02 4.506095245051239262e-01
-5.790705751441722199e-02 -6.888060673179643989e-02 4.350265828393465872e-01
-9.131428273419033015e-02 -9.403729349112902036e-02 4.643335951808605921e-01
-7.581235437674160860e-02 -1.050272685513240212e-01 4.864315463469809364e-01
-4.370744597894446470e-02 -1.108188888149803791e-01 4.924010121728878975e-01
-8.853068873529000571e-02 -9.065317483467671966e-02 4.585624872290628984e-01
3.936467175835414722e-03 -1.244543063064183358e-01 5.070365598461741286e-01
-9.532598503724885874e-02 -9.877762632665552933e-02 4.763516730006398525e-01
-4.928136711886171167e-02 -1.122740072772286518e-01 5.019144125315571081e-01
-5.380621309057689178e-02 -4.829499640566285029e-02 4.392900231434435088e-01
-4.558501326561180400e-02 -7.848339058815373415e-02 4.436408546441520939e-01
-8.292715936966260637e-02 -7.665415107495598956e-02 4.538008912514960858e-01
-3.098446669876074588e-02 -1.178817390226990780e-01 5.234461602750262177e-01
-6.075369987319071546e-02 -7.006351168492749859e-02 4.348854733187996202e-01
-2.732227858063557280e-02 -1.184580262516057858e-01 5.324408287053842281e-01
-7.818590799135390068e-02 -8.677863445418433630e-02 4.451234169732037338e-01
-8.772965418328101950e-02 -8.230572347781667242e-02 4.560784496287187406e-01
-2.037954901438067054e-02 -1.186068477392548254e-01 5.438352433307717115e-01
-7.343970791486907623e-02 -8.956343862303575709e-02 4.427920940647511738e-01
-3.257210438255051660e-02 -1.158122405809394601e-01 5.014128018813883703e-01
-3.205770258874300616e-02 -1.064604181095235719e-01 4.768116378148853918e-01
-4.745173762078660346e-02 -1.043048626782648591e-01 4.757323215812511163e-01
-2.895722979734208571e-03 -8.709359498450609804e-02 4.512877347205823120e-01
-9.123642186954326536e-03 -1.243722223423047862e-01 5.256881625382576750e-01
-2.747795112284954003e-02 -1.179531988861540343e-01 5.368638757568218178e-01
-2.246168159462488476e-02 -5.876052093378070912e-02 4.410240082587565391e-01
-1.138378989562520253e-02 -1.238573609237730022e-01 5.200225644389190327e-01
