-5.579387390226960008e-02 -1.051811540152590846e-01 4.824089901481389275e-01
-6.599222748926309931e-03 -1.011185710016534040e-01 4.624532453477724903e-01
-1.038679416380685616e-01 -9.596484616368664011e-02 4.835887938699241495e-01
-1.703169299028316208e-02 -7.923322483692939178e-02 4.474671330518923407e-01
-1.664756443122857033e-02 -6.115702295100446800e-02 4.415854684314508005e-01
-2.700381711125815140e-02 -4.439479730490556580e-02 4.410879258260183566e-01
-1.021369594182811452e-01 -9.926366701034165796e-02 4.929609116224218379e-01
-3.206458358014821486e-02 -1.168323214549022715e-01 5.350987254400003668e-01
-8.344220205349275193e-03 -1.244325781703154304e-01 5.147324108030763012e-01
-3.130519135286104898e-02 -3.452841487288228067e-02 4.398620864441579181e-01
-2.068441897118277611e-02 -1.203251802334693726e-01 5.320741293781158232e-01
-3.282775013298231542e-02 -4.580148975142654677e-02 4.407580753143309216e-01
-7.522947508374960499e-03 -1.052319663187333415e-01 4.665882719673632995e-01
-1.047635917398865441e-02 -1.021371891644081986e-01 4.636033198251827137e-01
-3.590931021960042102e-02 -1.162816414155239536e-01 5.140305961921499689e-01
-3.442539258829695192e-02 -1.095857552602133439e-01 4.853202363404102715e-01
-6.302106038340188343e-02 -1.102951357180955438e-01 5.201574162460200768e-01
-1.443947073951912762e-02 -1.143330818217470762e-01 4.819794887844814357e-01
-6.899064317652123246e-02 -9.231413345704346518e-02 4.506353316128035580e-01
-7.214774099709977961e-02 -8.082361145317186468e-02 4.367266789502499136e-01
-9.798369759074657126e-02 -8.331859239874085665e-02 4.689319235013817977e-01
-7.836778430999145895e-02 -1.060665931634472564e-01 5.192810152216918995e-01
-3.611892991668280706e-02 -9.906026352251734446e-02 4.676264146907381791e-01
-8.762064237621168539e-02 -1.033221056608754351e-01 5.161845088356947775e-01
-2.605268528706452744e-02 -6.212075535723371456e-02 4.420193231546489798e-01
-8.797274298179490193e-02 -1.016656693211135526e-01 5.217990298185724019e-01
-6.496493764400071425e-02 -8.444004198882740231e-02 4.390934471294600794e-01
-6.251014116349233596e-02 -1.043584276084253137e-01 4.821227101101685508e-01
-1.087533421485210039e-01 -9.362260267227767718e-02 4.907124437841203779e-01
-4.824991682677720606e-02 -3.596892404189742931e-02 4.394408189254719321e-01
-9.488336550354989352e-02 -9.667575403649539267e-02 4.753450021815230908e-01
-6.468280692915319430e-02 -9.066608494316465150e-02 4.470330389272841876e-01
-1.716430097141212821e-02 -6.590026052917445643e-02 4.428025503858037393e-01
-3.064612197408303484e-02 -6.499598942008694147e-02 4.424877451495839442e-01
-9.113757640982682318e-02 -1.024572367628621417e-01 4.931529631297189020e-01
-8.356252726509029449e-02 -1.029296535833176124e-01 5.242126771357457082e-01
-6.102156593230755044e-02 -6.796565589600081503e-02 4.362123876749676721e-01
-3.447957653791784011e-02 -1.066710104158294231e-01 4.794197678585787048e-01
-1.722053742077048893e-02 -1.209786157959433506e-01 5.367907297572100944e-01
-8.969467632426272874e-02 -1.037427962233916923e-01 5.026173081914480090e-01
-7.780714537154136135e-02 -1.065214600638454828e-01 5.069310084760073609e-01
-5.326577991087186326e-02 -2.532219572739756452e-02 4.428107356474145773e-01
-9.803913833039791526e-02 -1.000436308204007696e-01 4.890580141366862033e-01
-4.401870607617196923e-02 -8.116404390706852268e-02 4.483243621834378523e-01
-3.213203650336191736e-02 -1.173944880968141591e-01 5.217123126342900763e-01
-8.813893636869009340e-02 -9.932843824178844150e-02 4.766530108211854966e-01
-2.074211311443221323e-02 -9.903050160781863565e-02 4.617888399771689079e-01
-6.774051590886404073e-02 -1.044098637931708817e-01 4.848782460791981053e-01
-4.984884915705746489e-02 -1.021774595983785255e-01 4.730310453694021589e-01
-2.284693474293464366e-02 -1.181699656552597788e-01 5.425973968451507368e-01
-5.196373293877860206e-02 -1.083034974936904066e-01 4.911923127638024300e-01
-9.542616252538221877e-02 -8.228832503147316679e-02 4.660251663430128310e-01
-1.853094264304443878e-02 -4.797021171540420681e-02 4.403579672915611254e-01
-8.431796083919777807e-02 -9.559423505606837179e-02 4.663889410553647696e-01
-6.898562088547592619e-02 -9.335631040773413603e-02 4.545556229599143072e-01
-4.899531694657232456e-02 -4.205223640737014434e-02 4.395651076519204725e-01
-1.010707223752127515e-01 -8.389832400161739701e-02 4.734964578861517448e-01
-1.750560199971000833e-02 -1.213513208016083894e-01 5.325854587687449682e-01
-3.746703887649857623e-02 -1.056606167427386889e-01 4.783466196039279361e-01
-2.326432316288835206e-03 -9.048150676794193548e-02 4.536740844605834933e-01
-1.081073492630257524e-02 -7.881110468674980274e-02 4.474603913221817386e-01
-4.518975605894354902e-02 -1.011403566335381116e-01 4.705432211823576405e-01
-1.387667496175827228e-02 -1.182092089143553376e-01 4.921321945858234126e-01
-3.011551541581480515e-02 -3.296590135140589628e-02 4.398167380470919263e-01
-8.031723246265837224e-02 -1.042318272245855992e-01 4.920618688426279252e-01
-3.286762912205575676e-02 -1.052487286825674884e-01 4.762454469816471692e-01
-2.717585397035937947e-02 -8.821043634911730769e-02 4.536116908497228040e-01
-1.100529232222036136e-01 -9.164665658006869442e-02 4.916793523073171857e-01
-2.583922154933426113e-02 -1.185227616429058439e-01 5.353784463813873185e-01
-6.064006868527237887e-02 -1.019435100106517722e-01 4.739654472358917903e-01
-8.356215216283258140e-02 -1.050742571792033925e-01 5.058986316574038966e-01
-8.593034794507460605e-02 -1.044047986012504037e-01 5.017248950346367975e-01
-1.234637309904142860e-02 -1.225862564618682982e-01 5.348843118554897913e-01
-7.148218859425292671e-02 -8.948641148924353639e-02 4.444869229934225174e-01
-5.765688904882047827e-02 -9.939790791970271044e-02 4.677068293296676171e-01
-2.353034453300753646e-03 -8.409848231643983485e-02 4.499711519404820392e-01
-7.423838727991332459e-03 -1.245154972438275165e-01 5.297730732625749450e-01
-6.417790615821487854e-02 -1.076896251792207326e-01 4.971395988242592323e-01
-4.623190389485616614e-02 -3.387680680506994363e-02 4.386662617964037780e-01
-2.989203816058719210e-02 -8.447112983371274364e-02 4.506711083850548083e-01
-7.932569809541142880e-02 -1.002335066808485164e-01 4.754975231935387181e-01
-4.945447880981013872e-02 -8.064135214345809211e-02 4.458852104829668650e-01
-4.073725366370421069e-02 -1.064169977650587795e-01 4.812576961237613471e-01
-4.093322404301456136e-02 -9.920277840047375673e-02 4.679713482906541211e-01
-1.993756257293827217e-02 -1.023605985945273272e-01 4.651465641789013783e-01
-1.640103321346118859e-02 -8.097864694417218623e-02 4.482052794733584200e-01
-8.202773000363347555e-02 -8.848190800079815121e-02 4.532268884185088331e-01
-8.493404031382641162e-02 -1.024403210196634523e-01 4.857584436076056722e-01
-5.155063111279093585e-02 -6.536434671138612040e-02 4.391057443748078715e-01
-7.918910899582605467e-02 -9.910682286671786134e-02 4.722035451919529003e-01
-4.712142421122798158e-02 -1.136219100604039522e-01 5.155537986578874188e-01
-9.431324131963976509e-02 -9.188419494135169341e-02 4.667091331345409322e-01
-4.174432579815566535e-02 -1.037841697649927036e-01 4.760386033883938772e-01
-7.547600325518084852e-02 -9.178859738080454023e-02 4.543651621417312270e-01
-6.074424584079810702e-02 -1.107390771227308446e-01 5.236333715683655354e-01
-1.877965941082402127e-02 -1.164401085353313769e-01 4.903804469547350386e-01
-1.032121255111729807e-01 -9.499208555021404488e-02 4.791166751618670672e-01
-4.306888054124900084e-02 -1.070516016524296204e-01 4.840486432219932578e-01
-7.723587790896618843e-02 -9.416350030962780671e-02 4.605620852302488299e-01
-5.278686134313815594e-03 -1.161733710334927061e-01 4.833188621112823879e-01
-3.288443515528769248e-03 -1.249744852049764071e-01 5.325045859175850937e-01
-8.037861738339444062e-02 -1.055771193499464300e-01 5.027205667225855823e-01
-1.976698524159303458e-02 -1.093273631804198148e-01 4.760649209078233191e-01
-2.068687630664237803e-02 -8.851133147043709071e-02 4.522086043861545113e-01
-5.227355064042481236e-02 -8.637853951322732593e-02 4.494421607119419848e-01
-2.144229817306045685e-02 -1.172043281359462091e-01 5.477134347002087233e-01
-3.306211909595423853e-02 -6.070723614730207107e-02 4.417372205134675878e-01
-9.732157143106830166e-02 -1.018572469481151266e-01 5.057472320082669892e-01
-8.348109834611902591e-02 -8.541147326995775224e-02 4.519891097487894749e-01
-6.956947637666265061e-02 -7.182287709540707832e-02 4.366039990596289888e-01
-8.071679531301974297e-02 -1.052689797582697789e-01 5.004228266038996953e-01
9.126533879164584057e-03 -1.258996061447361647e-01 5.368533680974311162e-01
-7.306473962096372843e-02 -1.025676025361166727e-01 4.810315701725915716e-01
-3.901358828568082110e-02 -1.155676269372592213e-01 5.156774467671632056e-01
-1.036119933736281140e-01 -9.100012003776669633e-02 4.746458687178061742e-01
-4.828028197433648777e-02 -1.007069513963950308e-01 4.695233096963921660e-01
-7.318837616506785639e-03 -1.110448866595825507e-01 4.740586233916797010e-01
-2.858426829036650463e-02 -1.177709312040720185e-01 5.087874708086350672e-01
-9.632370260281092333e-02 -9.935559144520789143e-02 4.830694561016192212e-01
-4.656541622306279576e-02 -1.137116046373533168e-01 5.151540252925529417e-01
-4.105927621970773683e-02 -1.078850860916542170e-01 4.850229439539731624e-01
-2.244871762817264235e-02 -1.176068214961063091e-01 5.451705847327110721e-01
-8.933509327855770898e-02 -7.710350187533583644e-02 4.615412736765952539e-01
-1.265137046642604568e-02 -7.349973368999034029e-02 4.452318140809085056e-01
-3.964373800843086493e-02 -1.086412989873659918e-01 4.860727582519094314e-01
-1.615527065828099157e-02 -1.114613510227407400e-01 4.774575940535348839e-01
-3.772488029739498594e-02 -1.134699532174513886e-01 4.986252243254148397e-01
-3.275302541748475321e-02 -4.322789439349107588e-02 4.406339777952923975e-01
-1.438431393345775480e-02 -1.227596811567383817e-01 5.244866980429678804e-01
-6.693124987992038477e-02 -8.901236927430537793e-02 4.437245290852638302e-01
-2.092173203360683104e-02 -1.198268693708834931e-01 5.366175372653668729e-01
-4.741711120546131947e-02 -3.562751415931896676e-02 4.392243896876310005e-01
-6.793240736962388726e-02 -1.060307815383297880e-01 4.922738981080707621e-01
-7.327915480044439045e-02 -9.848722828509154370e-02 4.691139420535017646e-01
-1.231686318768577919e-02 -8.892156197442095678e-02 4.523047263634288329e-01
-7.825494681051423096e-02 -1.049922261928432493e-01 5.251450673522491952e-01
-8.013876677777807822e-02 -1.059583815163274850e-01 5.084073900147898506e-01
-3.550851739883348866e-03 -1.249408604028484499e-01 5.101951679124838712e-01
-1.090628890742345175e-01 -8.903438224622700625e-02 4.862596793393558214e-01
-3.283475768034646580e-02 -5.233541656689793403e-02 4.408803241738544210e-01
-5.266860116905040107e-02 -8.745965138678600537e-02 4.500882658586081164e-01
-5.655194782944468479e-02 -6.858996321888628789e-02 4.368389148181738291e-01
5.035177095700654054e-03 -1.259587814508332515e-01 5.163869094327058207e-01
-6.249845006150113458e-02 -5.945994036579942826e-02 4.391160199783749607e-01
-6.285103427380023255e-02 -8.650149758757269547e-02 4.422744394866521822e-01
-1.053572186904900704e-01 -8.821889080256554994e-02 4.772394980283981014e-01
-4.524325979924214564e-02 -3.854140580818277151e-02 4.389666236810971789e-01
-2.823351954349109794e-02 -1.178260832065104596e-01 5.354785628974804146e-01
-1.261601381918863070e-02 -1.023272110353742742e-01 4.637785902693387641e-01
-7.019722244983238324e-02 -9.747422795579255284e-02 4.659590504568890679e-01
-8.006929817297867708e-03 -7.892579263056552497e-02 4.476495042568903182e-01
-8.654419515370653793e-02 -1.030231976239058683e-01 4.899763411757664389e-01
-5.667954849322580368e-02 -1.098686821216227627e-01 5.007498074991485471e-01
-1.937377002209997659e-02 -1.136449574833758858e-01 4.845505047801834109e-01
9.569491510677536131e-03 -1.260658401185759947e-01 5.203296207636558535e-01
-6.567315423974978694e-02 -1.091640076214165367e-01 5.089675108193540964e-01
-9.963257260593638698e-02 -7.916470614484601154e-02 4.784457539476845156e-01
-3.624932145589126326e-02 -1.096143017513583201e-01 4.864893022030207792e-01
-2.599379001396971006e-02 -7.105587275954657056e-02 4.441960678341867474e-01
-6.062914170606258264e-03 -8.183943548181049632e-02 4.489661386327988279e-01
-9.288601084633286986e-02 -8.392968976528863978e-02 4.622407003394264913e-01
-7.107543674823225965e-02 -1.075275351409981650e-01 5.039481587668632745e-01
-5.317895348630242991e-02 -1.124220483070885179e-01 5.194023340351940909e-01
-3.321932016568812651e-02 -5.127640543030757142e-02 4.408238136089658310e-01
-5.870594526963583693e-02 -1.021426270072539333e-01 4.738643218411969227e-01
-1.918640309800731525e-02 -1.075075069716753401e-01 4.726683897925292310e-01
-5.108591997362492421e-02 -1.114769916868563471e-01 5.033830702423220949e-01
-1.589638079161620823e-02 -1.181795008700399358e-01 4.932845738046628958e-01
-8.674640622565701897e-02 -1.043159626600097811e-01 5.025967182953754442e-01
-3.060860513733702076e-02 -8.854397668452532177e-02 4.546203811975230158e-01
-3.335824250191465890e-02 -7.087438791263903082e-02 4.438333035637828106e-01
-4.129529607204460162e-02 -1.152158503788963534e-01 5.192082316020980581e-01
-2.471851716315664679e-02 -1.190618192163955535e-01 5.321763336772773467e-01
-5.594434349229122222e-02 -8.352125504315890958e-02 4.433619540252614621e-01
-9.423175706641172267e-02 -9.643129663983489308e-02 4.743173130628116629e-01
-3.865802868091596650e-02 -1.137765867314790708e-01 5.430937005632202608e-01
2.506512745191525043e-03 -1.263270151389942197e-01 5.269600391274967821e-01
-6.125379307731174811e-02 -5.756377181362511142e-02 4.395627743597717574e-01
-7.024697675144409882e-03 -1.167954500179980010e-01 4.850025263754380589e-01
-1.034385743369694438e-03 -1.191061730623422937e-01 4.901639965802208621e-01
-8.173362298925222758e-02 -8.636809224509445215e-02 4.506410726020692592e-01
-3.392666403136216507e-02 -1.166202872337668422e-01 5.309382063285527087e-01
-1.047404551758145119e-01 -9.458650446533424516e-02 4.805093704527658161e-01
-5.747467200036332491e-02 -8.685142506608037327e-02 4.461917704572360699e-01
-7.336550426868612695e-02 -9.297064359830511937e-02 4.562410831874132988e-01
-1.442772908325529353e-02 -1.212011895791286903e-01 5.393751819944064829e-01
-3.637497507722035200e-02 -1.050279212821453173e-01 4.770168758007261589e-01
-5.757635936579279246e-02 -5.877300206329084953e-02 4.373936633967597243e-01
-8.851287146873601519e-02 -1.038752554161537084e-01 5.098359001677927882e-01
-9.697213018993092182e-02 -7.862370852756610240e-02 4.739735562418530002e-01
-4.670669515039133080e-02 -9.215881527968250442e-02 4.573205716302984891e-01
8.036457786452805979e-04 -1.237363673902303063e-01 5.041887501899348090e-01
-4.824793888942140868e-02 -9.534492049958526172e-02 4.615657088460385360e-01
-3.950486069218400037e-02 -1.134344369212698656e-01 5.428957109121775870e-01
-3.664148113811645929e-02 -1.157236170784227969e-01 5.342476049339985877e-01
-7.710450427039267085e-02 -9.302240949705273265e-02 4.582720182850700819e-01
-5.490035752633826149e-02 -3.902757292320156723e-02 4.468028239665771117e-01
-6.499688451810088641e-02 -9.385531454648766980e-02 4.548035583926045566e-01
-4.822176911278056727e-02 -1.104931894182477198e-01 4.960439434253858804e-01
-5.911433521009928915e-02 -8.739006867839911596e-02 4.454907387208953962e-01
-3.975558272471584748e-02 -7.124410672475246786e-02 4.436697845053333977e-01
-3.560362484040629355e-02 -1.164937316066871204e-01 5.246591145436872994e-01
-7.415924434009846244e-03 -1.191448563302341807e-01 4.914778794120622241e-01
-2.745679547823116559e-02 -1.154808368180938738e-01 4.977657978188966270e-01
-7.436981255311444355e-03 -1.230378766621401943e-01 5.049112573659533254e-01
-3.969737954799792967e-02 -1.126000671809786885e-01 4.971582146576999373e-01
-3.129150562194040613e-02 -6.385816126132946857e-02 4.422639033506883255e-01
2.235414093165563609e-03 -1.224704311270738560e-01 5.000566587605362878e-01
-2.785975511275928448e-02 -5.035941470926445784e-02 4.409491283138247675e-01
-7.039070811168936237e-02 -8.143899572613272353e-02 4.355233851176929516e-01
-2.301651128215548639e-02 -6.940971697402507912e-02 4.437696915626873073e-01
-4.806287828549118263e-02 -9.766849914264283394e-02 4.650588330775666801e-01
-6.250053421630012707e-02 -1.087417884098477866e-01 5.010177441231985496e-01
-5.363297879813867797e-02 -2.807342490679543001e-02 4.443915761900303352e-01
-7.301667236124861904e-02 -1.078239773251118555e-01 5.119136715269920757e-01
-9.611440505681180524e-02 -7.937442082926321474e-02 4.707696425222012704e-01
-4.927956049615826728e-02 -7.199360418627739899e-02 4.414186630757878649e-01
-9.541920295185504775e-02 -1.018571362965728505e-01 5.120047614062194219e-01
-5.385368497308172520e-02 -3.084010622615221756e-02 4.454630249589008328e-01
-2.791650651579893200e-02 -9.633049915901846505e-02 4.622028774910563187e-01
-8.894976735996171224e-02 -7.790420007293927251e-02 4.603248271567787486e-01
-2.140614393203292554e-02 -6.304298013145838431e-02 4.422012880225758003e-01
-9.239915086357467638e-03 -8.646338737329090085e-02 4.511900425046757590e-01
-4.101390922345468648e-02 -7.208787032077251800e-02 4.439026250193956469e-01
-4.723968580816166607e-02 -9.002090416026914399e-02 4.548418241615155844e-01
-8.367155378065635474e-02 -1.028891508729668641e-01 4.869557654444268691e-01
-4.780720264004931913e-02 -1.126080964153866465e-01 5.068669983274295410e-01
-9.120810481195324934e-03 -1.086375985006583500e-01 4.707312680233720070e-01
-5.539238384522780778e-02 -1.009478117933344937e-01 4.705024630526363771e-01
-3.361035947495234072e-02 -8.856413867647322524e-02 4.548545040608258372e-01
-2.639738170304888748e-02 -5.890681518437475284e-02 4.415365098525322884e-01
-5.545088756439824768e-02 -1.098887909013076120e-01 4.997169843764985298e-01
-7.541563876090250085e-02 -1.070277971270011258e-01 5.191175194299217921e-01
-3.836775346417872767e-02 -1.147656261639339176e-01 5.383497623752846462e-01
-2.846272194694390162e-02 -9.616689980415130123e-02 4.622742174502069701e-01
-8.959079879359770071e-02 -1.036777738972629176e-01 5.084932849985612791e-01
-5.143762809828562876e-02 -6.000223681347868071e-02 4.386880601644165822e-01
-4.978709570740780244e-02 -1.122512402560413708e-01 5.076208677937882330e-01
-5.426274498913473410e-02 -1.068315757259943460e-01 4.872001722007499036e-01
-1.013382903276011521e-01 -9.812137146787970610e-02 4.863066042526585919e-01
-2.507503196039408133e-02 -5.962246171429029518e-02 4.416339626380806904e-01
-9.755608618444833180e-02 -8.632492659600649043e-02 4.669422554421645000e-01
-4.390975532702619949e-03 -1.228786237780801482e-01 5.017499373839886534e-01
-1.066023611043943192e-02 -9.252453237330379721e-02 4.549967451487231251e-01
-7.826769905278094241e-02 -7.600038525635227638e-02 4.447470185142893273e-01
-8.362029397799027042e-02 -1.043221177091829405e-01 5.186128506776523928e-01
-3.190944063936546841e-03 -1.252330234553564459e-01 5.121011111642178593e-01
-3.396461609446341928e-02 -1.169206837680109440e-01 5.184805949276368731e-01
-3.157130241132106996e-02 -5.284981084420460606e-02 4.410325276055844790e-01
-9.117528878012531868e-02 -1.032216801949531609e-01 4.986263984473670030e-01
-1.205175706914606709e-02 -1.133247729502462192e-01 4.789642600860778976e-01
-5.942388541567882737e-02 -1.021697728640101055e-01 4.741020788264096453e-01
-1.032657404225311437e-01 -8.615579047313809413e-02 4.742281004763007624e-01
-5.073719484376829417e-03 -1.253706027692947644e-01 5.181929985932212102e-01
-2.445082246611215981e-02 -8.122532908487467562e-02 4.484272575348421386e-01
-9.027156289184094795e-02 -9.903869076447782693e-02 4.775042604434909799e-01
-7.634491035035774475e-02 -7.239765026952668658e-02 4.454689743148431691e-01
5.979328668976718539e-03 -1.265103777216198544e-01 5.310177536119787822e-01
-3.918147812792786844e-02 -1.084953775007255344e-01 4.854240225826724764e-01
-1.397575680094518061e-02 -1.143437465124148567e-01 4.816815935973761675e-01
8.304201816607138451e-03 -1.264079591609392761e-01 5.337020601356784466e-01
-6.029483882489400370e-02 -1.106908652885613686e-01 5.135959542873793637e-01
-1.066168479690782628e-01 -9.012904426409003300e-02 4.803463887391777321e-01
-4.919887051367202030e-02 -1.110429373270523101e-01 4.984286055807570226e-01
-1.670924542037338298e-02 -9.695013664063742431e-02 4.589965329100969549e-01
-3.213484580747578891e-03 -9.467164441778677664e-02 4.568229171199559846e-01
-1.964442813158193482e-02 -1.086791861122499842e-01 4.748571269973608788e-01
-1.870737547226240458e-02 -1.214003736061263078e-01 5.242230780305315863e-01
-3.223370062502725619e-02 -8.227969256497069672e-02 4.491954786723323378e-01
-6.455072791576556279e-02 -8.799627981042443259e-02 4.434454821636228949e-01
-2.041350330948420513e-02 -5.675485203518345484e-02 4.410551019938269146e-01
-4.719974678150911512e-02 -1.135621774853418919e-01 5.149965200530616238e-01
-8.830777287478842885e-02 -1.039368542206747931e-01 5.086735266697537394e-01
-5.187629863882224635e-02 -1.114167086989983346e-01 5.043430436385946125e-01
-5.007607191159596516e-02 -1.082755606393294295e-01 4.905359057807906487e-01
-9.830970688280074934e-03 -1.233331930634922746e-01 5.322467094764108397e-01
-2.899511535275628438e-02 -5.492971505896203366e-02 4.409804861828729439e-01
7.199656133227873636e-03 -1.261883882512672972e-01 5.209512142618956121e-01
-9.676367743219736750e-02 -9.049561309119728836e-02 4.667994075409507837e-01
5.529356054497629527e-03 -1.265181036588459429e-01 5.296196824038866824e-01
-4.788803277165509624e-03 -1.233604167566805104e-01 5.042956128238177405e-01
-1.431449021615494900e-02 -1.036512195976737050e-01 4.651857387802549870e-01
-1.091160491002573507e-01 -8.952269714436207615e-02 4.860390145141013640e-01
-4.015534886244155610e-02 -8.658562549432920197e-02 4.528457550559777944e-01
-6.422733287534135305e-02 -6.452100842767784228e-02 4.397293125089010157e-01
-5.792578803081322586e-02 -1.002443761111977139e-01 4.695790823333412245e-01
-8.641253212082725121e-02 -7.916898737045501011e-02 4.559238735181042612e-01
-9.553422896850168045e-02 -9.020606314879033027e-02 4.653832868962722302e-01
-1.088618316384283996e-01 -9.457998191431636614e-02 4.952799866538051821e-01
-3.386790747913562272e-02 -1.169084489975221880e-01 5.243180176945817506e-01
4.723946722592874993e-03 -1.265731678887940248e-01 5.257864558902722862e-01
-7.059718104694258367e-02 -1.035886774034295854e-01 4.831706085135371032e-01
-4.671960846282211671e-02 -9.780522096260008125e-02 4.654166518517331985e-01
-1.018388754552406739e-01 -9.031712551053598659e-02 4.720050830368114902e-01
-9.805890426731965481e-02 -1.005075492868288539e-01 5.128838182560593317e-01
-7.752276219072455621e-02 -1.058248252682262441e-01 5.223504920005890284e-01
-2.795657647227624970e-02 -7.436461049579548566e-02 4.454807743624684679e-01
-6.106498803245693358e-02 -8.143026831941096999e-02 4.383288883387306822e-01
-2.163761578349511841e-02 -3.948902656168747083e-02 4.404269351587813963e-01
-2.632155136092056633e-02 -8.313805756284564641e-02 4.494297579097667472e-01
-6.614641769740811639e-02 -9.116123609281230611e-02 4.475975318201778075e-01
-5.495966183205094197e-02 -8.523302627926022945e-02 4.461467947738489981e-01
-7.014631184990789692e-02 -9.587586057326201450e-02 4.618825306550166654e-01
-2.635847343058127928e-02 -1.041985979170225451e-01 4.714594327344237001e-01
-5.117822188603664973e-02 -9.029335877732937166e-02 4.535113190651632875e-01
-1.385819669842729487e-02 -1.036708848514237558e-01 4.651565168625601543e-01
1.984508432483359300e-03 -1.224269190912232602e-01 4.998914053141791936e-01
-3.405571623294742500e-02 -8.739852841416037577e-02 4.537618479667752114e-01
-6.285948807796626348e-02 -1.075414822276160587e-01 4.950055176286530245e-01
-7.409080704393845862e-02 -7.541794346279727390e-02 4.389094315108766353e-01
-5.128833240024596035e-02 -9.371836034250664860e-02 4.583742378046521404e-01
-1.738976051588064092e-02 -8.347061603775321470e-02 4.492511522501979049e-01
-7.050804413518683977e-02 -9.654166797990659799e-02 4.636998237246282017e-01
-1.100574918201687249e-02 -8.278960261082377037e-02 4.491758397713140893e-01
-5.785657943003619241e-02 -8.644207991625399434e-02 4.453825258795213182e-01
-1.070530256986954865e-01 -9.704589129310164930e-02 5.100506080202465986e-01
-5.128949309432615650e-02 -4.597412641128242189e-02 4.399559347328281245e-01
-8.674635552746379208e-02 -9.646429150853519374e-02 4.695993591734671235e-01
-5.747927154198403249e-02 -6.191762905622649749e-02 4.369249432796398214e-01
-1.673809122215309461e-02 -1.121952520146249771e-01 4.793790594308069974e-01
-4.647995966612313706e-02 -1.064752125950551714e-01 4.840788501289629009e-01
-2.995091025584452338e-02 -5.349974558421605880e-02 4.409865009560322013e-01
-7.313484780504438294e-03 -1.223554792373182792e-01 5.015545707095038219e-01
-6.318594537936796096e-02 -1.077425504783636329e-01 4.963487881971811455e-01
-6.806920881611794316e-02 -9.424500521862942681e-02 4.571282801855309219e-01
-5.894569318883217252e-03 -1.228661267553569636e-01 5.028213532198128055e-01
-1.811908276518900407e-02 -1.146686778854092703e-01 4.855550419771449411e-01
-1.068584612990678695e-01 -8.580556788310443606e-02 4.818417586210246850e-01
-3.422010739250045536e-02 -1.099080592269853357e-01 4.860109551974846065e-01
-3.949009970748867948e-02 -4.145743427837309675e-02 4.392556677273680155e-01
-2.202898867369785033e-02 -3.866902722924362573e-02 4.403246015161072502e-01
-1.091497569242510651e-01 -9.424248926836997775e-02 4.961241963093988572e-01
-8.762371429952327262e-02 -1.004704174928895133e-01 5.261156825750326060e-01
-5.531864370307702089e-02 -1.036487400602140035e-01 4.774328868735321363e-01
-8.896606706059066727e-02 -9.458494821347243620e-02 4.671361415125986905e-01
-4.962109257050963812e-02 -3.875495759744752855e-02 4.397157491413229424e-01
-1.378293798370933999e-02 -1.211576600777199697e-01 5.401192850764953146e-01
-6.501356153179638220e-02 -1.013193509891256311e-01 4.740823368866504683e-01
-4.676082043939192023e-02 -1.138691015206717977e-01 5.253464225675180677e-01
-8.305784209566484388e-02 -9.242679477356446904e-02 4.600760867989878156e-01
-3.364065594341555943e-02 -5.065668796647761901e-02 4.407623213772338677e-01
-7.632221949047817561e-03 -1.236118791112371523e-01 5.077228084377179984e-01
-3.182144993569010344e-02 -1.151999491283267202e-01 5.001794251130883273e-01
-6.915810355591764380e-02 -9.452118009878336669e-02 4.583053153088260112e-01
-1.821013753262202411e-02 -6.908430510433012650e-02 4.436028462122934557e-01
-7.548791881152301653e-02 -1.044062273261171375e-01 4.895628936662584363e-01
-7.683154326114312316e-02 -1.068603014582949901e-01 5.107877745810595060e-01
-6.472377431378745216e-02 -1.004585403892039319e-01 4.718770049180164294e-01
-7.207190907781579892e-02 -1.016715675116094397e-01 4.774479712077003279e-01
-7.370132953856159408e-02 -9.943771888142019511e-02 4.717206817544278841e-01
-8.489032183010754296e-02 -7.956819091272604449e-02 4.530822723802081509e-01
-1.823480080166306125e-02 -7.727411215201804295e-02 4.465152348571289065e-01
-3.042624241113980194e-02 -9.381652006638380170e-02 4.600229594079156548e-01
-3.799551201847260057e-02 -1.152243341592679160e-01 5.353723585457254019e-01
-7.914555971009930302e-02 -1.033950678364422282e-01 4.865843448377706326e-01
-9.784025755276488934e-02 -8.386327971464702102e-02 4.682331037145271990e-01
-4.118296365729809394e-02 -4.989278290659018150e-02 4.399689626770967865e-01
-1.824867401541267753e-02 -8.804465952261449069e-02 4.516844284146617761e-01
-1.548991336022293407e-02 -1.177508022304807611e-01 4.917316912322404199e-01
-6.879335511394485403e-02 -9.283743388182097434e-02 4.527081069187099405e-01
-6.255124572422450513e-02 -1.080533329228613865e-01 4.973041591028776742e-01
-9.642005669767077236e-02 -8.059913107978115832e-02 4.693958815418328712e-01
-2.211719187524375033e-02 -1.202049927377926153e-01 5.125725119635650140e-01
-5.556408418489927614e-02 -8.521620477553958073e-02 4.456521331645970641e-01
-1.070374544433505409e-01 -9.674027596407827612e-02 4.943086729291675807e-01
-8.028522797084146345e-02 -1.055864979413068533e-01 5.026085330077515456e-01
-2.546511184493778154e-02 -5.534138839433054569e-02 4.409574420728208932e-01
-8.064698091738062291e-02 -7.787980621430000416e-02 4.465508910629195638e-01
-5.412571994618978893e-02 -1.114927618665354225e-01 5.092903494953510135e-01
-4.654826744917443804e-02 -5.166258314604145474e-02 4.397896113960044207e-01
-1.405907226105290904e-02 -1.171992743074714849e-01 4.892398968037920959e-01
-2.290624868237941050e-02 -1.173480920271126604e-01 4.985424833824910196e-01
-1.061819704108779849e-01 -8.653691644070941880e-02 4.796781706239219845e-01
-7.960221976324359516e-02 -7.654409873482111160e-02 4.460555260823632628e-01
-2.653927264461537067e-02 -1.159128262550671723e-01 4.983095584807332168e-01
-4.245833764391331727e-02 -1.048672265367104894e-01 4.785775267961293600e-01
-8.789606724722818371e-03 -9.156162838766326861e-02 4.543682121514533989e-01
-7.008381317612503991e-02 -1.084015055935136640e-01 5.102580611394107457e-01
-3.162797476239383176e-02 -9.399511521358040744e-02 4.604350030682566874e-01
-5.558103016493022575e-02 -1.025970512837626747e-01 4.743110831240083813e-01
-4.234919994068070404e-02 -1.073114030538539765e-01 4.843674009566054650e-01
-6.252575257307230183e-02 -1.036926750648299589e-01 4.794542331928744461e-01
-7.163184076164853809e-02 -1.073851149738661859e-01 5.035326930828972758e-01
-5.944575699959491616e-02 -1.084937524093753519e-01 4.965847306749296419e-01
-1.043949550302133468e-02 -1.216131338041479132e-01 5.007836194192901713e-01
-4.490571832728203899e-02 -1.032267942293527696e-01 4.752493059027204092e-01
-5.798138316935888548e-02 -6.563740678157582720e-02 4.365901672170150460e-01
-2.026243244492363302e-02 -1.208599519949336287e-01 5.245042547213443207e-01
-7.006125471540403105e-02 -9.697775250225242061e-02 4.646507663502111862e-01
-3.748046601299682284e-02 -4.504080144405338271e-02 4.399293869871991336e-01
-1.062783992613250406e-01 -9.854905929442490942e-02 4.991712383302046585e-01
-6.263003376310050108e-02 -9.564716179693497078e-02 4.596369697807711208e-01
-4.571869360099655583e-02 -1.027129511667441292e-01 4.740392373072618293e-01
-5.068992920620283421e-02 -1.123604581268309310e-01 5.102871641899606736e-01
-4.263974731065708901e-02 -5.744743943388858770e-02 4.407051214463156841e-01
-3.126477635416836931e-02 -9.613458737422637956e-02 4.629932845971277966e-01
-5.609915630289781519e-02 -8.832450314480289055e-02 4.491785642261851841e-01
-5.605120542578479609e-02 -6.267862091492670817e-02 4.372423087230816185e-01
-5.388611352094239276e-02 -4.585748182069102064e-02 4.404387492626219425e-01
-4.918549685892557866e-02 -8.847044802043892153e-02 4.524809672586329601e-01
-7.245797034273409633e-03 -1.243108422083735176e-01 5.116277368085342392e-01
-5.378424065010425220e-02 -6.559897781933396455e-02 4.379585783867070425e-01
-1.899487105724061153e-02 -1.169809857190950847e-01 4.923855906930324489e-01
-8.124329788123511864e-02 -1.047689918279336302e-01 4.964859840197922702e-01
-2.974866459479669906e-02 -1.092867238570629784e-01 4.822619911494053224e-01
-9.075863572022278489e-03 -1.227774986710513105e-01 5.049997028127798382e-01
-4.160940132888061443e-02 -8.354538641155402623e-02 4.505269902780071889e-01
-2.834740680337570137e-02 -4.272366900801956996e-02 4.410023937618062218e-01
-2.365620687444481771e-02 -1.195715256378131475e-01 5.286949507635186896e-01
-9.919441192062387891e-02 -8.528413488542362086e-02 4.694704622728764210e-01
-1.149616499210664132e-03 -1.215113438451538436e-01 4.967015914609322347e-01
-4.780928331618074234e-02 -1.135286555160359423e-01 5.162791028259806625e-01
-6.175633208537998492e-02 -9.328888184322442489e-02 4.539893389218683795e-01
-3.481120310028525122e-02 -9.460257079478175124e-02 4.615141815351601062e-01
-8.237429326172900079e-02 -7.979722900308509892e-02 4.491671629616239558e-01
-8.517622718878604948e-02 -1.038813113202775862e-01 4.946002718677112164e-01
-8.228204306968010806e-02 -1.041734718053157066e-01 4.930465307634853134e-01
-7.532183756561780519e-02 -8.943468319504986608e-02 4.492565088750242741e-01
-4.834327606368668193e-03 -1.254417114545264833e-01 5.254434313148789171e-01
-8.879581454178844813e-02 -1.038498769875151745e-01 5.064458763549678499e-01
-5.797040616806798524e-02 -9.411240370942104694e-02 4.571823496379748275e-01
-5.275857411745477760e-02 -1.120765839074792103e-01 5.278280266381563113e-01
-9.274930985392785404e-03 -1.082385024364182491e-01 4.701415263006034073e-01
-1.361579546973134235e-03 -1.260819398269066582e-01 5.176088335604814850e-01
-4.219315580424900375e-02 -7.884280203824649280e-02 4.469791612491700317e-01
-4.300110298447523682e-02 -1.143499175402880735e-01 5.122448631033387212e-01
9.726089267308311165e-03 -1.265906525843906172e-01 5.246357061697108914e-01
2.913142978184434569e-03 -1.263052559209680847e-01 5.183142880715787548e-01
-9.166822329308493833e-02 -1.008001103291623901e-01 5.203753448977124219e-01
-1.031753425824970954e-01 -9.243923454133765039e-02 4.753763886808706207e-01
-6.705506872255170836e-02 -1.087927432498310698e-01 5.245878693580637853e-01
-4.218001931435029668e-03 -1.194630350771770516e-01 4.916213129899678624e-01
-2.315048209244224137e-02 -1.199399836263445734e-01 5.247048460785880275e-01
-7.369221872693879072e-02 -1.058626447904174039e-01 4.963927048874601233e-01
-9.115360996979554598e-02 -1.020494683552881088e-01 4.905029013875394361e-01
-6.626940733868882938e-02 -1.095754223005546008e-01 5.166041989748242358e-01
-7.762261887264283733e-02 -1.027036715414554741e-01 4.831741273977636086e-01
-6.428569107309309305e-02 -1.100324438572964220e-01 5.166171658564976399e-01
-5.896795708610255357e-03 -1.101725212766474921e-01 4.726843378706158671e-01
-8.712039280892663884e-02 -1.038518589453320817e-01 4.978533217310882608e-01
-7.594061447599927128e-02 -7.508828914220856687e-02 4.420215482282123243e-01
-5.748847258453571030e-02 -4.927093471135180619e-02 4.406912393777344117e-01
-3.406834236527052362e-02 -5.441361968090873552e-02 4.408517568814778742e-01
-8.447702226040841589e-02 -1.048339495266983612e-01 5.119072960451166443e-01
-3.398388180103324024e-02 -4.990410540324362321e-02 4.407120355172813309e-01
-7.289123488484500202e-02 -1.077687211584582444e-01 5.176827259492151612e-01
-7.041506684075209133e-02 -7.706158644996671803e-02 4.352701785166641080e-01
-6.677597694545733820e-02 -1.034000121250193555e-01 4.800185540204039980e-01
-1.024959764084925132e-02 -1.117313712324886910e-01 4.757468658369728987e-01
-4.041106258858923744e-02 -1.001965793255140819e-01 4.693408822019846660e-01
-1.714077938309333318e-02 -1.201648334929115436e-01 5.411625781960203163e-01
-6.274733248931969876e-02 -9.876443243073922129e-02 4.672609884144225956e-01
-4.435061023759082066e-02 -1.082661670793780145e-01 4.877988610516054702e-01
-7.046720645436708660e-03 -1.249403005258033772e-01 5.184447406562056049e-01
-1.091681813150138514e-01 -9.360705152398518525e-02 4.941343743147988410e-01
-9.929769196952206722e-02 -1.000996823402574010e-01 5.120676075964744056e-01
-2.457591197207815992e-02 -5.207487207472470681e-02 4.408819314158026192e-01
-3.349593145197995309e-02 -1.097078454041693490e-01 4.851285311666050371e-01
-7.594873609530274072e-02 -9.800281898308095541e-02 4.683653461599060486e-01
-4.119601607975435786e-02 -1.079651077991666680e-01 4.853164825810902805e-01
-4.693036779050611951e-02 -1.126505591574551712e-01 5.055633193669509806e-01
-6.393076160322548607e-02 -8.627586963063460512e-02 4.415276946297124749e-01
-7.996800508523770057e-02 -1.045932027087226462e-01 4.942108289634715712e-01
-7.981260229202398471e-02 -8.865147450113036731e-02 4.510576940523178813e-01
-2.060249506871519171e-02 -1.184051335825525575e-01 4.997280842477241358e-01
-8.814996532467717777e-03 -1.219674347541777060e-01 5.010265504043365237e-01
-1.421401964964700074e-02 -5.944031995329377566e-02 4.409602713938277074e-01
-1.980834512658066066e-02 -1.200417309149379441e-01 5.064759317736914346e-01
-1.042892241187519803e-01 -9.941645425027796634e-02 5.041322947796029741e-01
-5.172924210679358953e-02 -8.772417282929720339e-02 4.507393595874031877e-01
-2.797928419316720802e-02 -3.887174017442667634e-02 4.407747910117288392e-01
-7.886831707071015329e-02 -9.680952632084117992e-02 4.667475170681950614e-01
-3.593943735383083038e-02 -8.619078978056055051e-02 4.525359354475155249e-01
-4.186823524905560617e-02 -1.108239691781654351e-01 4.931994978764107085e-01
-2.767003049344492205e-02 -1.186886266032748105e-01 5.200243113952995877e-01
-8.461359224612363672e-02 -1.016080813638354785e-01 4.818252938219448334e-01
-1.898619603215619817e-02 -1.198897110974595226e-01 5.043669998773916419e-01
-8.488819375069898976e-02 -8.297620161391004723e-02 4.534210010250809830e-01
-7.345407881340003386e-02 -1.076323490867100302e-01 5.105576649940741785e-01
-2.029530480437283235e-02 -9.941108535858309003e-02 4.620609984706766094e-01
-7.145338408419085741e-02 -9.266581539159500502e-02 4.544310525687163538e-01
-7.669071245954706129e-02 -1.004737624326795808e-01 4.754490000730018928e-01
-1.446422271584303296e-02 -1.213568085170000227e-01 5.048036360391819910e-01
-2.855074811520401379e-02 -9.180263583037230612e-02 4.574792351725856521e-01
-9.072306148187760100e-02 -1.027406922426260943e-01 4.943895603638435721e-01
-5.160353661273228698e-02 -9.991467280951793484e-02 4.681223898848510534e-01
-2.596799884795996174e-02 -1.004206879693274462e-01 4.658060736555417747e-01
-5.409057396630347764e-02 -1.061665885674807769e-01 4.851180241879782251e-01
-6.315307945326571748e-02 -6.964847819626678038e-02 4.361232226085213215e-01
-6.059403757485638808e-02 -9.375159341707578475e-02 4.555423456617895273e-01
-4.648977121729790107e-02 -8.369514529033096617e-02 4.497262665415747152e-01
-9.529968758656447159e-02 -9.969389725326821550e-02 4.832626210735431194e-01
-2.481483159763088822e-02 -1.188245883193859986e-01 5.354173602960839995e-01
-3.326986415141159475e-02 -9.264320340173362589e-02 4.591550157398661125e-01
-8.627770201379064349e-03 -1.203711553199849627e-01 4.954267233211601673e-01
-7.848320914751386393e-03 -1.247757905271625334e-01 5.188800515753809739e-01
-6.283020870707785310e-02 -1.009117861709709213e-01 4.724793867726064245e-01
-1.872828478647330791e-02 -9.350157403632460007e-02 4.563574559274178877e-01
-4.022982698027169346e-02 -1.121870769722593114e-01 4.962651497494754982e-01
-7.708062759983853873e-02 -1.008102971739508608e-01 4.767310640091994567e-01
