-4.025295201280129631e-02 -8.730431135546659616e-02 4.568899619864526529e-01
-6.433990141194631529e-02 -8.684495493368828145e-02 4.511884137017198593e-01
-6.940878243283944704e-02 -1.066540356563251968e-01 5.099531571271120889e-01
-7.203209718889273805e-02 -1.059745403152028698e-01 5.091696637354246047e-01
-7.144308341844017585e-02 -8.866965192379840099e-02 4.553863553370282591e-01
-1.032362511383635439e-01 -7.987990969457672841e-02 4.786647919473827617e-01
-5.194252222258927132e-02 -1.103953288568862851e-01 5.072813619389704431e-01
-4.235809899419870628e-02 -6.360727637145993651e-02 4.435666130261717854e-01
-7.387139387836967608e-02 -1.037945901640937446e-01 5.324849958943735917e-01
-2.896031797361665883e-02 -7.626501201390245566e-02 4.480447353152473555e-01
-7.501726786533338687e-02 -9.450702466536710367e-02 4.698813774380714570e-01
-1.914925822692238599e-02 -1.148026546375924828e-01 4.880307503092647936e-01
-2.229213382913262931e-02 -1.116663989107552907e-01 4.844734650016834232e-01
-6.743442044796357782e-02 -1.075331490637555093e-01 5.255996488910184006e-01
-5.609932393011023838e-02 -1.029056463901093649e-01 4.829922997160246978e-01
-8.384150658974334758e-02 -8.639777763816428036e-02 4.593594528733150884e-01
-9.199709495443558760e-02 -1.001526609057540734e-01 5.173408682385352009e-01
-2.503686455718415887e-02 -4.638089947596505530e-02 4.416682358743793668e-01
-1.059298408591152069e-01 -8.089434741385329031e-02 4.823957243687352903e-01
-2.244721173213504520e-02 -1.164674865920490715e-01 4.966420582300118403e-01
-7.886664432127691096e-03 -9.733873182620414455e-02 4.603382667664168704e-01
-6.521997870559442974e-03 -1.250223690853205227e-01 5.229689467428189076e-01
-1.032811216763476203e-01 -9.327553119509049417e-02 4.858969797060856965e-01
-7.653600446400661561e-02 -8.705746193690472312e-02 4.551820104946167067e-01
-7.765009338846638742e-02 -7.099604934434612658e-02 4.443658344861585174e-01
-3.093800426362640008e-02 -9.084592570542816825e-02 4.593770547449461117e-01
-5.474072421857859028e-02 -3.700790642606963110e-02 4.427063109579918998e-01
-2.784943613454517880e-02 -1.136964699560815001e-01 4.952293479676033727e-01
-4.064889992677812175e-02 -8.519563898599609442e-02 4.549611600260135003e-01
-8.727278386600446913e-02 -9.358111228573409712e-02 4.732655123562091726e-01
-4.432052506231431294e-02 -1.030580895434376476e-01 4.797116369689493620e-01
-3.477251278389492661e-02 -7.642195878368739093e-02 4.485206317190347791e-01
-4.705728882377956807e-02 -1.122865271030183687e-01 5.123081956066958265e-01
-6.626193715778549119e-03 -1.246639558144624765e-01 5.291498012106918836e-01
-5.275578658419893818e-02 -5.785453033458396593e-02 4.408070343839587402e-01
-4.368930748011620735e-02 -4.529992773562733360e-02 4.408055218060051850e-01
-6.408062628639826785e-02 -8.794098661884335033e-02 4.531034258748938282e-01
-4.123095243321175246e-02 -9.635229998869319912e-02 4.678521606958425672e-01
-9.501780504852126719e-03 -1.238050157656988559e-01 5.137199099612108633e-01
-6.401663870672566481e-02 -1.083747249287033143e-01 5.268924006072482902e-01
-3.629547080060329528e-02 -1.114554551553577078e-01 4.952363299106181116e-01
-9.106493166550475027e-02 -8.681071307785773183e-02 4.641835783378411295e-01
-6.833759669674981108e-02 -7.473969813942048235e-02 4.392469421200483892e-01
-1.846321146445342037e-02 -1.174933055341268323e-01 4.953724132202449448e-01
-6.645102104895442285e-02 -1.081054755411342133e-01 5.183975388348444069e-01
-5.386263968925231876e-02 -8.130693253480203442e-02 4.505360707491410377e-01
-1.115532365360489553e-01 -8.730456658618636345e-02 4.941140407784032074e-01
-1.924411931791335240e-02 -1.181823586788444402e-01 5.462396268754756701e-01
-8.424008781822572844e-02 -7.618867818236800538e-02 4.523637342454012722e-01
-3.893472103998633221e-02 -1.134508167463610523e-01 5.048333815147059145e-01
-6.237977876635425294e-03 -1.223175079695024980e-01 5.021543326944242214e-01
-4.047196717011924960e-02 -3.139511650532476883e-02 4.390626611660041756e-01
-4.983254211768451541e-02 -1.122379836910436801e-01 5.213023212600599310e-01
-3.858997860241006328e-02 -7.222399474216092963e-02 4.465079803209345832e-01
-3.766734658551185860e-02 -5.543429544676913012e-02 4.423804197176495201e-01
-8.728667886080048594e-03 -1.037554045172752321e-01 4.663345934708801321e-01
-8.736649032136099835e-02 -8.230777842698365487e-02 4.578043353142371430e-01
-9.349115215842818127e-02 -9.953316541697748709e-02 4.974561756713691274e-01
-8.770409329826782396e-02 -8.349699241234218028e-02 4.584468359084155620e-01
-6.276765178032830961e-02 -9.929647345517343682e-02 4.758408594549060067e-01
-1.943829108851085480e-02 -1.210522481590353694e-01 5.154391195139763626e-01
-4.918759239571331154e-02 -7.779775831768713512e-02 4.492890444772275615e-01
-1.061175888699404102e-01 -9.199595099398687192e-02 4.870226145105944204e-01
-5.610336625006831501e-02 -5.251429314690574807e-02 4.405609048287797425e-01
-5.612572972935783028e-02 -3.889300484474372127e-02 4.439414309638313183e-01
-2.538385772325769604e-02 -1.185080187638436200e-01 5.115573911763962034e-01
-4.852457620523230319e-02 -9.629896725945127911e-02 4.679956911170711220e-01
-3.706008072544102888e-02 -7.962743455481702259e-02 4.504082134661495651e-01
1.493070804995883308e-04 -1.241962318161150824e-01 5.078983282831611712e-01
1.300248008479889215e-02 -1.257641808330007271e-01 5.355266193395240570e-01
-8.024119401341812952e-02 -7.809793573187306936e-02 4.468173763874964677e-01
-5.191601367233699554e-02 -3.423516992798728703e-02 4.417662471101113653e-01
-2.013108419908962027e-02 -5.372517356062403437e-02 4.413329179508176936e-01
-8.383203565255629985e-02 -1.026855189738412194e-01 5.046539216767144120e-01
-3.618517095793555988e-02 -8.661504078880008506e-02 4.560631310378534531e-01
-3.063611686539920859e-02 -8.731588161861565667e-02 4.558380585742908275e-01
-5.928326391352942842e-02 -7.068780825257475753e-02 4.408695899672732121e-01
-5.246734165987323312e-02 -1.103848589709516825e-01 5.082204424943013166e-01
-3.156109107556209770e-02 -3.476533802101988702e-02 4.404518801117167093e-01
-6.418745763179101171e-02 -8.015008432885453726e-02 4.444348647222964854e-01
-4.810225169482163637e-02 -1.123195231663473015e-01 5.302403208274290014e-01
-4.941671085880727093e-02 -6.953140571254856628e-02 4.443906787652750490e-01
-4.482811415642015684e-02 -5.040388583335640021e-02 4.413955940916488019e-01
-4.875196785467874813e-03 -1.176320656229836864e-01 4.884073727463617565e-01
-4.270562529440635746e-02 -1.056057084671818413e-01 4.844234409327119462e-01
-2.998239398229092523e-02 -6.416161497132472080e-02 4.437833937609488300e-01
-4.235456368919831432e-02 -1.133271124687861564e-01 5.360241858977895513e-01
-4.287287135441888997e-02 -8.294682548390627796e-02 4.535616165151163393e-01
-5.786444081785703519e-02 -7.015198957396670543e-02 4.413741450952224366e-01
-7.649510604238707323e-02 -8.500219386364811502e-02 4.515653702896011978e-01
-6.669164854331781356e-02 -8.170122171480834194e-02 4.450477257845565915e-01
-6.244470410417191086e-02 -6.766796827251701785e-02 4.388640733213445277e-01
-3.602429221738959880e-02 -1.039423043981161365e-01 4.781201318508703224e-01
-1.020847588674725359e-01 -8.571691101763673215e-02 4.746604570499238784e-01
1.620530815552156424e-03 -1.256481554084353525e-01 5.154088329982567940e-01
-6.556739389214678859e-02 -9.903393476133003082e-02 4.766771437606516781e-01
-3.854892324472024984e-02 -1.088886190597845999e-01 4.895960023499826841e-01
-3.356093822418856204e-02 -1.118606223581825737e-01 4.945379202985352163e-01
-2.522703651966320265e-02 -1.187800224166711549e-01 5.290032404802357258e-01
-8.943790334786630436e-02 -1.005357299957389122e-01 5.202507183709483840e-01
-6.172720378409848885e-02 -8.132215436061483727e-02 4.464153855959066552e-01
-5.179487540184418704e-02 -1.084112211905301770e-01 4.973900993488897804e-01
-4.210449784452791749e-02 -1.017034424837610640e-01 4.762488621059037808e-01
-2.577024517478650190e-02 -1.087611039567897564e-01 4.817141565326177877e-01
-6.714395307635095955e-02 -1.071536894100758308e-01 5.282358611225768108e-01
-6.334099299140999451e-02 -7.733566853493832605e-02 4.423196618096333910e-01
-3.842825081288787914e-02 -8.771336277244541624e-02 4.572099887146174324e-01
-5.904241466002550787e-02 -5.042138125746117860e-02 4.414497622151257183e-01
-5.633586354266541252e-02 -9.709830099790382751e-02 4.695891041325991333e-01
-6.779674583282166433e-02 -1.014756158258918323e-01 4.840521202619733065e-01
-2.494306592258586572e-02 -1.158584726670059684e-01 4.981681612982620799e-01
-4.208334621568395051e-04 -1.217109403640875276e-01 4.990581936044946043e-01
-4.076748702928383039e-02 -1.079373537511354175e-01 4.887879745785576047e-01
-7.653411498899824472e-02 -6.794626225294801702e-02 4.453627977316303999e-01
-1.735516407757409924e-02 -1.147903728337941881e-01 4.866623782162683431e-01
-1.003743117303401572e-01 -8.734352157541973305e-02 4.731661240488400644e-01
-5.306547382461358764e-02 -1.114183903147137333e-01 5.201765843814107892e-01
-2.748178083799811267e-03 -1.257954970284804186e-01 5.261538499966419424e-01
3.675365738126099187e-03 -1.261883885692990648e-01 5.218867167953789021e-01
-6.141782406288186225e-02 -1.082074878601462370e-01 5.325789243793284111e-01
-5.760014107543528356e-02 -6.420355702719610091e-02 4.398664684297499683e-01
-5.525243931946106218e-02 -6.343085988868638059e-02 4.406543555624212738e-01
-6.594042906977569396e-02 -9.618043261169417768e-02 4.703051100918403948e-01
-8.875231557760313028e-02 -1.006257292513996204e-01 5.210009295146625918e-01
-2.908129845338770780e-02 -1.125522580289068653e-01 4.929113325973810134e-01
-1.049351653795581735e-01 -9.415154694367063037e-02 4.917329194118036373e-01
-6.001646905517415281e-02 -6.890526299083710171e-02 4.400150842091872794e-01
-7.183391395665325585e-02 -1.039699112676981119e-01 4.973328515786784032e-01
6.072988428382239054e-03 -1.262189508058878806e-01 5.334959813232412751e-01
-9.224430376341929971e-02 -8.324149193013861969e-02 4.629617836800197783e-01
-5.761069919940586120e-02 -1.062563588979950069e-01 4.941795249282806002e-01
-1.927917765948354220e-02 -4.638911548646295485e-02 4.408386527199504856e-01
-7.850322597872218255e-02 -8.035067252169811325e-02 4.468174517752088737e-01
-4.418324685052404249e-02 -1.044137316321891301e-01 4.825857684260839719e-01
-5.215085446031869632e-02 -8.589532680848316337e-02 4.545731065684753824e-01
-4.705060895861699899e-02 -1.060771946132569171e-01 4.881855150228120999e-01
-5.652814801613429557e-02 -1.033426313699114946e-01 4.844218287876322360e-01
-7.536336698908026321e-02 -7.330598676191869834e-02 4.412221593785551899e-01
-5.873121739435453736e-02 -4.821981360244016052e-02 4.419150954608353499e-01
-3.769506147489843501e-02 -1.115314011313423143e-01 4.964098316707835079e-01
-6.073480206750104388e-02 -1.090062954126725797e-01 5.295515485827807511e-01
-2.029725338976237983e-02 -5.355566839996153683e-02 4.413258224622682024e-01
-3.807512182616584057e-02 -4.260828784911870060e-02 4.407540958897486205e-01
-5.098927868001145586e-02 -4.650684949841088489e-02 4.414747088481550397e-01
-7.328999364024728347e-02 -9.704878429138766305e-02 4.751443390070937411e-01
-4.055477327516167352e-02 -1.100779277330269229e-01 4.942443475856964086e-01
-4.307033353618384963e-02 -7.116990365970191079e-02 4.462261725542984170e-01
-5.837477010964396001e-02 -1.014833744324035447e-01 4.797316025706298004e-01
-6.710505079761995562e-02 -9.962265533705552678e-02 4.786847950755311887e-01
-7.329855235146527648e-02 -1.055805575151181619e-01 5.256870059394409544e-01
-3.828669735453262696e-02 -4.232222731059797488e-02 4.406881152741244922e-01
-1.240757197251278823e-02 -8.859633150915159627e-02 4.534098033430157826e-01
-5.528229088923568985e-02 -1.099003069676249000e-01 5.098508652038024058e-01
-9.338025530678094321e-02 -9.305530612112077049e-02 4.760330278304257257e-01
-7.195861499207099887e-02 -1.023935777085688281e-01 4.908570158080482471e-01
-4.863308663234879731e-02 -2.709660584662194893e-02 4.396357359431835587e-01
-7.242678453706605235e-02 -1.060865820513478830e-01 5.113212237153144102e-01
-3.246092464837185831e-02 -1.164352205826336278e-01 5.132315597253417350e-01
-5.826770776091034360e-02 -1.056788344373442851e-01 4.926155915692930209e-01
-3.926906352090957231e-02 -1.143255751625002897e-01 5.359576222136390733e-01
-2.707175226765703296e-02 -1.004704080269663569e-01 4.681620105196871995e-01
-4.863066851127055557e-02 -9.377963685089932278e-02 4.645497754222283060e-01
-3.827729721622605968e-02 -7.871097744090820025e-02 4.499007569670701034e-01
-5.333156673293412697e-02 -1.106977800728313061e-01 5.124515524574687619e-01
-7.445428427116237979e-02 -7.999069819199794429e-02 4.441735716105096321e-01
-3.167515370367504635e-02 -1.170173784310557935e-01 5.225848524057714606e-01
-6.278789607246453019e-02 -7.550847541049533762e-02 4.410564234276280748e-01
-7.179911753515427764e-02 -9.942304636646741300e-02 4.804890230952660324e-01
-5.313122037610472359e-02 -5.912586968014266198e-02 4.408388105605974272e-01
-3.665503868664748977e-02 -1.120397325364355101e-01 4.971645044639848576e-01
-2.578965714787159746e-02 -1.023379557074432511e-01 4.700436690874027490e-01
-3.529913867024048885e-02 -7.209121344505931006e-02 4.463779776676449207e-01
-3.321140635233681832e-02 -8.429061984952715414e-02 4.534935109467436720e-01
-3.939268435814611419e-02 -9.983864746364701226e-02 4.724440124370826166e-01
-7.003589985835820264e-02 -1.040005224570087899e-01 4.958501710357177128e-01
-5.372203405885815630e-02 -4.527886295475766487e-02 4.415091093078842288e-01
-1.110484657289380686e-02 -1.150515883627067915e-01 4.835038581364102250e-01
-9.437199460388209782e-02 -9.784454898904568210e-02 4.894472696875110107e-01
-6.503619885045403004e-02 -1.011382877956128606e-01 4.814263068487468211e-01
-1.398470674129178790e-02 -1.134817644319380536e-01 4.813887279199691172e-01
-4.151179186692384449e-02 -2.643823325705819613e-02 4.387625799751234679e-01
-4.121814493607919155e-02 -9.298290300083598969e-02 4.636379227643012135e-01
-2.945229607688862068e-03 -1.192898223472869113e-01 4.923587233603174407e-01
-7.999202195935523063e-02 -9.938385096464934232e-02 4.846038028563640077e-01
-1.208460986827905939e-02 -9.453895018571252529e-02 4.580856015714067087e-01
-4.309749491528181570e-02 -1.130996310207128958e-01 5.353928826790579354e-01
-9.819202438670040362e-03 -1.240873593454240031e-01 5.177795110132149548e-01
-5.457545906935379332e-02 -2.989154913819308187e-02 4.465851504265299088e-01
-3.323490628258393698e-02 -9.010210672085518235e-02 4.592821720452335277e-01
-9.169326507649604163e-02 -9.891833902398798617e-02 5.229097787529497499e-01
-4.943468058806939347e-02 -1.081117871250790730e-01 4.948754062619475924e-01
-2.553841379449881682e-02 -1.168015665695077421e-01 5.022156014323934103e-01
-2.420843221539909634e-02 -1.175282185000169483e-01 5.036115199203750059e-01
-1.020597989182488868e-01 -9.777800792573285160e-02 5.097324069266820912e-01
-7.220657136751265637e-02 -9.968661333111998590e-02 4.814939263412879589e-01
-4.100532651324540617e-02 -1.075156027024576355e-01 4.879129524930764794e-01
-4.399809423191933244e-02 -1.134882541945685386e-01 5.170993516450295147e-01
-2.328990602678383294e-03 -1.249256638703154787e-01 5.111850581734150856e-01
-5.662649810637072206e-02 -1.016799224670094787e-01 4.797514729136127531e-01
-4.646661583893666597e-02 -5.686258240429836047e-02 4.419815840429358600e-01
-8.340529960122056163e-02 -7.103528511013797175e-02 4.538905429885341514e-01
-2.153335599759480939e-02 -1.068149026347201408e-01 4.744978665072283053e-01
-5.547394339696269661e-02 -1.103949975561899083e-01 5.144466884245856297e-01
-1.077762690398095941e-01 -9.520131691652893025e-02 5.086626226905998083e-01
-1.100187602352888094e-01 -9.166569143906699857e-02 5.065774597017167480e-01
-2.017496330429169316e-02 -8.479579297247798186e-02 4.513685867864129508e-01
-5.464200447535587368e-02 -3.086223435189328068e-02 4.460943915522184722e-01
-6.467014159443480736e-02 -5.615007662723125320e-02 4.439266714957011417e-01
-6.085946475395565686e-02 -6.890098420603892049e-02 4.396222813382960060e-01
-4.023853401983381456e-02 -8.163077296006944483e-02 4.522516357204592330e-01
-1.359554903239560547e-02 -9.670842900504848794e-02 4.600120486948744980e-01
6.582360074872639112e-03 -1.262637595110596145e-01 5.231896817864716276e-01
-4.067531670231867152e-02 -7.294828188064533814e-02 4.469363966660004905e-01
-5.366311680170389453e-02 -4.862808705096545447e-02 4.411489065615049610e-01
-6.117750759959910550e-02 -1.027402489063228008e-01 4.850787679741391245e-01
-6.703953939955163699e-02 -1.068633634648374353e-01 5.301380947536076249e-01
-5.230786045307026649e-02 -6.473333899705720207e-02 4.423423203431605111e-01
-3.156416376478300700e-02 -4.917658470153682404e-02 4.418222008660259159e-01
-5.885941994997810275e-03 -1.251251317342970959e-01 5.207212998069186138e-01
-5.941127953118275490e-02 -7.096942961044389042e-02 4.408913226250065209e-01
-4.410077236191545236e-02 -8.971864971412736589e-02 4.597524069514081768e-01
-1.213563278841337661e-02 -1.228637790284919096e-01 5.321358124275666901e-01
-2.788884103873422865e-02 -1.175937556118409888e-01 5.104674287204045147e-01
-1.751145854298770052e-02 -1.191906554339407370e-01 5.003780288471372240e-01
-6.783791959345775169e-02 -9.870290760009602093e-02 4.767748761646579680e-01
-5.453884702384431855e-03 -1.190998873298353827e-01 4.925023907709941140e-01
-6.031753798514170178e-02 -6.514900262686570964e-02 4.393095946542540653e-01
-8.687166797467042734e-02 -9.923308374600579851e-02 4.878980771064301281e-01
-4.930428026711226874e-02 -9.996881562339132721e-02 4.740786093511774602e-01
-5.395344018744778480e-02 -3.361305053466431825e-02 4.427696341726140572e-01
-3.783974448911404942e-02 -1.136332029172588409e-01 5.432562118882223734e-01
-5.806577544833520926e-02 -1.042274252822716768e-01 4.881559033883671184e-01
-2.499183231453473361e-02 -1.141451865975906810e-01 4.930329440414333297e-01
-2.469543364290909676e-02 -5.454624201721727100e-02 4.417543883729396215e-01
-1.024784138697300423e-01 -7.996735837879259678e-02 4.772285440848779703e-01
-8.260410211754319609e-02 -1.033271486882652440e-01 5.102427994653329080e-01
-4.799452697295495535e-02 -5.675921835380959984e-02 4.416754183222703078e-01
-1.330170972189930086e-02 -1.118364192489356701e-01 4.782977227915963248e-01
-8.385121488281579993e-02 -7.503693727322430229e-02 4.517870502080332806e-01
-5.202903543606884895e-02 -1.113108050370330421e-01 5.297699399081445826e-01
-4.088316555935730262e-02 -3.600786074541048598e-02 4.394168688870410677e-01
-3.071204850489708121e-02 -1.172658755763703875e-01 5.180103056296333497e-01
-1.579037684328569655e-03 -1.246849740163420289e-01 5.098276634798838414e-01
-6.268178545988234429e-02 -7.754260199396850739e-02 4.427547074071463973e-01
-3.254182443966681382e-02 -6.597850178154653078e-02 4.442108080000920500e-01
-8.272019700629489047e-02 -1.019733168724800410e-01 4.974618506072049362e-01
-4.033518763234393567e-02 -5.310323524995300137e-02 4.419736971030872597e-01
-4.774623806925117064e-02 -6.058151111818024098e-02 4.423331064490526043e-01
-6.629531781940214974e-02 -9.185147106609828360e-02 4.609692014530242243e-01
-1.538585538343360294e-02 -6.000886705041248714e-02 4.418131782511688921e-01
-3.646365851077962988e-02 -1.154422093827953272e-01 5.308779482516764459e-01
-9.541840757621353891e-03 -9.395821846821117429e-02 4.575057293957267013e-01
-2.924464659849371206e-02 -1.175363414296506925e-01 5.140038632533632246e-01
-4.605164098544815149e-02 -4.255765931717431921e-02 4.404613267564415624e-01
-2.550182993518659846e-02 -1.183408358439819313e-01 5.351249538394663441e-01
-1.283048214020321084e-02 -1.191143580144185671e-01 4.956526964979149907e-01
-1.022513600583870585e-01 -7.712957258053937393e-02 4.816385568937661121e-01
-2.524314934211692799e-02 -1.170182975008706161e-01 5.439103747945656098e-01
-2.440880135575208484e-02 -7.917883850525643530e-02 4.489664691296854082e-01
-2.005323554469364000e-02 -1.207345669735541832e-01 5.240603819011057096e-01
-8.498169550989028570e-03 -1.242530499977066022e-01 5.280824670988661929e-01
-3.533572024713113602e-02 -8.692878418243833727e-02 4.563032480456514772e-01
-8.799566785161473670e-02 -7.144483814663153687e-02 4.619319685522226826e-01
-4.999028361520767988e-02 -8.883888035770758085e-02 4.580891440294393435e-01
-3.699626419149935896e-02 -8.541350684743621857e-02 4.550248519861890828e-01
-1.094800856234849906e-01 -8.578639130870116536e-02 4.878382958474497544e-01
-7.745937484159183539e-02 -9.034164606229851124e-02 4.624439720538091603e-01
-1.056574564106573660e-02 -1.180558163956270112e-01 4.913459088554638643e-01
-9.827795220180221558e-02 -9.800813326511563506e-02 4.969446961102180760e-01
-5.919020639177675208e-02 -4.989896573543965708e-02 4.418604329981212775e-01
-3.681790216681405520e-02 -9.158446068137930662e-02 4.612978203431268298e-01
-3.975883091683579673e-02 -1.101556347762696064e-01 4.939068012404950192e-01
-5.161598492133093186e-02 -9.076523074397833957e-02 4.601909410819371438e-01
-5.094137515156301615e-02 -9.024509843242968510e-02 4.595610253458644601e-01
-5.815242484011969026e-02 -1.088919640478361595e-01 5.073811403042410850e-01
-1.825608069339972050e-02 -1.209781828033237305e-01 5.119481788232566055e-01
-3.241128526425136880e-02 -1.143744846295390444e-01 5.011656544170485228e-01
-5.990186740364557283e-02 -5.198188419638367919e-02 4.419854058328783752e-01
-1.619459522984708841e-02 -9.290346502032729992e-02 4.568244023416727084e-01
-8.301482247468786047e-02 -7.920368372258718148e-02 4.512316971672114541e-01
-1.646288776854148983e-02 -1.220174708072162412e-01 5.191936503750576026e-01
-5.403486151273535071e-02 -3.621091107433602185e-02 4.424777061481652840e-01
-4.996550713169617408e-02 -9.009821460621059153e-02 4.594792463364670287e-01
-7.529052440499608978e-02 -1.046496684812700806e-01 5.049845672250887763e-01
-7.575377077681746951e-02 -9.921530380794990611e-02 4.821428101968514568e-01
-7.655108879281721790e-02 -7.541440762769593964e-02 4.428007539181377794e-01
-5.187523879254223556e-03 -1.252807544300788556e-01 5.254170155589849012e-01
3.130796314046705234e-03 -1.260519572686462642e-01 5.320338133770402544e-01
-3.829598585774233316e-02 -1.045213527657385538e-01 4.799499951289404320e-01
-1.385655073539484097e-02 -1.171571684072437586e-01 4.908183238432013984e-01
-7.574789054024525480e-03 -1.247005822657265978e-01 5.240974860092615373e-01
-5.009753782485196899e-02 -9.236916395419876580e-02 4.625032757066495637e-01
-9.876541174096708370e-03 -8.384229628934448952e-02 4.509014945398361895e-01
-1.013648112183256483e-01 -9.380629457217636025e-02 4.848058601445487392e-01
-2.780317449239208885e-02 -1.049322754178441813e-01 4.757484110341440586e-01
-3.350039787063172070e-02 -1.160538585753318197e-01 5.123352850938560632e-01
-2.565279209241303621e-02 -5.858681643826342544e-02 4.425081729557915899e-01
-7.673690535834873372e-02 -8.669069865366992034e-02 4.547675375252556718e-01
-9.828766615859192701e-02 -9.838648340563446726e-02 5.155296016510082513e-01
-8.656860120157761074e-03 -1.232522472106500760e-01 5.083969819235288901e-01
-8.682575156318150800e-02 -9.367178897171148100e-02 4.731919614242530159e-01
-3.218710002958652394e-02 -1.008755533754276262e-01 4.715562636427663157e-01
-7.938171812458577614e-02 -7.000689159071923906e-02 4.480203832225022054e-01
-4.836058511737188759e-02 -8.682403143347186547e-02 4.562538944441618671e-01
-6.995707587692140406e-02 -9.742108398401648495e-02 4.746121997317909180e-01
-5.569689047141977711e-02 -1.078844985373777904e-01 4.988206183958722173e-01
-2.490772396800615407e-02 -8.026349928981124648e-02 4.495518207574389913e-01
-8.529768211508502451e-02 -7.995418621724839636e-02 4.544810962390773978e-01
-3.218190809645308376e-02 -6.635848727386856050e-02 4.443128369778717723e-01
-6.653872359081873522e-02 -8.834304677297021013e-02 4.537381644934418423e-01
-1.515328888673628596e-02 -1.188359791978400304e-01 4.963025222185766250e-01
-7.559796170911957380e-02 -8.516378091498631731e-02 4.508495426988717858e-01
-2.465473576491632179e-02 -4.761051815726785597e-02 4.416159875455572537e-01
-4.526777205634432977e-02 -8.078868210620485102e-02 4.518263777693758976e-01
-5.782244663736012258e-02 -8.338132178215253154e-02 4.504371219364595724e-01
-5.056953855051339597e-02 -9.169645934803165310e-02 4.615575752895353379e-01
-7.647212391162030998e-02 -7.987523521569972473e-02 4.448293700509612369e-01
-5.105499299074948982e-02 -1.072080273694571706e-01 4.934353848046062474e-01
-4.163748671969037113e-02 -4.844065347996588666e-02 4.411799688349390958e-01
-9.586872148983255348e-02 -9.831498376139823081e-02 4.942315277754495972e-01
-2.313996791324017532e-02 -1.177225020029460528e-01 5.435740729960664153e-01
-6.303596415320660007e-02 -9.351431152312528194e-02 4.642826159799198771e-01
-1.288977757751722485e-02 -1.066347724333907704e-01 4.701578516820532072e-01
-1.871586244934446072e-02 -1.188584852187068025e-01 5.443186715117089847e-01
-1.084569010845768261e-01 -8.392814239404734755e-02 4.855192812365764499e-01
-3.958602206803227969e-02 -1.140087508533447896e-01 5.379022264299296863e-01
-8.858968100532421674e-02 -9.867618203849212732e-02 5.277660660110722324e-01
-6.161714678606080436e-02 -9.989466102024277538e-02 4.765828364872616851e-01
-3.408062349839667549e-02 -1.080675049442604424e-01 4.848044053950351651e-01
-1.048142929122735934e-01 -9.006335635721311739e-02 4.802434795777453247e-01
-9.510978974849747247e-02 -8.857690690149769286e-02 4.699291562797235366e-01
-7.039680109736431296e-03 -1.228058124276338869e-01 5.373444649573280163e-01
-1.322977364050533650e-02 -7.652479002665193986e-02 4.474626892397720046e-01
-1.089408700451675593e-01 -9.382630032101370310e-02 5.031012640507297462e-01
-4.737451949227328846e-02 -7.193199162771332644e-02 4.457891908172985085e-01
-8.440452631332626132e-02 -1.026399402030696295e-01 5.174087115154593075e-01
-3.034552792255001963e-02 -9.805272924556870939e-02 4.670462883076104132e-01
-1.947407774334365335e-02 -7.782140225979537751e-02 4.480933747329393646e-01
-1.821453144835678134e-02 -7.921878492654670090e-02 4.487208841223014888e-01
-5.511674010066004714e-02 -1.109127158647636585e-01 5.202787870707215045e-01
-1.064283233376124710e-01 -9.586653185288422641e-02 5.096258294901369057e-01
-5.716478752362093990e-02 -1.102182187920286160e-01 5.271384776483918344e-01
-7.932659921843149275e-02 -9.173472481561656400e-02 4.659676610125841334e-01
-5.228208732305531653e-02 -5.666433533601309552e-02 4.408969777407360513e-01
-5.332153322945298174e-02 -9.641160995910237619e-02 4.682398689117743817e-01
-3.603652721536432929e-02 -6.195113738766140632e-02 4.433818871291022035e-01
-8.304087454934033774e-02 -8.535632913307238112e-02 4.571285485428100981e-01
-1.917711209905619690e-02 -4.876671652408413882e-02 4.409840273868205207e-01
-2.152801376902907862e-02 -1.176158573988958095e-01 5.457117637887161088e-01
-2.501526885107349663e-02 -1.176376626311731871e-01 5.052441344520874900e-01
-4.803932952148939894e-03 -9.949146580268712625e-02 4.619009836206214303e-01
-2.698071494588721864e-02 -6.691366212139522596e-02 4.444512156943316028e-01
-6.571653290362293454e-02 -9.798803808003450633e-02 4.743964541921856237e-01
-5.675985038193766263e-02 -1.056729193429859354e-01 4.915269628175680805e-01
-1.085000945896479746e-01 -8.651715279461531793e-02 4.849934198419611486e-01
-9.874531471322213483e-02 -9.767395152302726924e-02 5.174075032898886040e-01
-8.995015325549405444e-03 -1.167249679500048376e-01 4.869523979555535065e-01
-9.179109512195664233e-02 -8.957498026275975689e-02 4.689791984573716821e-01
-2.240966146651501498e-02 -7.490236104980446674e-02 4.468027326966593771e-01
-7.118374595565834725e-03 -1.030701020191645556e-01 4.655323170724744442e-01
-2.812085731013773404e-02 -1.146002375813423846e-01 4.982263329290823606e-01
-4.171400326348668336e-02 -9.595870623704855218e-02 4.673807729753893803e-01
-6.113020814742151782e-02 -8.863372605344001232e-02 4.550812972006484380e-01
-4.894814196482607897e-03 -1.131925985827500758e-01 4.786359689630310110e-01
-9.556313269253016718e-02 -9.844513476847409350e-02 4.944290913009200539e-01
-2.235435013132888726e-02 -5.441568672550455010e-02 4.415853372556493572e-01
-8.383977292185600116e-02 -7.946431674827370006e-02 4.521881622873979434e-01
-7.768985938201888874e-02 -6.886196450764239807e-02 4.459360702834386236e-01
-2.125459541075632591e-02 -7.791464546316764772e-02 4.481586807077221901e-01
-2.781203040244936003e-02 -3.415224513440316689e-02 4.407396865350294846e-01
-1.418631179876091511e-02 -7.654828923218920389e-02 4.474757662876615028e-01
-4.313468204376558202e-02 -8.800094557613269419e-02 4.579082460547134747e-01
-3.979948489389319166e-02 -1.037166142760320015e-01 4.790138781702681370e-01
-9.737931540153213494e-02 -7.434241375766059701e-02 4.768805365907131111e-01
-5.481110885555620996e-03 -9.638342273377967229e-02 4.593704673090673873e-01
-7.169293954906769128e-02 -1.025630261503898549e-01 4.913500156036959554e-01
-6.964625354156719905e-02 -8.876380027744468215e-02 4.544194506819090318e-01
-1.106116494910318326e-01 -9.056330893743115562e-02 5.012056068637154027e-01
6.408312590336844722e-03 -1.258594184957961548e-01 5.184347340630308665e-01
-8.202360970979927224e-02 -7.122803016870296600e-02 4.508649825485629981e-01
-1.423348488531721995e-02 -1.225311840171169342e-01 5.285846585820487276e-01
-1.516690718897883983e-02 -1.114732420300732912e-01 4.784020407516365592e-01
-8.438652243929993871e-03 -1.244181175373893222e-01 5.178329410766874252e-01
-3.176420282216813051e-02 -1.168879139205054596e-01 5.282658546555875079e-01
-4.292857531716535308e-02 -1.140014878941357224e-01 5.249304674388560743e-01
-5.803048327730862821e-02 -8.997525181124083060e-02 4.581941670631290431e-01
-9.414054189702740494e-02 -9.390212118832823307e-02 4.784522237851204229e-01
-3.467457275384770027e-02 -1.157701608469830362e-01 5.126876550560066637e-01
-8.079477554267816553e-02 -6.948207770920114545e-02 4.507641090154969055e-01
-9.502275891712462508e-02 -1.002478296850188438e-01 5.077778335054803360e-01
-1.217163796545715944e-03 -1.258022708837676640e-01 5.174456461367682447e-01
-8.388070318648827017e-02 -1.030340683923067768e-01 5.125238473731049682e-01
-3.452533110607263617e-02 -1.108451672472084010e-01 4.922750007967934827e-01
-1.853575672858915474e-02 -1.213603484451002967e-01 5.156280742248707805e-01
-1.054433978757259027e-01 -9.530149088557085535e-02 5.139261430226709226e-01
-6.418324474888688347e-02 -5.550693190921614922e-02 4.422652649257327040e-01
-7.060647158915241833e-04 -1.182587050277612017e-01 4.897702066881318150e-01
2.478610085286822758e-03 -1.259025698693496398e-01 5.325886474938347215e-01
-3.075110103070062550e-02 -1.098237636088739838e-01 4.872673709252882124e-01
-5.515320789443129562e-02 -1.100581914356437430e-01 5.108466253377692556e-01
-2.521475605684499188e-02 -6.959857196036269011e-02 4.451366694851929262e-01
-4.953387492510141245e-03 -8.359638188941059811e-02 4.504803931026454267e-01
-3.525447990355209255e-02 -1.080913890330942179e-01 4.855478696169750474e-01
-5.397890711029008914e-02 -9.434173017633934455e-02 4.651182063728491745e-01
-7.202607853679778016e-02 -1.052882740250465493e-01 5.298130635493140117e-01
-2.262971690666546951e-02 -1.080952825589575894e-01 4.775439221348733998e-01
-2.624677285095456530e-03 -1.258943593540580441e-01 5.209498838241719554e-01
-3.779712355162224285e-02 -1.137552287143370061e-01 5.046739651281798578e-01
-4.999586865536764790e-02 -6.316368470067741658e-02 4.425500370915224635e-01
-5.925020966412962442e-02 -9.711399018445467102e-02 4.702313289224124282e-01
-4.596680161042020207e-02 -9.838494949520643074e-02 4.708217793117107641e-01
-7.138247425028802773e-02 -9.000695948960070469e-02 4.587665556274155287e-01
-4.452946190090317780e-02 -7.860783334135371114e-02 4.503140001861245523e-01
-7.370129685759410632e-02 -1.029012868619130355e-01 4.942937463260215769e-01
-5.657827551922267606e-02 -9.702872218958692729e-02 4.695308276660742908e-01
-6.816563127660593691e-02 -1.053201689766729288e-01 4.999392246056581501e-01
-5.521995473952763522e-02 -1.083818452902828161e-01 5.381576638785026123e-01
-2.495792921664469546e-02 -9.067825960084907599e-02 4.570281291056627060e-01
-5.117085336110454435e-02 -7.090585990968420460e-02 4.444336188793577835e-01
-1.015011133525351578e-01 -9.650465877777469892e-02 4.944320354323171185e-01
-1.043614112759252976e-01 -8.587388773227420946e-02 4.760646445853098374e-01
-8.907925939528632542e-02 -7.688454908110234354e-02 4.587107162546545380e-01
-7.416805284370742157e-02 -7.493191951462614686e-02 4.403228008449631137e-01
-2.918115264160770633e-02 -1.176411427388827508e-01 5.274598028055736965e-01
-5.441391259909973167e-03 -9.187905308858673736e-02 4.554915941270447632e-01
-9.193598152439715065e-02 -8.775397500769775705e-02 4.662627439694560505e-01
-2.631171841521311172e-02 -1.178674391636379826e-01 5.371404672191504304e-01
-4.209626637970484420e-02 -5.598193434335073382e-02 4.423108832053638806e-01
-7.298536560849057386e-02 -1.060138383592741512e-01 5.122796349926656001e-01
-1.081729412878128654e-01 -8.246289013925052480e-02 4.854329896073015793e-01
-7.614500742379770593e-02 -6.900347902555077628e-02 4.431972986789905478e-01
-1.235719472203654704e-02 -6.800848694878743050e-02 4.439906265289531029e-01
-7.009847399599623829e-02 -8.559112865079723798e-02 4.485899257017515462e-01
-5.195929712228082586e-02 -3.153448281384842872e-02 4.421277863557346310e-01
-2.617184463277679937e-02 -9.817155965034868315e-02 4.648525688497269215e-01
-3.179617726330623978e-02 -6.260078546245273490e-02 4.434650592888710330e-01
-2.169261295969813347e-02 -7.993325226905102776e-02 4.491151664189173554e-01
-2.055654396027288902e-02 -7.681451970121427886e-02 4.476318908727335288e-01
-3.126428056353776352e-02 -9.405477290661801160e-02 4.629721581407986730e-01
-6.470560044643447473e-02 -6.529010808529034371e-02 4.395017553904969621e-01
-7.791968840302905541e-02 -6.667667455296498458e-02 4.501802131423323083e-01
-4.214213816291925707e-02 -1.093337062055206310e-01 4.933425515951562756e-01
-8.504069619230254784e-02 -9.863496181349731828e-02 4.844481583223287924e-01
-3.886846455190551275e-02 -4.848920730869220319e-02 4.412699753842745376e-01
-1.020246008082780487e-01 -8.443712367017650045e-02 4.744505958043000460e-01
-9.923090927510123949e-02 -9.727776134674505359e-02 4.944277494356250635e-01
-1.120681209371064170e-02 -8.124121449453826360e-02 4.495362053602113273e-01
-1.252428939855590798e-02 -1.159552039248788607e-01 4.865288495478820030e-01
-1.071736330135540788e-01 -8.540386630081116259e-02 4.818209799406567018e-01
-9.751412986026719576e-02 -7.832651597324714887e-02 4.701806709552267538e-01
-7.145136368481420919e-02 -9.156079111983296548e-02 4.623674491991270341e-01
-4.152862827095707421e-02 -9.319898753639001276e-02 4.639544184732731225e-01
-4.135068813014567551e-02 -1.141245385197187379e-01 5.154798973095036096e-01
-5.397616690638668696e-02 -1.083473124292627932e-01 4.991048872568839001e-01
-2.591515776052856490e-02 -1.179607540060474968e-01 5.079608234454573434e-01
-3.733180428587588168e-02 -1.099544411600750782e-01 4.916516429728714499e-01
-2.186051568920661936e-02 -1.049956064379144183e-01 4.718926584611282116e-01
-2.417697610330877753e-02 -1.109129653558297152e-01 4.846853803185811604e-01
-5.546542175100475230e-02 -4.634993962868309142e-02 4.414777395321621278e-01
-6.273759046892320168e-02 -1.042866561806719272e-01 4.908726249643687867e-01
-3.520657521904949072e-02 -7.289624107172761047e-02 4.467834697341645511e-01
-1.072385050591345701e-01 -8.483414509748173071e-02 4.818513274018865200e-01
5.357610320219597863e-03 -1.259862257530954821e-01 5.346198382154504491e-01
-1.512722751024539285e-02 -8.661054887843019912e-02 4.522130462695196362e-01
-1.489994062737176952e-02 -6.345967500295493502e-02 4.428726922013528355e-01
-6.884789335170647673e-02 -8.771921826618131468e-02 4.524239543927602858e-01
-2.508105833501777029e-02 -1.179600116747538952e-01 5.391249612031172589e-01
-2.733389960964533599e-02 -1.178470448445249202e-01 5.111895609173261468e-01
-2.530618406298097700e-02 -8.533914245023946354e-02 4.523997407766688905e-01
-7.413739381155445840e-02 -1.052861875516350465e-01 5.074264048800891658e-01
-7.520108237592672273e-02 -9.349905572111844032e-02 4.679485712180837531e-01
-4.685325903543531567e-02 -8.217971479093802434e-02 4.527143441708725291e-01
-5.905472411823944889e-03 -9.740201131120800049e-02 4.602467154575631270e-01
-2.663238518675483529e-02 -5.942481820286571459e-02 4.426938573460665327e-01
-1.067207217051116264e-01 -9.051052466944876917e-02 4.845630458410825625e-01
-8.535811556627770358e-02 -1.025554286160720724e-01 5.092283610140069250e-01
-9.426422791553432101e-02 -9.270503947616552665e-02 4.759450895382724700e-01
-5.505039690818121223e-02 -9.530715200293971012e-02 4.666314444871637046e-01
-1.091812246081304283e-01 -9.163480948823435335e-02 4.944283623578819009e-01
-1.118520794249186906e-01 -8.713070441970270641e-02 4.962891758857883584e-01
-2.503173857336175173e-03 -1.159498854125282641e-01 4.841529530980153151e-01
-2.543680584782480325e-02 -6.804733437593835088e-02 4.447006958951152944e-01
-8.992513026022445899e-02 -7.286813315746194786e-02 4.637867822317074395e-01
-1.818195462367194412e-02 -1.214295815842344611e-01 5.230724840167306766e-01
-8.226874990700352996e-02 -9.397151904185417626e-02 4.716317094488881034e-01
-5.010210940089447618e-02 -1.058696419871485300e-01 4.892354451970946094e-01
-5.879595509813520526e-02 -4.653797781308534331e-02 4.429322718530652181e-01
-5.468006954332567393e-02 -3.112662412597787948e-02 4.464345977565218337e-01
-3.188323147489603715e-02 -1.159339776914673076e-01 5.392155784011002373e-01
-7.918474715016153576e-02 -6.871597338661032672e-02 4.489364258278823461e-01
-6.870131965548541969e-03 -7.866322381905553607e-02 4.483464032667195953e-01
-4.038690173947176443e-02 -1.117952637528448478e-01 4.992078021308031799e-01
-2.643744583680715174e-02 -1.032928993889443564e-01 4.720182498184637976e-01
-3.010904634316094886e-03 -1.076423171099515630e-01 4.703158424884609223e-01
-6.866601799165386599e-02 -1.070086508494040162e-01 5.117321418105372777e-01
-7.152704096325163130e-02 -1.002493962216375462e-01 4.825484243369251858e-01
-1.050200899269121968e-01 -9.020731123826507269e-02 4.807407610416434274e-01
-7.713857468284422703e-02 -9.887865214334574937e-02 4.818228903437438149e-01
-6.775176404929175722e-02 -8.321215842684417940e-02 4.464112684352596339e-01
-1.043853108979018868e-01 -9.323986452127593083e-02 4.877852319079228893e-01
