-4.407638466214753442e-02 -5.447098956635463424e-02 4.433201585385542765e-01
-9.478885811500062375e-02 -8.987437280057666844e-02 4.777007003839365828e-01
-1.315970788056997076e-02 -6.410465471856832687e-02 4.433248712860575758e-01
-1.916383922931530481e-02 -9.133036195580691852e-02 4.571053545274584851e-01
-7.583506686542557107e-02 -1.042152046784323993e-01 5.185621132163873437e-01
-6.831770068162169862e-02 -7.271634747626960771e-02 4.432212923514062819e-01
7.143550855412137204e-03 -1.260919897098077835e-01 5.349076267136504415e-01
-3.120844220812592825e-03 -1.256761548612554402e-01 5.192036633379906174e-01
-8.578610019405551179e-02 -6.975119043344556180e-02 4.555993239783105442e-01
-7.185693708828155835e-02 -8.336495465765662860e-02 4.527544237929412851e-01
-7.112459069634767539e-02 -7.818196554890195771e-02 4.473853028495697881e-01
-4.693634553826360120e-03 -1.026621314989692030e-01 4.657505026519021540e-01
-5.522113428099038185e-02 -1.087246199457742868e-01 5.088164549663142244e-01
-3.379066541086741399e-02 -1.110302460981293649e-01 4.946608884857703892e-01
-3.576840904911945257e-02 -9.321294760717586947e-02 4.653547749035813474e-01
-1.819517534761786251e-02 -6.605015099107937326e-02 4.444261242952814994e-01
-1.056962476178808091e-01 -9.417338927916067692e-02 5.051289165479605492e-01
-4.706907802486491599e-02 -7.705092104124658392e-02 4.519562512250857034e-01
-2.002708400610546391e-02 -1.044645785914962016e-01 4.710948980328558688e-01
-9.783459714457325151e-02 -7.280054349467035557e-02 4.753554316863627949e-01
-1.188278560596937004e-03 -1.204520228494853351e-01 4.965547793418876865e-01
-3.814196011010605875e-02 -1.030429068711675861e-01 4.796611733939508126e-01
-5.151233486316766919e-02 -9.686162881838061844e-02 4.723775457133139177e-01
-5.742014527913526928e-02 -8.549293764321538869e-02 4.571962157590252485e-01
-8.085389099138562408e-02 -6.474072398088960567e-02 4.528668519784602720e-01
-6.237011568350493695e-02 -7.858237504015336272e-02 4.496307979075424566e-01
-4.682200849180703783e-02 -8.297094779268537890e-02 4.562069204644991216e-01
-6.981034793109258674e-02 -6.356902177819367949e-02 4.421274782565441930e-01
-4.922672644270705694e-02 -9.141911021504200985e-02 4.650009222752788940e-01
-2.719452765852284001e-02 -1.027000927821714593e-01 4.729263609837491833e-01
-7.498609603422905223e-02 -9.523237164406045396e-02 4.783242447379029705e-01
-2.940710270731315690e-02 -9.239951034613577696e-02 4.619263464262436947e-01
-5.738604235155531780e-03 -1.061960247187864609e-01 4.694223985841296520e-01
-3.475851091967233075e-02 -1.072966078988182165e-01 4.857574138272494069e-01
-6.675896861877926580e-02 -1.038966641323816886e-01 4.995652907610490523e-01
-2.214528182303489648e-02 -1.163291782951994674e-01 5.495856108583585531e-01
-9.475994965382956992e-02 -7.933608736339156642e-02 4.666077727891346782e-01
-3.563847472491041973e-02 -1.152480087693092681e-01 5.321849057111367465e-01
-3.158174155062672822e-02 -3.746990937349213568e-02 4.414331373740002507e-01
-1.008078717379159023e-01 -8.285081766524057811e-02 4.742152875326417494e-01
-4.557523517336532076e-02 -4.362982078573436617e-02 4.416394332685756874e-01
-8.173621880545171858e-02 -7.657258602747857301e-02 4.507857005888610269e-01
-4.489726734023891802e-02 -8.487621278665796742e-02 4.576097732811195140e-01
-5.022547890106018875e-02 -5.881587148354401606e-02 4.435515935866625181e-01
-7.176411612013296193e-02 -7.818383327597411281e-02 4.474037049786084297e-01
3.826579901299467876e-03 -1.259961894301933061e-01 5.208592658221390392e-01
-5.497098191075776297e-02 -3.100717230236661390e-02 4.439431498021642608e-01
-4.374687390002640792e-03 -1.252020946916049815e-01 5.293163634584047150e-01
-7.816065978217195953e-02 -9.336642019932134273e-02 4.755676168463345843e-01
-9.095942699796659078e-04 -1.180710633982941932e-01 4.905224538968367409e-01
-1.500203901941270755e-02 -7.988307236217098706e-02 4.496739811868887271e-01
-1.625232271927409475e-02 -1.216723169767903318e-01 5.140393292918190582e-01
-2.456994868108597699e-02 -1.039231365744991559e-01 4.730998138578615397e-01
-5.051316006676467157e-02 -3.070134463635300348e-02 4.414565075906178859e-01
-1.928380552874596129e-02 -1.205556953013269261e-01 5.130730472213415050e-01
-5.864570801592723648e-02 -5.874144697157585027e-02 4.418928407087585608e-01
-9.130478095284125239e-02 -7.044755268412354610e-02 4.660111235949631059e-01
-2.244742783864190835e-02 -1.160970664411457576e-01 4.966496216144971054e-01
-2.735135589400787201e-02 -1.179989857085195493e-01 5.166558012879008954e-01
-1.872259854013823971e-02 -1.193835684242736672e-01 5.044723198902469896e-01
-2.684074330889866036e-02 -1.014319441509425046e-01 4.706418823785398775e-01
-4.654757881536421282e-02 -7.359738705391292990e-02 4.495423323520011949e-01
-4.321357094481047267e-02 -1.125088482878495999e-01 5.116374530076818195e-01
-8.103358214823774830e-02 -9.274485103650655093e-02 4.754035781118998161e-01
-3.424187237972022013e-02 -9.728140470691247488e-02 4.696122883568746298e-01
-2.803165955548600832e-02 -1.040619822916629827e-01 4.759010370060268724e-01
-6.004400974920409001e-02 -7.700930679049144967e-02 4.489699796484092342e-01
-6.418618460258936065e-02 -1.014036288002565095e-01 4.887110313454459121e-01
-3.639167954120421655e-02 -5.049975544120677284e-02 4.425333603503093238e-01
-3.184362542414068131e-02 -1.103838571946418462e-01 4.915827426933530586e-01
-6.419378325545982422e-02 -1.053546047752956377e-01 5.032340144095004408e-01
-9.727511554873013999e-02 -9.061773298906729279e-02 4.811330532539337401e-01
-3.300292939882746440e-02 -9.266558661709942135e-02 4.636658826395184119e-01
-1.502867308875061036e-02 -6.998590259115233803e-02 4.455027330126810070e-01
-3.451419649167526693e-02 -3.877111542671961286e-02 4.414472829500358797e-01
-1.065139212903627175e-01 -8.273663853492339848e-02 4.798381484935607122e-01
-8.104858854080281005e-02 -9.501130182608490127e-02 4.806628345986331263e-01
-1.099137807873250966e-01 -8.989401320169740361e-02 4.996755378253216473e-01
-6.029328825546297586e-03 -1.242939422060659049e-01 5.121762660123638788e-01
-8.572903520055095983e-02 -1.010518651831018022e-01 5.156431056011741010e-01
-5.746547737708925484e-03 -1.160603931849108761e-01 4.859740754815325969e-01
-9.791039537113364888e-02 -9.628367205113529115e-02 5.000338443353947726e-01
-6.506235610232469213e-02 -9.404578229489699015e-02 4.714136826166231975e-01
-1.107126174401095731e-01 -8.913176919574256063e-02 5.098871281688142076e-01
-1.867503809798589688e-03 -1.253136202784394526e-01 5.158371758202960899e-01
-5.735089375932540118e-02 -4.246474394151602411e-02 4.434232132616802713e-01
-7.892244013315251328e-02 -7.247115175832348488e-02 4.468211442653065579e-01
-8.919425153775796533e-02 -6.917210729221441590e-02 4.637200924630894838e-01
-2.854246540605227117e-02 -4.561272257799686702e-02 4.423439085348350175e-01
-7.361983544456975059e-02 -8.606785563332955413e-02 4.590800299428308695e-01
-1.970916356795223909e-02 -7.213137010691743345e-02 4.465842000335137896e-01
-1.922391340756014408e-02 -1.107242876425403449e-01 4.806901774679810391e-01
-7.114708030819513751e-02 -5.962922820191360329e-02 4.458863659804370161e-01
-8.826023837821453388e-02 -9.468924689467574096e-02 4.832552616083880537e-01
-7.215787006996128572e-02 -9.464085102469985133e-02 4.755635981632934106e-01
-4.519429159213200764e-02 -1.048506458285974191e-01 4.873542748666463420e-01
-3.845985448253296662e-02 -1.120998180388951410e-01 5.015198689634763340e-01
-8.912275848136910761e-02 -8.839063404504962640e-02 4.714196271947015404e-01
-3.380045304742630013e-02 -9.537665198707355463e-02 4.671841289102205974e-01
-7.818057990828168602e-02 -7.350845792812626955e-02 4.463417624619863688e-01
-8.124607664766191062e-02 -9.540404075298081210e-02 4.818216567066026523e-01
-3.426791226833521969e-02 -1.153259229439274058e-01 5.123443009257045988e-01
-2.103190401940863846e-02 -1.066884198868389144e-01 4.748948764802711220e-01
-4.633529496725329044e-02 -1.068135166726157798e-01 4.928545709364002825e-01
-2.352456869489231300e-02 -6.554437157314356444e-02 4.447874437187557262e-01
-3.100767448781327831e-02 -1.165656906706784984e-01 5.328746432331716854e-01
-6.678691167851982802e-02 -9.085833237917280425e-02 4.658231728184836218e-01
-2.094085939414793568e-02 -3.871059407318788032e-02 4.407563001075250897e-01
-6.949594266901067130e-03 -1.176947273814358541e-01 4.902215912104049278e-01
-5.272196344836456439e-02 -1.107599061096039700e-01 5.213496401030777161e-01
-2.931723289226447274e-02 -9.001448038032694443e-02 4.593912639706165812e-01
-6.761658237038141103e-03 -1.245393407603544722e-01 5.298952671003448467e-01
-5.653791234818533740e-02 -1.009160552604308897e-01 4.829477676730076219e-01
-1.761220838636920472e-02 -1.214489460627329043e-01 5.241564375683505084e-01
-1.816620935056267525e-02 -7.025964234537240838e-02 4.458533639575014140e-01
-5.985974596582081808e-02 -1.027455104575874245e-01 4.900137704775691661e-01
-3.863330368846674273e-02 -1.065281156928437473e-01 4.865161049562906070e-01
-1.104494360462361935e-01 -8.980384312026658267e-02 5.080889922734994624e-01
-4.271414361669822329e-02 -2.433738236850673670e-02 4.389814347325181609e-01
2.100515356998111909e-03 -1.205266489166250954e-01 4.967878757453746408e-01
-3.932471757271904095e-02 -1.139710283357562720e-01 5.137120099974558096e-01
-8.859404881154257783e-02 -9.432235951189771317e-02 4.825130834577825989e-01
-2.031560568278246992e-02 -1.164355998427642203e-01 4.950809908314422469e-01
-4.770509934265302482e-02 -1.121573725129971361e-01 5.277858188326808309e-01
-6.324269630083648175e-02 -8.478326721741490102e-02 4.558590803131208347e-01
-8.916610299418817331e-02 -9.322358218151098608e-02 4.804305083003049259e-01
-7.004058196449139580e-03 -1.239208965536714446e-01 5.110413601683626572e-01
-1.104372945097347458e-01 -8.875741631614483818e-02 4.985172654797510039e-01
-1.291067026259769615e-02 -1.063231198940006034e-01 4.706444636889968725e-01
-4.983763807163878179e-02 -1.020132567997013295e-01 4.832073897424896680e-01
-1.043156695723861382e-01 -9.488290325036606576e-02 5.070658021171731145e-01
-4.329673475285993056e-02 -4.496483996229358460e-02 4.417903503620731476e-01
-9.602933810111187463e-03 -1.239887101889856624e-01 5.172432107636848464e-01
-5.447636678233679780e-02 -9.815465881323987007e-02 4.755710924815779173e-01
-1.662842472086109580e-02 -1.190106432354511024e-01 4.996656037120507099e-01
-2.413932069656388874e-02 -1.191156611019837108e-01 5.251183836022440543e-01
-2.389151077288281105e-02 -1.190501618637790082e-01 5.281999969196169431e-01
-7.330577688169850892e-02 -1.025834399084608467e-01 5.009644010953241411e-01
-2.231161557217600441e-02 -1.191878940477959226e-01 5.350769195158147085e-01
-1.499813366119672788e-02 -1.223595653699986047e-01 5.167978920973904655e-01
-6.346162680478480145e-02 -1.079665858255399041e-01 5.261460225871787966e-01
-3.312483415233519191e-02 -1.157934252174427220e-01 5.360383128162367061e-01
-4.427057937616302175e-02 -3.068886452577676213e-02 4.395880590394644072e-01
-6.995525598337706819e-02 -8.754433793921073681e-02 4.601245281799453690e-01
-7.319555741233764456e-02 -9.575736964080688862e-02 4.786809401719805401e-01
-4.721370210943402063e-02 -9.942585361429567836e-02 4.763693562800681014e-01
-3.864603290270801628e-02 -1.076342248907158211e-01 4.891210582974854226e-01
-4.519556071694684485e-02 -1.118805061611845841e-01 5.113394769121454297e-01
-1.689850523524795076e-02 -1.156613106963071680e-01 4.897864069753347094e-01
-1.830851734556170757e-02 -1.211354226960022901e-01 5.261193447570350346e-01
-1.081933689640428714e-01 -8.781763685570602440e-02 4.885497723601010533e-01
-9.219481667181897433e-02 -9.812682064946151583e-02 5.003792787167089529e-01
-7.552947412131605365e-02 -1.022874045140898941e-01 5.335947600041406336e-01
-2.648144759587654079e-02 -1.183603956145457131e-01 5.214669093539909817e-01
-4.037336073003700704e-02 -9.652428079209544876e-02 4.705287962142625791e-01
-5.494995934069826088e-02 -1.088647647389359152e-01 5.093032292742100120e-01
-8.857255723140235182e-02 -7.710610274716775403e-02 4.598729287965316881e-01
-5.906117009169743748e-02 -1.032823451726066766e-01 4.909642631170986204e-01
-7.832358400842190371e-02 -8.598852230892385651e-02 4.617333329620353921e-01
-9.943495155391073384e-04 -1.235311250090943835e-01 5.063797921630956989e-01
-3.252503077724604869e-02 -1.153393694788648199e-01 5.077398539112963904e-01
-2.283982565713938914e-02 -1.177594334199208032e-01 5.431870966254093158e-01
-3.380956498995041359e-02 -1.023612766118533468e-01 4.765603918197289790e-01
-1.034868899346055859e-01 -7.536672279884386316e-02 4.828994089944966261e-01
-2.507637199203969353e-02 -1.187918655908640209e-01 5.250695686889810254e-01
-7.247578814725372243e-02 -1.051402828091900499e-01 5.252289180487378362e-01
-1.063929788050738678e-01 -8.820038178214198443e-02 4.851646674670228587e-01
-2.277142473250844124e-02 -1.186445675169023467e-01 5.080185189646468924e-01
-9.027412066126339063e-02 -9.887117276839987867e-02 5.215177997982183289e-01
-6.068588766536984688e-03 -1.245830687109730495e-01 5.146056146369969442e-01
-1.091468989668590607e-02 -1.181319969576073853e-01 4.927665592303157593e-01
-1.081972564791271324e-01 -8.867905378124914251e-02 4.898361263394820919e-01
-8.646724504708319659e-02 -1.007197285304188283e-01 5.126729457946000990e-01
-6.531355966482707553e-02 -1.030830269330202109e-01 4.950584856357572172e-01
-1.624570906621625177e-02 -1.203441287327947778e-01 5.405892212090698257e-01
-2.893240518315278592e-02 -3.741870713080676369e-02 4.415499386858308672e-01
-9.584429627161463600e-03 -1.227299000679456381e-01 5.348260074960181631e-01
-6.523548980672547182e-02 -1.071289264891926996e-01 5.278904264473881502e-01
-4.406912369714176270e-02 -7.827426093200400004e-02 4.526882872091676502e-01
-5.282926942616072985e-02 -5.842254790243812945e-02 4.431714877512999973e-01
-1.090018782226665622e-01 -7.938801373575318787e-02 4.882219804814827979e-01
-5.121800789114848429e-02 -5.540057106070383347e-02 4.427448110114401425e-01
-6.291373020948386185e-02 -6.981562786312843494e-02 4.434027429441624313e-01
-6.909491433407902172e-02 -1.005729709101716302e-01 4.893585834447757299e-01
-7.071429779947746574e-02 -1.024087633084125731e-01 4.975975305554058425e-01
-5.168598096766379574e-04 -1.201556857705308873e-01 4.957998591590737636e-01
-3.437309786203224943e-02 -3.143886309718949695e-02 4.399321035325365892e-01
-5.324130643441744165e-02 -6.349837977016116464e-02 4.444319260375003688e-01
-3.345980314781080156e-02 -1.102049095501643067e-01 4.921230893244279425e-01
-8.961724089701482432e-02 -9.963691698936891217e-02 5.071338837874268535e-01
-5.301366166289327164e-02 -3.517785349618254842e-02 4.426129607968296575e-01
-6.032314173100919441e-02 -1.022187248996334341e-01 4.887147521158440311e-01
-2.326025000342771959e-02 -5.196498522500750394e-02 4.420277977416097182e-01
6.685647053304152182e-03 -1.252889771699282895e-01 5.161367749177643294e-01
-6.588410881413389597e-02 -1.072652934624557519e-01 5.253090420039074893e-01
-1.076496663308908336e-01 -8.567135541887536954e-02 4.847167341075443447e-01
-8.526430693314004938e-03 -1.212813539481898406e-01 5.009563669981007550e-01
-1.085265962865211015e-01 -9.306778824282686824e-02 5.085077380376867850e-01
-5.665660836821381774e-02 -9.920012617864749915e-02 4.786534129681184746e-01
-1.617749438692618266e-02 -6.201537983363263062e-02 4.430724628729403314e-01
-1.003143672642346218e-01 -8.004000788694486113e-02 4.728192821845426108e-01
-4.539687421667655542e-02 -9.487010672942898515e-02 4.692073549815229949e-01
-9.349710939992551817e-02 -6.822745258641650656e-02 4.753787388160339300e-01
-1.055130494949879927e-01 -8.816786155074468612e-02 4.840796768536304584e-01
-8.202194423974408510e-02 -1.009441930492120942e-01 5.026527375727642966e-01
-8.917673053196392696e-02 -9.707972183468910332e-02 5.297421165542873789e-01
-5.309144999959073546e-02 -1.094311970174911414e-01 5.097593912759912360e-01
-3.895012230010475029e-02 -1.145745815975820897e-01 5.208938515578243056e-01
-9.514716447337154270e-02 -7.933355688981784393e-02 4.671960573604474476e-01
-5.818674644328398343e-02 -1.090877674018719823e-01 5.176503187431278352e-01
-3.909905551595826284e-02 -7.383159703864210222e-02 4.492634385102340366e-01
-9.317378243014641515e-02 -8.674430413756691050e-02 4.716109439149429594e-01
-5.415530934084636372e-02 -1.938353865668997200e-02 4.478086392518332848e-01
-1.092685023134189713e-02 -7.715631849780948959e-02 4.483672165701887979e-01
-6.671999732533791076e-03 -1.076893973339747151e-01 4.714292960740084637e-01
-1.514248368547423639e-02 -5.728023606853010347e-02 4.416070473339455682e-01
-4.669856156874861025e-02 -1.113203685407785359e-01 5.105057544277761261e-01
-5.571229326577024216e-02 -1.034903089726451481e-01 4.895607056971233439e-01
-7.221163264939481352e-02 -9.437160595374072258e-02 4.750119822727625341e-01
-8.837393996088516168e-03 -9.611381786296946395e-02 4.601478480709916830e-01
-6.624095825352633443e-03 -1.247204984935651878e-01 5.276754755115206086e-01
-5.064874485593954395e-02 -1.009774287937821174e-01 4.810627308065220653e-01
-8.613943286408796973e-02 -8.366246459538574654e-02 4.630382761927930302e-01
-3.670882331261882126e-02 -8.590207554255163691e-02 4.576593833960230784e-01
-3.761083538205222537e-02 -6.874289077695368289e-02 4.467198586514822267e-01
-2.850121096490402378e-02 -9.641613822997313621e-02 4.654267226260758727e-01
-3.707294987662254626e-02 -1.145164019378094450e-01 5.125431713899071262e-01
-8.867669763438854047e-02 -9.646930627218661125e-02 4.889227611551809627e-01
-8.365015598277161790e-02 -1.015178245418833919e-01 5.186753238128446464e-01
-5.834737494971882488e-02 -5.641282498478888963e-02 4.417762893411193437e-01
-2.753372987260116131e-02 -1.179984759025760055e-01 5.199088375456140110e-01
-4.228260142985294789e-02 -3.258884431323987724e-02 4.396389334003950600e-01
-4.550525809253202353e-02 -1.127544901137625261e-01 5.278705422217712107e-01
-3.140435165646850157e-02 -1.140897646973421803e-01 5.012597965616127915e-01
-1.383134731817441294e-02 -1.143645646515067532e-01 4.840952873039190418e-01
-6.024239042105643260e-02 -8.341079964811130842e-02 4.551373143856697334e-01
-1.909690501162020215e-02 -1.051366037003546444e-01 4.716112847047725931e-01
-2.972836578895410656e-02 -1.022097565287506254e-01 4.738713310686322178e-01
-8.873156894012459994e-02 -9.339076015344900672e-02 4.805430991404419649e-01
-8.862836206712129683e-02 -1.001636147359075552e-01 5.160351097665049069e-01
-4.730967058495860744e-02 -1.109177140729345340e-01 5.088519061189489268e-01
-4.378264234775124109e-02 -1.106842898205254166e-01 5.023815964615444551e-01
-1.199350379091843402e-02 -1.198594030039860925e-01 4.982318382759037823e-01
-4.726337565071746932e-02 -9.954907997492766503e-02 4.766313592137250144e-01
-3.810385914600915302e-02 -7.247218535340863022e-02 4.484442756312081446e-01
-6.427587819509940348e-02 -9.728932067122736393e-02 4.773556916161122432e-01
-5.103338780166373490e-02 -1.095899405168653251e-01 5.067950442265737321e-01
-5.670307002057828338e-02 -1.040211707980380484e-01 4.916590732967041633e-01
-2.463247314594522314e-02 -7.633888120220781726e-02 4.486771643543320254e-01
-7.339733388624973542e-02 -1.046731951440722092e-01 5.142487455688150577e-01
-9.313334091698660666e-02 -7.027223943212511370e-02 4.696688144820979072e-01
-4.769315780289371670e-02 -9.432319643173053825e-02 4.686682844644259882e-01
-1.836352914424702054e-02 -7.853289253891743149e-02 4.492721347891543981e-01
-4.611876229061397103e-02 -1.124914199654256652e-01 5.288417229703307187e-01
-3.579922107450550506e-02 -1.046790674200332727e-01 4.813396215867362660e-01
-3.370404062375247090e-02 -1.018168515479965924e-01 4.756203089368906123e-01
-9.560617106392642339e-02 -9.826819785713333810e-02 5.114911083417774673e-01
-9.531546269810765859e-02 -7.568502846357742786e-02 4.677902861354844566e-01
-6.508096358564938178e-02 -1.057254616520267171e-01 5.064104874710655402e-01
-5.045410213608544914e-02 -1.004915944453627780e-01 4.798359734692450584e-01
-5.936731022730209334e-02 -7.015306511870671169e-02 4.446547765979988465e-01
-3.611278407465806639e-02 -1.062447021340918035e-01 4.844498386840725979e-01
-3.535133730103461047e-02 -9.801009353096645782e-02 4.709103845292542112e-01
-9.314450092777243340e-02 -7.930201664567987363e-02 4.641160880107015885e-01
-7.911986018119157582e-02 -1.029364795697222668e-01 5.221723412281019661e-01
-6.192117460041448446e-02 -6.807138615392184511e-02 4.430587991273322590e-01
-4.234563550558784889e-02 -2.584222151277540055e-02 4.390938981093287508e-01
-5.324489859445461631e-02 -9.152057212307691814e-02 4.651690054489146520e-01
-4.946779875835109752e-02 -5.768514795320565242e-02 4.433878220472811660e-01
-1.028659636305912367e-01 -8.769528798566203487e-02 4.804292380294394316e-01
-1.013418857967335884e-01 -9.559766304572760165e-02 5.036765515970443863e-01
-4.445202264309527918e-02 -4.945636041745811451e-02 4.424580329242090437e-01
-8.871660302685591831e-03 -1.240932211138780494e-01 5.281124042518431372e-01
-8.432313890390555344e-02 -8.037254953764741416e-02 4.568322554079159992e-01
-1.955026419515699942e-02 -1.196196176788456994e-01 5.072122730724190065e-01
-4.533235359607871301e-02 -3.409703867203053157e-02 4.400044447233750766e-01
-1.927625635127931322e-02 -9.078867260202927447e-02 4.566797631027644244e-01
-3.019151376512222568e-02 -1.157842617815124792e-01 5.421218143473621742e-01
-2.479682742409539814e-02 -6.634189832583979596e-02 4.451275810508523167e-01
-5.219232312816125124e-02 -1.095276796902455441e-01 5.365016830903250877e-01
-1.014916751538721684e-01 -8.531441832415305460e-02 4.767610755612124440e-01
-5.153408660584405526e-02 -4.469993989311302901e-02 4.425031275941075926e-01
-7.727284567812087168e-02 -8.355936303172284418e-02 4.561868907384932226e-01
-7.711232384725971722e-02 -6.455361984116980700e-02 4.455155719029272876e-01
-1.627313650813969059e-02 -1.024542953740796708e-01 4.668496046080987671e-01
4.823473635727583420e-03 -1.255296597406101999e-01 5.168790548485698855e-01
-6.825763463780282203e-02 -1.047057528143829908e-01 5.056439272933492823e-01
-1.128484660928815581e-02 -7.630678656255354686e-02 4.480213984485229561e-01
-8.886066313382247339e-02 -6.651444618876922732e-02 4.680218521992020042e-01
-5.443475379699075356e-02 -6.882750637888741807e-02 4.456912232033741761e-01
-1.172353885802045886e-02 -1.234427453281484593e-01 5.197082388989909818e-01
-6.861015365496764620e-03 -1.050438365263374751e-01 4.683005319313813808e-01
-6.787445819158025029e-02 -6.521750110983492998e-02 4.417020657862518185e-01
-2.403242121221959432e-02 -1.053486782383284831e-01 4.751109938988367087e-01
-1.018786702119897497e-01 -9.409686292053455470e-02 4.958600312723930870e-01
-5.069949379082318991e-02 -1.039469555307572790e-01 4.885464808869695585e-01
-2.463767466041121880e-03 -1.221463852209984657e-01 5.013501713461872011e-01
-4.604717192820245719e-02 -6.845661429306300338e-02 4.470226132851586875e-01
-5.415548570386805732e-02 -1.072543919454465589e-01 4.999847625739040069e-01
-9.992689826869165237e-02 -7.914093527857665733e-02 4.723547434982147686e-01
-1.724931588108225000e-02 -1.211476460556669271e-01 5.329055905149400196e-01
-8.125391813373132599e-02 -1.022261197364213031e-01 5.219134418809300291e-01
-3.554295405118346879e-02 -1.153270068072803356e-01 5.310974362012869099e-01
-1.644646334877024330e-02 -1.213975993765648020e-01 5.333245277746314628e-01
-5.053766937854477226e-02 -1.052573555308339848e-01 4.915503359630564728e-01
-3.240477882900696244e-02 -1.162675290442458931e-01 5.306192865559419269e-01
-1.053337118114588550e-01 -9.420282783299913087e-02 5.043584335685120656e-01
-1.110586647893572199e-01 -8.659268070462788902e-02 4.963011901953108262e-01
-1.021794972789804995e-01 -8.583262263990215635e-02 4.779469146936665136e-01
-4.752336641940430040e-02 -1.072621166315766289e-01 4.947904430986558855e-01
-9.351697084204090016e-02 -7.582917563282569329e-02 4.645468440210741567e-01
-4.398797660647570801e-02 -4.896748447061710641e-02 4.423674251663611834e-01
-1.216709308018764681e-02 -5.590711488833034759e-02 4.408300791077046643e-01
-3.422617624817266002e-02 -1.133560612152814950e-01 5.017457355198823299e-01
-4.587978847788159315e-02 -1.102771410087771409e-01 5.032972352039880581e-01
-5.950458506493439687e-02 -4.376214349186302588e-02 4.447966578613573030e-01
-4.854227592787789536e-02 -3.890737085631314207e-02 4.412711284376824583e-01
-8.777690826785056188e-02 -9.855314137663098717e-02 4.962889801216673891e-01
-4.284370220783813993e-02 -1.132077576194421009e-01 5.174952769877237957e-01
-3.729361067447400230e-02 -3.700559039507657355e-02 4.406941471816582800e-01
-6.447025758900411241e-02 -6.331326284474902977e-02 4.415014323457145951e-01
-1.431741743258259716e-02 -6.663094752988796277e-02 4.442389540754329014e-01
-3.680379684622140518e-02 -1.057865633836867630e-01 4.839873903047463566e-01
-9.539052107779737166e-02 -8.791986988827375782e-02 4.748532805443376748e-01
-2.461208913930356193e-02 -4.998618986089159444e-02 4.420954154429686533e-01
-7.158231835665786191e-02 -7.216647332377240653e-02 4.425268851718979768e-01
-3.169697343436443659e-02 -1.004229457598958819e-01 4.722745866328487141e-01
-3.738938277551814241e-03 -1.079316493997334869e-01 4.716536130850615960e-01
-1.034405399330749244e-02 -1.002474137281676309e-01 4.639356447739329536e-01
-4.420571922347307781e-02 -9.311535182676412836e-02 4.669298278322009388e-01
-1.675573688718224805e-02 -1.183870759632141834e-01 4.975879576519896541e-01
-1.022608100282434290e-01 -7.463025966453205873e-02 4.814162333428738672e-01
-8.120361821775959332e-02 -1.013540907668023516e-01 5.273278262701882602e-01
-2.662388172091117305e-02 -1.181872588294434895e-01 5.153720730192240529e-01
-7.141877548088951255e-02 -8.458691577576014919e-02 4.549041241650857992e-01
-2.817739566961800085e-02 -1.177609371810097172e-01 5.245702027419573144e-01
8.898696644163584663e-04 -1.198767335719184840e-01 4.951442833363733920e-01
-1.391716537703849808e-02 -1.112758330236540277e-01 4.786025348298507121e-01
-4.509124963803749775e-02 -1.128174176521941630e-01 5.284231979261616585e-01
-6.017538618530149375e-02 -8.303260584075093653e-02 4.548393981001052078e-01
-3.095867350482185351e-02 -1.164391559333519399e-01 5.358677510651691511e-01
-8.755358576454581876e-02 -6.823085385039240336e-02 4.617553574905762792e-01
-1.975725805917102895e-02 -8.219060131419951565e-02 4.509964397163476191e-01
-6.546581834888842710e-02 -8.557660614518249054e-02 4.562547337924109381e-01
-3.248414269886723549e-02 -1.148146153417483883e-01 5.051894756533465980e-01
-7.767039411213295941e-02 -7.871545293484001615e-02 4.496674596385293321e-01
-4.412969274377865486e-02 -9.184971616503229130e-02 4.654270591211482344e-01
-6.813253378428664464e-02 -8.660517915117710297e-02 4.582803657246663498e-01
-4.205980689338635614e-02 -9.565124937152204299e-02 4.697010783821788382e-01
-1.326492393755920960e-03 -1.239372035138652933e-01 5.079967686189205134e-01
-5.177133830976075185e-02 -9.406137815598819563e-02 4.686349163747103308e-01
-2.532625248805961404e-02 -8.278087320417330808e-02 4.519065506379594810e-01
-9.889441992559841466e-02 -9.678751971877046223e-02 5.056456674315603639e-01
-7.148976049591573845e-02 -9.515936496718065130e-02 4.763765127168462232e-01
-2.891417774391888580e-03 -1.253221269020465822e-01 5.164999750412626600e-01
-4.012786610491260453e-02 -7.796598202500190644e-02 4.517181051435648631e-01
-5.966079659631866317e-02 -8.261973008054751544e-02 4.545013337360060968e-01
-1.005732600546679345e-01 -8.057231142745989450e-02 4.734904261363338529e-01
-9.711094696707622820e-02 -8.482155071039582106e-02 4.720632455790150228e-01
-1.760269541991648506e-02 -1.180185662094096199e-01 4.972889438593208755e-01
-2.104599360067768016e-02 -6.260820074501426136e-02 4.437394261438574183e-01
-8.563497915005290062e-02 -1.004609461744373072e-01 5.229235525213052904e-01
-9.574202935050526997e-02 -9.450680808274318501e-02 4.886872393552417759e-01
-5.057218503176227897e-02 -5.647930788756583276e-02 4.429945121508350181e-01
-6.038555895739879976e-03 -1.216138072213703708e-01 5.005180066004918382e-01
-4.637924156182649665e-02 -1.054187952234736797e-01 4.894858332156882263e-01
-1.077064830033918758e-01 -8.460980331347234262e-02 4.838185035404914403e-01
-6.781309509643415612e-02 -1.066813927844013632e-01 5.213382293345218965e-01
-1.336617308588518641e-02 -1.120153908310387997e-01 4.796154732494927742e-01
-3.250621265257515324e-02 -9.469064531269136276e-02 4.658077028860599933e-01
-1.049812887503969727e-01 -8.998717652753436547e-02 4.877669105176532516e-01
-1.021831085409765638e-01 -7.566328801578822705e-02 4.793594860943719005e-01
-8.856195620529348778e-02 -9.943572047210895437e-02 5.221944236212926471e-01
-2.691264232503244938e-02 -9.752491013955939814e-02 4.657031054997853303e-01
-7.357328380584209071e-02 -1.048743248196323807e-01 5.170417102720908931e-01
-5.368674244105603455e-02 -1.009847524040661249e-01 4.821256529393382895e-01
-3.466368289304757461e-02 -1.157032265207592059e-01 5.284751852236712066e-01
-1.671300987426969226e-02 -1.199305132934798401e-01 5.418471441747310102e-01
-2.579905241336338806e-02 -6.928420758004127933e-02 4.460535482866345158e-01
-6.478937317250987871e-02 -8.543150613936151272e-02 4.560555586757212287e-01
-6.171145313179120934e-03 -1.129397629239230622e-01 4.793966445218182937e-01
-8.680007686189775140e-02 -9.495535135549992845e-02 4.831138954131898311e-01
-9.911306953736367942e-02 -7.503803319225993418e-02 4.738381271370933345e-01
-9.616554774752714141e-02 -9.131688838507379113e-02 4.816985022462296206e-01
-6.028628354934210259e-02 -8.757565154961305387e-02 4.599521653260847387e-01
-5.778931528661131189e-02 -7.185613187313964756e-02 4.459970081867508096e-01
-8.752806202356729071e-02 -1.004804586454631082e-01 5.147109019468221192e-01
-5.250692136013781347e-02 -1.098114796367295892e-01 5.352481187436580745e-01
-6.636632026755318048e-02 -1.018398256394779655e-01 4.916372439253618998e-01
-3.127134119850790567e-02 -5.748131989998472163e-02 4.434738915502984824e-01
-1.453129137095040060e-02 -8.775600285006864010e-02 4.537960951580622404e-01
-6.880985048437110452e-02 -5.931637017475853424e-02 4.434839844549732235e-01
-5.166573296231602441e-02 -1.098031781474267943e-01 5.095965151949661820e-01
-8.933175730283969551e-02 -8.714481336889409735e-02 4.696237519581544229e-01
-1.352373368085595974e-02 -1.218390806808948568e-01 5.085702065597335064e-01
-3.163753379792178660e-03 -1.256970380803991427e-01 5.200842416121520539e-01
-1.103040246400999180e-01 -8.975638445269636112e-02 5.131985014241859933e-01
-3.411374057800371264e-03 -9.791435225969050138e-02 4.610999689677710012e-01
-8.593359736132766269e-02 -8.292884553888300869e-02 4.618789136996570011e-01
-6.710540529100181284e-02 -1.012275072589750857e-01 4.901403391881501426e-01
-9.525246137740997487e-02 -8.609148372563386886e-02 4.721450410120315855e-01
-1.674918619157995253e-02 -1.198706208759664632e-01 5.035881011294762732e-01
-2.044581161732487301e-02 -8.715030685180656655e-02 4.537385783837703523e-01
-9.576310400928877975e-02 -7.482254629193910156e-02 4.692031879555010332e-01
-3.412190962216483242e-02 -7.000128570736735556e-02 4.470174416922148009e-01
-6.575439349147529922e-02 -5.294533280746663295e-02 4.461359204935758105e-01
-6.871096950017971383e-02 -6.946202503274563622e-02 4.419726804043958013e-01
-7.831665891088181175e-02 -9.367263423309106496e-02 4.762780836564725062e-01
-7.656345482803869618e-02 -7.323725233841238413e-02 4.444029729047822563e-01
-7.565445371810376740e-02 -9.868863331176808140e-02 4.879442534952280752e-01
-1.103702438314958373e-01 -8.146074624624571880e-02 4.919074265598453732e-01
-7.169255960491774382e-02 -9.057474850779699549e-02 4.671402444366924422e-01
-5.124152753420053996e-02 -4.773159566258260850e-02 4.423764605538544892e-01
-5.465569051021724328e-02 -1.043163257710767594e-01 4.915055592557664998e-01
-3.109680861450330597e-02 -5.662545402168488173e-02 4.433001427760483448e-01
-4.306622669660420399e-02 -5.316798488845357606e-02 4.431275029263875842e-01
-1.094688055461688486e-01 -8.497262250232449909e-02 4.887057010861423634e-01
-1.945673747591513542e-02 -7.533173352956067104e-02 4.479000935006686168e-01
-6.285212580875573773e-02 -6.016192117196151462e-02 4.414431632606116152e-01
-2.092788815227220392e-02 -9.612798208065478911e-02 4.616336448084588651e-01
-3.359663881286015230e-02 -1.160756122622884773e-01 5.211799873350619894e-01
-4.079923526523952966e-03 -9.848241020074523233e-02 4.616437208858039654e-01
-9.330536955096135898e-02 -9.832913429956233187e-02 5.186610804349579551e-01
-4.976902952206564701e-02 -4.480202778551128917e-02 4.422254616240893776e-01
-6.044053389555559958e-02 -1.070813303404660327e-01 5.071867453449561136e-01
-1.957352452696944217e-02 -1.001705368338388358e-01 4.653777669961046137e-01
-3.347218447507907535e-02 -1.076787160712351643e-01 4.858078019486585242e-01
-7.142628442302104141e-02 -1.053604837202623407e-01 5.154821362493338111e-01
-8.212231024985619521e-02 -1.018057758344537017e-01 5.229401676478266925e-01
-9.593252324011132537e-02 -9.449170866133117797e-02 4.888445073399303453e-01
-4.010942612252666600e-02 -1.136063159721189680e-01 5.126559377058581557e-01
-6.946076932992140129e-02 -7.590775554248116452e-02 4.456305805240621254e-01
-5.382862722030225949e-02 -6.875751223397029432e-02 4.458820916112563038e-01
-3.870828088477560464e-02 -1.137005200166754937e-01 5.398912483094562287e-01
-2.932379126041090647e-02 -1.116352849070939984e-01 4.923981280060180654e-01
-2.188124198416547747e-02 -9.219476707645006541e-02 4.584734333786515403e-01
-2.475279308025180383e-02 -9.142065925596687403e-02 4.588623695198917329e-01
-5.424116164443629901e-02 -2.088043577624184438e-02 4.465837893196428765e-01
-4.030977129743571613e-02 -1.047170510213553396e-01 4.836318272054438427e-01
-9.232430170087006782e-02 -8.020283673673703206e-02 4.636820703231374630e-01
-4.190497883105153559e-02 -1.129769768122546036e-01 5.373353443337820501e-01
-7.438563632268581360e-02 -8.811791032462777673e-02 4.637158322374237418e-01
-8.571379662605313476e-02 -6.973448064687158554e-02 4.554473087220972105e-01
-2.547543741719366858e-02 -1.174032219348664502e-01 5.066512866937968873e-01
-6.642278999859702049e-02 -7.630369689776923814e-02 4.466808074473742618e-01
-4.332298727676047595e-02 -1.072060713544848443e-01 4.915769886858882276e-01
-7.737038947611106499e-02 -9.670669652970174945e-02 4.833038503654562001e-01
-9.004302835235096503e-02 -9.805946974372813096e-02 4.968495256032887109e-01
-8.100385353574628133e-02 -8.950785866596551454e-02 4.693017371914223745e-01
-9.228053290050751423e-02 -9.552382985053546605e-02 4.888358901990078054e-01
-1.729741597083587351e-02 -1.033218537273530857e-01 4.682269701916587645e-01
-4.389054476349155132e-02 -2.613062887929086184e-02 4.391934837805845926e-01
-2.395526431420005181e-02 -1.183859967624347476e-01 5.376332905325177380e-01
-6.232262290868665483e-02 -1.030912995288721934e-01 4.926383288073880595e-01
-1.040145941055513890e-01 -7.887999191059587301e-02 4.781726853142760358e-01
-8.568271096688528932e-02 -1.010128066814738462e-01 5.169764444156877969e-01
-2.250338891499970712e-02 -1.192197770209363628e-01 5.334529099339867519e-01
-2.651449320082881547e-02 -5.323352057161519907e-02 4.423798102452254355e-01
-1.164627749378103518e-02 -1.191641247914674573e-01 4.960365607175569180e-01
-6.007719339970783029e-02 -1.017006031063596300e-01 4.869885451480039373e-01
-7.243401846990565884e-02 -1.052307155994336024e-01 5.195652184342107738e-01
-4.239222948866219753e-02 -1.077928872873193805e-01 4.923118997867131363e-01
-2.492665422187606908e-02 -6.088500139595639377e-02 4.436304555145185180e-01
-9.824942487961227378e-02 -9.009048121431061096e-02 4.808145219678510163e-01
-5.014048958527670546e-02 -9.981513879877608464e-02 4.781300829442866607e-01
-7.473526012765774329e-02 -8.902429434657242735e-02 4.655498008698104040e-01
-2.463895342939671773e-02 -1.153224332394500729e-01 4.970000181580632170e-01
-5.484586617794702523e-02 -2.694495678084980750e-02 4.469618679966345098e-01
-1.780900808165447602e-02 -5.065637924144245768e-02 4.411746668351637646e-01
-7.973743091363779539e-03 -1.176050025331669135e-01 4.902632950985801874e-01
-8.591169691180491896e-02 -8.190601699954155879e-02 4.605056806714535877e-01
-2.551383490532855083e-02 -9.734911388771816387e-02 4.647196690461293800e-01
-2.150100774478093738e-02 -9.810936306597092815e-02 4.638888437908301188e-01
-2.656562160564098635e-02 -9.601222360249302146e-02 4.640483747528874048e-01
-9.554606104165892788e-02 -9.621962326588934244e-02 4.956793649500984000e-01
-7.345595212729058576e-02 -1.048873430249400718e-01 5.206017513321282708e-01
-4.765898882742627962e-02 -1.113946803315588041e-01 5.130657515560355098e-01
-4.739625916431915165e-02 -1.122039922260155559e-01 5.206912348611409946e-01
-1.673421847703939619e-02 -1.216006938968815509e-01 5.280057768868113843e-01
-6.289470806425917493e-02 -8.086644539801794707e-02 4.515537611864417489e-01
-2.481189967129145135e-02 -1.188800847494494300e-01 5.183998165404434255e-01
-4.451214248091450026e-02 -4.983296644647808304e-02 4.425280466373129884e-01
-5.367539094018061729e-02 -2.619647254341155723e-02 4.430635370957791697e-01
-5.924466657162221969e-03 -1.251111875242444382e-01 5.226542429787700561e-01
-1.445833481488979430e-02 -1.159312551367315258e-01 4.889830819485546098e-01
-5.538257569468801877e-02 -4.958892045376485369e-02 4.423036111120907110e-01
-5.240333626285790386e-02 -1.101284924155378625e-01 5.134674363925888496e-01
-1.778865567312647514e-02 -1.113306233935513895e-01 4.806041143315737951e-01
-5.284105678738960227e-02 -9.306940502678985594e-02 4.672938873415683481e-01
-9.654023058970282942e-03 -8.098226124217128286e-02 4.501090310265896677e-01
-6.708874597628189385e-02 -1.062160671068183432e-01 5.297028702111101772e-01
-1.876379495601289762e-02 -1.204659531972196579e-01 5.348782195582566512e-01
-3.669500390782198807e-02 -1.078155739473490443e-01 4.881586849782679760e-01
-3.116734914575269855e-02 -1.152947762024988665e-01 5.055853779905588041e-01
-3.746733202577219590e-02 -1.149690614506684860e-01 5.254859159199243290e-01
-2.717364313361819023e-02 -1.181224835827654751e-01 5.234274819101780718e-01
-8.376502020802387150e-02 -9.521412088379438421e-02 4.824140802440369247e-01
-7.598544064553683364e-02 -9.965234813576694106e-02 4.913846322981907377e-01
-2.568276869358331743e-02 -6.259293273814452163e-02 4.441654665189246343e-01
-8.856859340468851982e-02 -8.770600035194117683e-02 4.700163363531187910e-01
