-1.543761522848384471e-02 -1.216083570514939483e-01 5.338619528582370100e-01
-8.485297852344436675e-02 -8.155025345026706285e-02 4.637465804903840860e-01
-2.170685256844396421e-02 -1.170988844247773525e-01 5.470855428191029324e-01
-5.891402061907612814e-02 -5.448829943084134569e-02 4.434155556362678885e-01
-1.032926561505002616e-01 -9.117463186627669525e-02 4.958858618145976505e-01
-1.455922542252333952e-02 -1.217519750973935500e-01 5.112012189061000411e-01
-3.815692635229527008e-02 -1.107469915797787557e-01 4.991889165158424069e-01
-5.217956898498265356e-02 -7.098833401640518292e-02 4.501164816825664605e-01
-2.180130333493113075e-03 -1.254846115528440165e-01 5.176783751411111467e-01
-9.498552847630097051e-02 -9.214451994764311094e-02 4.883675519887860639e-01
-2.773708732411489172e-02 -1.169767862776302514e-01 5.103530819079231673e-01
-8.245880060212840146e-02 -8.776709811851449161e-02 4.723674875782383764e-01
-6.436791200575150973e-02 -1.010204595762685537e-01 4.924276475643146189e-01
-1.111387757228071843e-01 -8.696074729537266179e-02 5.146831818809770587e-01
-6.357459598127358780e-02 -6.708792181984499225e-02 4.457872168716113803e-01
-1.543028230823438596e-02 -5.734432982294604408e-02 4.420015139723217357e-01
-2.444029609393912755e-02 -1.185523454842696556e-01 5.316284232863739412e-01
-6.609376689413520856e-02 -1.062393502747834007e-01 5.194972684190694023e-01
-6.061956686019746160e-02 -7.661598040243436381e-02 4.528735520886411625e-01
-1.358834943302300417e-02 -1.219414451081888839e-01 5.355154532319162941e-01
-8.801869042603922833e-02 -9.900341975832860353e-02 5.188285460973696139e-01
-2.915354218535108968e-02 -3.420411299216540024e-02 4.413362654591749257e-01
-1.051052064594612534e-02 -1.200174148886576642e-01 4.987498192475973147e-01
-2.370925214685303678e-02 -1.073563348785557120e-01 4.790054070449369372e-01
-6.187560726981037457e-02 -8.133874052963437074e-02 4.569922386778189627e-01
-5.987238641051864652e-02 -9.366927010374508089e-02 4.727818754550527913e-01
-7.875888968110435207e-02 -1.013823250317726771e-01 5.094847508827596849e-01
-3.627088544225779559e-02 -1.115822638000918271e-01 4.999287392517140494e-01
6.339310567363084375e-03 -1.260482938243470130e-01 5.347952221082515889e-01
-2.538940407974595373e-02 -1.163144059983717976e-01 5.458155065828861341e-01
-4.330537206701579045e-02 -1.128988481531856825e-01 5.249030361900038910e-01
-3.246333467668104794e-02 -1.120873526797781100e-01 4.981674366934675247e-01
-3.146383279496840074e-02 -3.941701012425731510e-02 4.421725167481438956e-01
-8.237650124362798365e-02 -9.382820139363536038e-02 4.846614856739505650e-01
-5.880036305398315261e-02 -1.078622783661453283e-01 5.159288865947557756e-01
-8.676235261299326817e-02 -7.325458725579767072e-02 4.575193579509289066e-01
-3.896782908785426797e-02 -1.137881778012569678e-01 5.358734024253830608e-01
-5.790155312348092831e-02 -9.757539560158300096e-02 4.793944373773056933e-01
-4.998485408075924868e-02 -6.392076755919265385e-02 4.468425620797056852e-01
-9.699517108326610737e-02 -7.636648420267098947e-02 4.703935278072131076e-01
-1.923568388238931087e-02 -1.205887706237864510e-01 5.297600002082601955e-01
-7.876154422634114305e-02 -1.004380128787228516e-01 5.043803359084423343e-01
-5.258191106017073846e-02 -6.697696291278786018e-02 4.481353983771542149e-01
-2.013197126975095272e-02 -1.190627781044396871e-01 5.408241646015808923e-01
-7.965924602957179246e-02 -8.662301055391641302e-02 4.689580435422157079e-01
-5.452484197679299815e-02 -1.972336787369449382e-02 4.481784368234738025e-01
-1.082977888537758754e-01 -8.572391855623684442e-02 4.888308464455053959e-01
-2.111099827158111411e-02 -9.885723362122507407e-02 4.653914410143267233e-01
-7.283818502205174905e-02 -1.020080420640892549e-01 5.044966719976748948e-01
-3.058866319792006433e-02 -4.356586745216792234e-02 4.426973979414521310e-01
-4.511860283246445918e-02 -8.439211808254931668e-02 4.595210969381156585e-01
3.541804897663615274e-04 -1.190240581659992164e-01 4.938584568509080674e-01
-3.269642926320826676e-02 -1.150520181807266062e-01 5.408323263209006138e-01
-1.535348066397024952e-02 -1.221765699413825540e-01 5.209674398731217737e-01
-4.805497890097078922e-02 -6.314411838368060026e-02 4.465722447089410796e-01
-9.646264539112972547e-02 -9.190968758272717587e-02 4.891514697436095682e-01
-5.685354950318637079e-02 -1.019173343869570758e-01 4.896789786361287478e-01
-5.513397470964682273e-02 -5.678105983236098747e-02 4.443067516514113691e-01
-6.627998835356607721e-02 -1.055297070930872744e-01 5.144243263413444955e-01
-8.785224855226433927e-02 -8.736905022955498978e-02 4.743180756792633179e-01
-8.440890866015360317e-02 -9.775694571867309113e-02 4.982388845425073098e-01
-5.026603743670871038e-02 -1.105446985613814936e-01 5.324142789216078642e-01
-1.129789335130769110e-02 -1.162755777936944623e-01 4.888203469363693876e-01
-7.786881050966794338e-02 -8.732019897057458069e-02 4.693304986738698337e-01
-4.528172345657705683e-02 -3.011531797760439583e-02 4.400954248681696046e-01
-1.121006478596392880e-01 -8.245277345221865839e-02 4.968814311693173225e-01
-9.724654466165966182e-02 -7.308819978270859885e-02 4.717226302084375766e-01
-9.795318289676011037e-02 -7.429465246342965845e-02 4.719988195734395320e-01
-7.037010466067981918e-02 -1.003526994514890858e-01 4.956056798557637588e-01
-6.116192092781836537e-02 -1.070393713341604436e-01 5.339394514160750171e-01
-2.927519602544288377e-02 -1.088934966858296771e-01 4.870417429185391334e-01
-1.027668674797656695e-01 -7.215473487906337580e-02 4.832399065666939109e-01
-7.844998642685489798e-02 -8.325556467506657621e-02 4.628045844100510120e-01
-8.422540650810309004e-02 -9.369239055217568057e-02 4.852268484120652037e-01
-7.173147396559274858e-02 -6.862306828341302456e-02 4.450960085242648412e-01
-5.575252002300503697e-03 -1.128486027356768034e-01 4.799976057235232907e-01
-2.595455592736934866e-02 -1.178679942719006585e-01 5.346482075827622138e-01
-4.566199111887869061e-02 -8.390487864652042271e-02 4.591378541906577238e-01
-1.444029749709285770e-02 -1.147969456835252200e-01 4.867805176698778991e-01
-1.822799633180959694e-02 -1.202181682102709120e-01 5.090361872377395791e-01
-3.589651941491593147e-03 -1.246957608249267963e-01 5.131973510440881459e-01
-1.483594104865962673e-02 -1.159264491090845339e-01 4.901774197899480545e-01
-9.099446230511190614e-02 -9.731452893038519680e-02 5.049231448854050175e-01
-7.257353324206464867e-03 -9.091915899339997331e-02 4.561015705164210288e-01
-1.943772319015557581e-02 -7.230716806259072926e-02 4.473491131727799774e-01
-7.359977799883586635e-02 -6.547027920050628447e-02 4.442912498400549137e-01
-2.159565025765922130e-02 -1.193350988397026691e-01 5.111879030429584692e-01
-4.448384269631323884e-02 -1.125504997844488653e-01 5.240603797802461106e-01
-3.982131596126785300e-02 -9.457805515558238840e-02 4.698910862776138342e-01
-7.680070841787715874e-02 -1.022302809536106277e-01 5.289202169015768673e-01
-8.009357060086745583e-02 -9.687861454481419554e-02 4.915298329190397331e-01
-3.043291624035171852e-02 -1.033059932301931966e-01 4.774673319932034588e-01
-3.767019565205226295e-02 -1.136450902734923579e-01 5.405984741749451095e-01
-1.021629522908933975e-02 -1.100085577878671533e-01 4.761791239930499020e-01
-3.884574364424376453e-02 -4.818318994305254011e-02 4.430447169409169605e-01
-3.168388147559690615e-02 -1.070547899779317885e-01 4.850915031985801318e-01
-1.736131350982662858e-02 -6.771292159941025290e-02 4.454052116922673776e-01
-5.598447009016593173e-02 -1.073196770929014249e-01 5.068168682334014408e-01
-6.691818135156506198e-02 -1.007724149179535372e-01 4.937741803343507763e-01
-3.750378618213860010e-02 -1.080766349625434664e-01 4.913741325322096842e-01
-6.888410885408044471e-02 -6.236496984417716494e-02 4.440141299674881803e-01
-3.064377354509871185e-02 -7.239936675934759147e-02 4.488139892199394798e-01
-1.606290796281067967e-02 -1.219293714818061175e-01 5.209404245698263658e-01
-4.894308454486109156e-02 -2.844278526558500358e-02 4.406523260037296663e-01
-2.539592031762390525e-02 -9.573985190104396248e-02 4.639322222854506683e-01
-6.711601320315912014e-03 -1.223086310301423618e-01 5.043114348305198780e-01
-8.621958237452211071e-02 -6.453060584140966893e-02 4.597786801021524483e-01
-3.436411715183888826e-02 -1.129972120735914659e-01 5.026188087555608641e-01
-5.320170764919279066e-02 -1.092698372195434059e-01 5.145547499509824929e-01
-5.849252167776584216e-02 -5.685546647846682899e-02 4.436265023170545274e-01
-2.746342763649873078e-03 -1.257885108053744261e-01 5.223487638058297300e-01
-8.261240466829222751e-02 -9.756607639545847310e-02 4.958368540404834435e-01
-9.791655243558204658e-02 -9.036609797922197373e-02 4.870629497939124586e-01
-2.744643521769137007e-02 -1.084069388722705141e-01 4.847730389014517360e-01
-3.852996606268937335e-02 -8.065921576431843432e-02 4.551276017821744846e-01
-5.571144484365018329e-02 -1.085017692631237568e-01 5.142963747093802773e-01
-1.050657870021170642e-01 -9.222125599320657452e-02 5.042217925199160566e-01
-3.727156438419786111e-02 -1.133294865557313708e-01 5.435480019959078035e-01
7.133113996204596199e-03 -1.261335379993571704e-01 5.347483046229941639e-01
-2.546259091796911067e-02 -7.113074865960783422e-02 4.474087156312639424e-01
-5.324443780408510268e-03 -1.249012072494564696e-01 5.300923227120578618e-01
-8.808852232357927692e-02 -9.767411191498955036e-02 5.023194691344511353e-01
-5.490468543328118345e-02 -2.326471639537880734e-02 4.477728029648604946e-01
-6.888651230642287016e-02 -1.011370863308177631e-01 4.970100677990632043e-01
-7.292517310691842836e-02 -8.733894175582690433e-02 4.669461434547670375e-01
-3.579799429206154820e-02 -8.084882419406880238e-02 4.544765240572163356e-01
-1.090713193792666597e-01 -8.757252913395338623e-02 4.961550830831483183e-01
-1.121727382075029672e-01 -8.444084713067896708e-02 5.029677683558126944e-01
1.547959874846569980e-03 -1.204620632319944040e-01 4.973630692588989488e-01
-4.402994628486162770e-02 -8.133882393672527134e-02 4.567381710834974018e-01
-9.986475008432015021e-02 -6.907817004040316122e-02 4.843152886937176493e-01
-7.686143484470590870e-02 -1.019764223601437314e-01 5.302409776397420949e-01
-3.295205028419202070e-02 -1.153710119039916826e-01 5.379802093036739619e-01
-7.900884934666493886e-02 -6.984056401122282209e-02 4.480232349349987375e-01
-6.442949532337903518e-02 -6.061887512588658850e-02 4.435965092102746032e-01
-3.400462116553936570e-02 -1.154769997382732727e-01 5.319301429723207741e-01
-3.197414416025096823e-02 -1.162529869820603939e-01 5.276368445845385224e-01
-4.375195734160693822e-02 -1.008127840336197067e-01 4.801938773717262521e-01
-1.241938984630281372e-02 -7.675742028347820600e-02 4.487886725148736433e-01
-3.660198518432992293e-02 -3.933153096958866279e-02 4.419310136958147783e-01
-7.998967817499924582e-02 -7.788246066890108787e-02 4.554890654403411787e-01
-2.390168691897652867e-02 -1.029217083256141752e-01 4.719877286388254878e-01
-9.295085268038501269e-02 -9.701945208431385359e-02 5.063588673675668561e-01
-1.067665682509945715e-02 -1.102976500401488119e-01 4.766807760320019294e-01
-1.121471734079320520e-01 -8.138526355022478176e-02 4.953374759872831712e-01
-6.167560249541984702e-02 -1.034472069067616240e-01 4.977973109094175896e-01
-9.003393454254933481e-02 -8.852975915514411931e-02 4.776863608003166228e-01
-1.065562590070206900e-01 -9.238153700326547091e-02 5.149330085568469828e-01
-3.870157052620759597e-02 -3.970083973691043017e-02 4.418143175146919677e-01
-8.044177177881446650e-02 -1.015445907302446465e-01 5.169547607410445167e-01
-9.705385797713389495e-02 -6.888248417461501072e-02 4.770717498842195758e-01
-7.526510487746250477e-02 -8.080034216525736057e-02 4.554822366051288207e-01
-2.000575465125629254e-02 -1.178229150372387957e-01 5.464444028118514707e-01
-4.966630779610996249e-02 -1.107542341393853991e-01 5.185908125334961483e-01
-8.079584259107967792e-02 -8.657883365817975463e-02 4.694300990088805525e-01
-4.281368916598762842e-02 -1.108470964591736357e-01 5.048551821980862275e-01
-8.272395817935518370e-02 -1.005826290788780913e-01 5.130585273489851605e-01
-9.978177648263114596e-02 -7.887632346640868763e-02 4.733636140123542169e-01
-8.727831188251344852e-02 -9.794059781473071769e-02 5.026442911942833325e-01
-2.801591776709466686e-02 -3.869320877270578107e-02 4.421462780779854551e-01
-1.097452746701341880e-01 -7.727893982065597855e-02 4.906429234468240308e-01
-5.860150711263517609e-02 -1.072446109467107833e-01 5.114074682569579311e-01
-2.386997883352948852e-02 -1.189804373800485288e-01 5.148790632114136345e-01
-5.453543927416273918e-02 -8.499940809869387104e-02 4.607189342990469227e-01
-9.451723382400366302e-02 -6.707344762800009075e-02 4.752373605499241593e-01
-4.760931493945382009e-02 -8.665236714848992272e-02 4.620767319914230176e-01
-6.681385838968077751e-02 -9.806564168691962735e-02 4.852656343123051830e-01
-1.114512063948484011e-01 -8.380500291319034623e-02 4.970031205022836795e-01
-3.134295647094230419e-02 -7.535337966136043675e-02 4.502763871815789742e-01
-1.124526798167986147e-01 -8.439427774051451447e-02 5.057130426232239184e-01
-1.078630311337704616e-02 -1.235712902909202188e-01 5.167687705171520873e-01
-3.791327547597581060e-02 -1.143902666733913054e-01 5.201182055882536126e-01
-1.075704973167102146e-01 -8.877912953649222394e-02 4.964603047659106316e-01
-3.979934166652281113e-02 -1.138983891841675311e-01 5.210940092827232029e-01
-2.098755103728584814e-02 -1.195513311686067781e-01 5.353415433595144490e-01
-8.593067241442152449e-02 -8.308763537882252193e-02 4.669042924123585903e-01
-1.624451759235814516e-02 -1.212999895531544636e-01 5.343545283711875760e-01
-1.038593087343041982e-01 -7.663251205521005860e-02 4.793922469290636812e-01
-8.334549095104550054e-02 -1.004871772325367646e-01 5.206541865387078749e-01
-6.754454773351928343e-02 -8.037467472491982567e-02 4.548115913853663095e-01
-6.791197164740685188e-02 -1.022506515705940283e-01 4.999721905922124843e-01
-1.175189967347939346e-02 -1.233790419276158956e-01 5.222294124639271784e-01
-7.827307041160733170e-02 -7.840171924161781769e-02 4.546789388336727189e-01
-8.317202875230209069e-02 -8.985964664642971667e-02 4.763747054641860323e-01
-9.018119030529843372e-02 -6.620897037981120226e-02 4.663129284257077067e-01
-2.332564464600764970e-02 -8.915027073280211434e-02 4.571664321358228089e-01
-4.908501499011831866e-03 -1.252376910748834449e-01 5.201682366815447711e-01
-4.961992505658757019e-02 -9.946252817816374214e-02 4.804150429926836718e-01
-9.534421053118970202e-02 -9.280905986704222899e-02 4.906183934908341926e-01
-4.790994033950361775e-02 -3.982574445101724758e-02 4.419913402163230254e-01
-3.700889147704860410e-02 -4.225173804046528092e-02 4.423905824837786049e-01
-1.740734772100397537e-02 -1.045622260597748460e-01 4.707510471081713388e-01
-7.805499113391890786e-02 -1.024182251154504286e-01 5.194249154344843245e-01
-5.576884939049070455e-02 -2.999484224060597337e-02 4.486470673995801572e-01
-2.831421507772956692e-03 -1.175782462397514661e-01 4.902000969117973339e-01
-4.491415157889486198e-02 -8.992035488211815031e-02 4.655344268660833729e-01
-3.929335195353693411e-02 -1.140770857126861826e-01 5.276780204339397429e-01
-3.239818203513428890e-02 -5.051593635659569481e-02 4.432671222502403974e-01
-1.134426474137104589e-02 -1.094226652932430432e-01 4.755156520611563686e-01
-3.263546696245150230e-02 -3.618180577559342720e-02 4.415506207467039812e-01
-8.964136828590568706e-02 -6.554581520455507460e-02 4.660668620742816626e-01
-4.046173026442402565e-02 -4.857231322773775117e-02 4.431880735353844747e-01
-4.192157227812878112e-02 -1.079697236326309234e-01 4.945828597510031899e-01
-8.882098196079839247e-02 -9.546862200751567162e-02 5.331731871160397818e-01
-2.628936827127642539e-02 -5.844983250437175287e-02 4.438994933984978242e-01
-3.526868096724839613e-02 -8.603160239096772910e-02 4.590904738845173472e-01
-4.764019663778960856e-02 -7.992530976395144371e-02 4.562862663306543332e-01
-5.002387070007338100e-03 -1.155492212950471193e-01 4.855800081048573524e-01
-8.513249058908711753e-02 -9.815352090481585523e-02 5.007233078631793122e-01
-8.212797130583923688e-02 -8.086346187108328643e-02 4.609487205062911541e-01
-9.119396374569342656e-02 -6.502144350898719782e-02 4.706965728727508513e-01
-2.134193707087264635e-02 -1.178496557892832197e-01 5.027886499610659810e-01
-8.561811770319512072e-02 -9.077132213459043752e-02 4.793191787248824998e-01
-8.092964431973216632e-02 -7.424155148571379148e-02 4.521452358783761283e-01
7.832106884927407531e-03 -1.252125321867958718e-01 5.168091815893148810e-01
-1.668927789228529315e-02 -8.852732795398889076e-02 4.553214980823284130e-01
-5.831121704558022562e-02 -6.005041435191087879e-02 4.444766501475856946e-01
-1.964372612615666522e-02 -1.203163604707142842e-01 5.317433270116583843e-01
-5.429315294150834081e-02 -2.369331671029493991e-02 4.436449520661999157e-01
-4.038979225890614033e-02 -7.937813609130106585e-02 4.544694200914144999e-01
-7.269267394519431102e-02 -6.033089059501726276e-02 4.447777793671718327e-01
-3.312306011585879062e-02 -6.374119140533662797e-02 4.458429139865645596e-01
-9.301277419156038506e-02 -9.728599974972917952e-02 5.088570154931014722e-01
-7.574876579820466471e-02 -9.851284361945476797e-02 4.938878978723421631e-01
-7.407117547601044238e-02 -1.015655369667131241e-01 5.039688859194342285e-01
-1.033774431068895383e-01 -7.460118963727217778e-02 4.804392723027179346e-01
-8.302539627919196252e-02 -9.904455243460622005e-02 5.028721674995157986e-01
-9.858006469070516864e-02 -7.476888525204501701e-02 4.726190386726601966e-01
-1.367507994649320296e-02 -9.589734392360164950e-02 4.611090073405400558e-01
-1.282573143121693189e-02 -7.259418819665393319e-02 4.470472934612181870e-01
-8.419492245542521680e-02 -9.988784380856173539e-02 5.243447811344325027e-01
-2.177495097390680368e-02 -1.044550723923490521e-01 4.729932905863432624e-01
-4.573093757303389739e-02 -1.122211040513853703e-01 5.285035288077246651e-01
-4.497906800430798158e-02 -5.340078487610702002e-02 4.442529200844353432e-01
-4.856678674297152526e-02 -9.102296038985535631e-02 4.671933106484976728e-01
-6.208891773048806628e-03 -1.119138577719431538e-01 4.784270782421076729e-01
-3.808056795663288495e-03 -1.252101639002403399e-01 5.304507300964765859e-01
-1.041849739702928671e-02 -1.157356995155216367e-01 4.872546236188227131e-01
-4.921402985516992734e-02 -1.066468441160346170e-01 4.970478801088147325e-01
-6.217567776475389080e-02 -1.068628493425306109e-01 5.157592443128042881e-01
-2.036272134295270819e-02 -1.177745992606182290e-01 5.461888934031018383e-01
-5.317865312185593440e-02 -2.876804503362535154e-02 4.436221611850723057e-01
-1.234007069752531514e-02 -9.044861775087824352e-02 4.563339665625461561e-01
-4.457219513414240747e-02 -7.796794424257812162e-02 4.545025822567627105e-01
-8.900521783741809079e-02 -8.890568852380136000e-02 4.777363657932116592e-01
-4.219278682098743377e-02 -4.451674827382924582e-02 4.425065196062887840e-01
-1.542157774457560138e-02 -1.182920133441161814e-01 4.968936353816548190e-01
-3.581935539997788132e-02 -3.809134443783569746e-02 4.417181919513065713e-01
1.250947563453744249e-04 -1.254957151770127732e-01 5.332479398298904938e-01
-9.717381284629612870e-02 -9.618000592552974903e-02 5.108971339833672243e-01
-3.698039217043830318e-02 -7.344373902781928254e-02 4.503423012077135135e-01
-6.372100621576101687e-02 -1.061458463450911660e-01 5.136507763495686829e-01
-5.276199552016118399e-02 -1.024131367991118757e-01 4.890846797693075843e-01
-1.113238149875113298e-01 -7.881607202549671676e-02 4.959600031779703988e-01
-2.329074043166718191e-02 -1.171522058832077523e-01 5.031548569468693444e-01
-6.643636061822860706e-02 -9.856188152647848977e-02 4.865481247165985845e-01
-1.248624714367562935e-02 -1.231450651578897132e-01 5.201676393611051052e-01
-4.360368760601748828e-02 -1.037025025308368209e-01 4.858244783681219259e-01
-7.571449417144680838e-02 -1.008387314356216508e-01 5.364560321053114533e-01
-2.001867064869095394e-04 -1.246946858720042184e-01 5.120519516602211052e-01
-4.729345784959591847e-02 -1.061765337842975054e-01 4.944936754523137079e-01
-4.997802482086934062e-02 -2.989931448223517862e-02 4.412736462348897382e-01
-5.950658278735146411e-02 -1.020402639681631390e-01 4.917974048581744140e-01
-7.845150568969312677e-02 -9.819277186922929779e-02 4.948287416662286997e-01
-6.372428510294296522e-02 -8.538705842786231681e-02 4.615075380599376054e-01
-6.713553158725439618e-02 -7.544544832770865017e-02 4.506802379409560189e-01
-7.616221241700171785e-02 -9.353993463904036743e-02 4.804869827799375104e-01
-6.347532660713332830e-02 -7.356326655583650398e-02 4.499460972483739774e-01
-3.856369586643487030e-02 -1.118149570308132335e-01 5.029178714059687749e-01
-1.502347837228011108e-02 -8.870537503076843244e-02 4.553458514897876230e-01
-2.739247693131721326e-02 -1.080883818102847393e-01 4.840844346451940727e-01
-7.689312419141759725e-02 -1.024558287005752910e-01 5.273821009807059257e-01
-1.659717023996009830e-02 -7.367873299602216430e-02 4.477484478906199605e-01
-3.427871589500159494e-02 -1.138877203699014823e-01 5.447718636623091193e-01
-1.426470201180067912e-02 -1.161090979136183005e-01 4.902918061973681740e-01
-3.571083660475382615e-02 -1.147370032683425467e-01 5.147350502656957705e-01
-5.199866884893807745e-02 -3.747142498336223509e-02 4.425362331051370113e-01
-1.137255328724250114e-01 -8.137807482187454922e-02 5.007329153368013097e-01
-6.398143738185932405e-02 -9.516915068332006122e-02 4.771280184245406675e-01
-2.977861683751112376e-02 -4.844386946785089049e-02 4.429293209355740779e-01
-7.536431777522659137e-02 -9.916251541624658550e-02 4.959123511422304231e-01
-4.807352125987121583e-02 -1.029748134791351605e-01 4.874059593339966634e-01
-5.083310125891216807e-02 -5.199050912081620845e-02 4.437203536220395983e-01
-1.027144319412367640e-01 -7.308981802200968658e-02 4.813692517597532028e-01
-3.234098249481696941e-02 -6.273236020530602308e-02 4.454973874189436245e-01
-1.107854675963413915e-01 -7.888867213694475411e-02 4.934349067715166903e-01
-3.716544901936444378e-02 -1.130402297692522096e-01 5.058828607094508767e-01
-1.049239355418729591e-01 -8.904140072859589861e-02 4.921175189134229244e-01
1.127680364472934127e-02 -1.260451101438285759e-01 5.343353601089326776e-01
-3.822634288889325410e-02 -9.641760578750865895e-02 4.717976636336552176e-01
-4.561378972014525079e-02 -5.633227908659986516e-02 4.448332846543232022e-01
-4.461898021368297662e-02 -8.876663188420441664e-02 4.641233489768116227e-01
-3.294849200573644193e-02 -1.157618182040519306e-01 5.163089909434239733e-01
-9.400452354148536999e-03 -1.099628624988299719e-01 4.759992745147573756e-01
-4.146820579536557305e-02 -1.114311340371604703e-01 5.444624918422845683e-01
-5.570576766816461717e-02 -1.092740051615178482e-01 5.207533116152568420e-01
-7.178908262810017316e-02 -6.188781230038386399e-02 4.444437270745629776e-01
-4.556788599096505896e-03 -1.248173506147962630e-01 5.147595532901382276e-01
-7.427131686166023317e-02 -7.231891295321102309e-02 4.476911083108457423e-01
-9.313610765999411067e-02 -9.532895767954877031e-02 4.978150620819277172e-01
-9.831594030077540902e-02 -8.253542091710144857e-02 4.746944030244437118e-01
-4.836006994967448347e-02 -8.282081671224561514e-02 4.583994945827831180e-01
-3.112474355868762033e-02 -1.165249460593342778e-01 5.269953131591793571e-01
-9.050129833910956420e-03 -1.233180795050374395e-01 5.111048515267715420e-01
-2.777937284547463484e-02 -1.139996178337045057e-01 4.985999739725266999e-01
-1.705291192808875908e-02 -1.147781462426820942e-01 4.885477496497377947e-01
-3.549157421766511306e-02 -1.132121104630360864e-01 5.045355711289419842e-01
-7.093209707482598173e-03 -1.095203522251038952e-01 4.750145349149862972e-01
7.856857514763586001e-03 -1.265137081117568563e-01 5.270523987353578077e-01
-9.050617740594743554e-02 -6.826613903888043011e-02 4.644508218273274980e-01
-1.741610263671830583e-02 -1.172050933034751025e-01 4.953250109406491797e-01
-3.750264256722791317e-02 -1.137065113484911766e-01 5.404894941854625490e-01
-5.076383832229696552e-02 -5.171421413215977758e-02 4.436756405603238251e-01
-2.804668213123220205e-02 -7.895322622341127694e-02 4.514615065129048976e-01
-2.220253229389713978e-02 -1.160698610591466423e-01 4.972292986061832010e-01
-5.644482203889711336e-02 -1.086356102520690120e-01 5.320649199134814822e-01
-9.310302860013325299e-02 -8.903414762635435131e-02 4.806537366069169037e-01
-9.377743466713596432e-02 -7.867865869652287958e-02 4.672177055864599193e-01
-5.744583715511847322e-02 -4.754036999991714113e-02 4.436951022919801702e-01
-9.881215913149175856e-02 -9.407121960650245696e-02 5.008054258322992558e-01
-1.396989237307107168e-02 -8.728979379815345052e-02 4.542032724675678090e-01
-6.399517435177831670e-02 -1.064158590137508492e-01 5.315150376141144495e-01
-1.536269757836718382e-02 -7.286407389360605169e-02 4.473249886287451460e-01
-1.011012265402256582e-01 -7.408527672586708024e-02 4.766540247489701732e-01
-3.924847140187173733e-02 -6.157387136388672855e-02 4.457431649729672873e-01
-5.431673292936636810e-02 -1.080740696886058338e-01 5.085427754338488482e-01
-7.039035880902876074e-02 -9.949649515498774910e-02 4.926338563789324221e-01
-4.233474765768153320e-02 -7.793501606963298967e-02 4.539301159073204639e-01
-1.849301970689155861e-02 -1.202869660163628507e-01 5.101875160222975047e-01
-4.304035505340045309e-02 -3.838315598661707490e-02 4.413528813673346374e-01
-2.871510871721549840e-02 -5.591209910404400241e-02 4.436640763737696447e-01
-8.879684411326672910e-03 -1.166363651345182773e-01 4.890136131783345830e-01
-1.071609098062057536e-02 -8.733276916403724666e-02 4.540213291173850196e-01
-6.301369146032403945e-02 -1.044993979645742893e-01 5.034569587961046366e-01
-2.330874552214388246e-02 -1.180669925005394943e-01 5.074474343469760340e-01
-4.538120090540249951e-02 -1.122797318705547887e-01 5.220145861025328182e-01
-3.450758240104066094e-02 -1.011423997755560023e-01 4.765026901863908537e-01
-4.640547391097184227e-03 -1.004992166496202211e-01 4.641105177585897468e-01
-4.309927617248472675e-02 -9.774852417243855285e-02 4.748826000433434835e-01
-9.516975252461450097e-02 -9.643434112869396502e-02 5.068330374262010052e-01
-7.235057303499972670e-02 -8.362620516812067917e-02 4.597948794509175152e-01
-1.082793654790576016e-01 -8.132692201780807040e-02 4.851365837277696325e-01
-8.374646132589878833e-02 -1.001691282614802642e-01 5.116297750258295141e-01
-6.912093338348465621e-02 -1.031407676659402278e-01 5.053104539268618023e-01
-7.477481225640380744e-03 -1.233018695893027955e-01 5.346314386442601041e-01
-6.750725133643381559e-02 -9.035233003177624289e-02 4.699275475743991959e-01
-5.637447763134714046e-02 -7.485625178209323605e-02 4.522995234668284459e-01
-4.267093682760579598e-02 -1.091125769326493217e-01 4.983541032792303538e-01
-4.816741151937695142e-02 -4.893619821464580827e-02 4.433782090021742284e-01
-1.778702466564109890e-03 -1.229131648572083790e-01 5.049105080340693386e-01
-6.218530865949448323e-03 -1.248710748163921608e-01 5.194437113172003517e-01
-5.141047043078467160e-02 -6.270235651405128841e-02 4.464955736861755398e-01
-1.873542986725613979e-02 -1.010980779872022173e-01 4.668797512295657648e-01
-2.905913548714284325e-02 -1.133110552279860961e-01 4.984714646216695244e-01
-9.891069156325257850e-02 -9.570899049880139675e-02 5.144163095272741293e-01
-3.321108248874819757e-02 -1.094198674889146627e-01 4.917478751133632642e-01
-1.100760273549853813e-01 -8.940683826788152488e-02 5.106986034330224244e-01
-1.383445253050253135e-02 -8.121746020223039042e-02 4.509352329324428088e-01
-1.570107251374971286e-02 -1.218360990921450865e-01 5.302477263261859974e-01
-7.644438517668110389e-02 -1.000618909783115990e-01 5.004614000443458055e-01
-5.123244437238660270e-02 -1.087714321801446504e-01 5.070403671856417160e-01
-7.964592596315255013e-02 -8.959787581685250968e-02 4.741523242244498060e-01
-6.427487448086038890e-02 -6.535208975321449287e-02 4.449389698512200564e-01
-4.881581143566383202e-02 -8.643638448209781111e-02 4.619017765628196659e-01
-3.249444806780899669e-02 -1.147897886348389906e-01 5.431994376513806788e-01
-7.805064873161496330e-02 -9.396070833226974339e-02 4.823612795114903262e-01
-6.894724687024809950e-02 -5.287906207326605046e-02 4.510232572665372475e-01
-1.151689741485539820e-02 -1.230739393958253380e-01 5.142060149933896929e-01
-4.010404365796243348e-02 -1.014882697497286046e-01 4.797770748531213214e-01
-7.880202377618142351e-02 -7.716650000712764468e-02 4.534690702656302697e-01
-4.223253167491766019e-02 -1.132176949188081067e-01 5.222731350905016612e-01
-3.273096588704968446e-02 -7.889735981985980529e-02 4.523426411232810418e-01
-2.506850368736544127e-02 -8.892985199470528068e-02 4.574944383920759861e-01
-6.928285415372026357e-02 -1.024171645189000390e-01 5.020426684712683274e-01
-7.285440695707316727e-02 -8.351717365904738621e-02 4.597247736520889694e-01
-1.712413099555228080e-02 -1.210245893979984277e-01 5.123352077260081572e-01
-7.603518540943783599e-02 -1.012675323179210995e-01 5.347394363716373444e-01
-6.001283715031666133e-02 -6.590200034846267763e-02 4.462064841631391277e-01
-9.276362978110676283e-02 -9.703542163483022676e-02 5.211163229606348146e-01
-3.305619066067170403e-02 -5.666696553433932942e-02 4.442441921607805932e-01
-6.868863630859921299e-02 -1.051387682614861874e-01 5.167445555647658395e-01
-4.841509964162914875e-02 -4.436666233466391579e-02 4.428197490043729867e-01
-4.343902460352752626e-02 -9.545569347229855561e-02 4.718276623529213398e-01
-2.102179037547806731e-02 -1.200317286788978588e-01 5.268314164322495108e-01
-6.620051496215549613e-02 -9.848812293235074955e-02 4.861571077030970578e-01
-6.179256616807572017e-02 -9.845135212198385943e-02 4.832212468614207612e-01
-5.760491654293927594e-02 -7.190452438283873038e-02 4.497125094968064674e-01
-5.646255590197686580e-02 -4.032928134325493297e-02 4.442839154425891057e-01
-2.851728248045202335e-02 -5.470985149906122669e-02 4.434263858253155166e-01
-4.211363656599616950e-02 -3.272833581170030148e-02 4.402204677255745491e-01
-4.715666866510324212e-02 -1.115864030319558275e-01 5.309631206358040867e-01
5.875569404559667641e-03 -1.264082712879434633e-01 5.320311062656402079e-01
-9.600452774402122927e-03 -1.239612008154391404e-01 5.261109544337866373e-01
-3.779733898834849309e-02 -1.128416026997230287e-01 5.060393997747122397e-01
-5.990844099852145332e-02 -1.077052704219485790e-01 5.320179959428242844e-01
-2.223755736607246208e-02 -1.089483733875457189e-01 4.806918680881376305e-01
-8.585736491686538074e-02 -7.657052315086028405e-02 4.586448049560302165e-01
-6.925280290644331149e-02 -9.971032238150991101e-02 4.923615286339471098e-01
-3.379525510871602551e-02 -7.802219440873871259e-02 4.521078259541158051e-01
-5.394393629266896334e-02 -1.009926896978736999e-01 4.859411764918710741e-01
-9.618813021819652698e-02 -9.573136215186706099e-02 5.224082168918103841e-01
-7.248425488364057534e-02 -5.653915555234785562e-02 4.486398092286598138e-01
-4.810453826705712865e-02 -1.073418363493785499e-01 4.979863522151546928e-01
-9.025349651020204977e-02 -8.407359409598209876e-02 4.707343980651547688e-01
-2.178607340175183274e-02 -1.171573895508989244e-01 5.467778087568155865e-01
-1.036093861471979183e-01 -8.026557942371213838e-02 4.794951597843654101e-01
-2.393388455260734085e-02 -1.188291731676237029e-01 5.138020886544102384e-01
-3.151658772958835369e-02 -1.164105244259030225e-01 5.263231357634255980e-01
-1.997568487103941817e-02 -7.614676960725427768e-02 4.490398237796387471e-01
-6.152365835476894529e-02 -1.050665705403502903e-01 5.040596509703730854e-01
-1.651858089101658489e-02 -9.481853963469150104e-02 4.604705400363049983e-01
-2.524872789855852478e-02 -9.457112926163001310e-02 4.627841261570501685e-01
-3.357292326035761498e-02 -3.240534562239644201e-02 4.406710604339383885e-01
-7.276500611673387964e-02 -8.050174738555343490e-02 4.549928822139501783e-01
-1.119848285076622818e-01 -7.963269464217828664e-02 4.968418557250028345e-01
-2.688030920370028387e-02 -3.705083430865756255e-02 4.417718468690142730e-01
-2.306613377148235278e-02 -8.799245814918553454e-02 4.559939474727438546e-01
-1.101207970720070595e-01 -8.930930155545928339e-02 5.108041742134570296e-01
-4.748478478452346219e-02 -5.115673002404220321e-02 4.438367904547132481e-01
-3.893881971850517848e-02 -8.672117895450959235e-02 4.605497438249265274e-01
-3.540289872999626865e-03 -1.256236132670804084e-01 5.224069586772714935e-01
-2.384313694352808641e-02 -8.643777986275361092e-02 4.548114674670924451e-01
-8.223481213969738302e-02 -7.841786085234285497e-02 4.578177203205440193e-01
-5.829200176018390495e-02 -1.021262751756349257e-01 4.912026166609735345e-01
-1.704183912928570327e-02 -1.147155064766100935e-01 4.883713954778775568e-01
-5.104680526786598699e-02 -1.106756094285651221e-01 5.245128264024009335e-01
-5.464963720229124022e-02 -3.923294648133961865e-02 4.436224880810807902e-01
-8.112356127035652217e-03 -1.171032526990255368e-01 4.899725573757165442e-01
-8.123950546245869986e-02 -9.765999787312321101e-02 4.951448847152775112e-01
-2.467094363858073763e-02 -1.155507523194460734e-01 4.988740412641988753e-01
-1.663554762066377438e-02 -1.211417640262482803e-01 5.119587031890741047e-01
-1.274363269653306860e-02 -1.229689416783961570e-01 5.271609576262930030e-01
-3.935205361029689430e-02 -1.140708291182871426e-01 5.255731408399980653e-01
-5.504407182055805897e-02 -1.047986926377767886e-01 4.965459194914843555e-01
-1.686851618108606635e-02 -1.190408923489931076e-01 5.007922467437433411e-01
-8.304248943734938992e-02 -7.375983025141931437e-02 4.532220725537414729e-01
-4.900438664603246758e-02 -1.109918238643892580e-01 5.191009747414506714e-01
-2.549397484372471420e-02 -1.049391097273534579e-01 4.764983475473888452e-01
-1.135315665723582723e-01 -8.177043515078180613e-02 5.005367204264890013e-01
-4.724534952417008826e-02 -9.886814369870269847e-02 4.781805899480648936e-01
-9.934030609761157482e-02 -9.448395022548819466e-02 5.042812855834550856e-01
-2.037008205033754085e-02 -4.840077964038026759e-02 4.418488366212282581e-01
-4.545827818337055959e-02 -7.563155366004051250e-02 4.529633511774498467e-01
-2.519661542700744189e-02 -1.132799125761722314e-01 4.927707438734056367e-01
-9.242925135910907974e-02 -8.992386228179115315e-02 4.817918454884072554e-01
-1.014886208016909791e-01 -9.354872142342493535e-02 5.036605885522716930e-01
-3.571050619631818690e-02 -1.129471238276268108e-01 5.038463829696477880e-01
-6.215709553127344439e-02 -1.042239160023087363e-01 5.013581251315614162e-01
-1.941374729213841271e-02 -9.611655830627226227e-02 4.620937029961260101e-01
-1.102901481454454796e-01 -8.741820400489332121e-02 4.994780567283403916e-01
-3.739581863869541334e-02 -3.625302204860733624e-02 4.411481223769367355e-01
-5.486789131015758214e-02 -2.336489148081032433e-02 4.462881579022429657e-01
-5.232223029832341193e-02 -8.666246727447939058e-02 4.623717972414139177e-01
-6.158586327761806506e-02 -6.228997219860747669e-02 4.444938988781799716e-01
-1.045868441595450005e-01 -9.290843027935864751e-02 5.070198086872123033e-01
-1.086995874482697966e-01 -9.111405334518123122e-02 5.150709826617343445e-01
-4.466154906578444911e-02 -1.103937648865394583e-01 5.054060572688922059e-01
-4.840567120682097435e-02 -1.113431180751700278e-01 5.209195778712369940e-01
-1.119462669961205359e-01 -8.574392420606131993e-02 5.061730006973156337e-01
2.268648792019688394e-03 -1.261500931872893971e-01 5.244010739625342143e-01
-4.231308427896112237e-03 -1.176306827621945716e-01 4.903156690588897915e-01
-1.609503875971762463e-02 -1.219228386779407508e-01 5.225870555966837250e-01
-2.153856232602439219e-02 -4.720885766410561762e-02 4.420187802058159754e-01
-1.474386612724892624e-02 -8.376884781484136844e-02 4.522962741571628364e-01
-4.494593686409725786e-02 -4.770887017125677310e-02 4.431398821170139390e-01
-7.675502840190336074e-02 -1.007060038155509346e-01 5.354582875363637084e-01
-9.003535222608190225e-02 -6.829027998976486269e-02 4.635056308111019652e-01
-3.742370631447525936e-02 -9.588168639161809281e-02 4.707964284687239931e-01
-7.823635083596325313e-02 -6.328526565241328339e-02 4.474344616044856338e-01
-7.844548332570598637e-02 -1.019490589693816535e-01 5.266231957464292401e-01
-5.877760790237795963e-02 -7.045988886815572616e-02 4.485919677109967418e-01
-2.706815220186137121e-04 -1.183566900668740762e-01 4.921990013305949652e-01
-3.709849372909879844e-02 -1.047035375294041726e-01 4.838352287329082957e-01
-1.940279038332462860e-02 -5.476136679851883321e-02 4.423282821389571406e-01
-5.001079898840549848e-02 -5.261522419034740661e-02 4.438998343583708817e-01
-3.088473705149757595e-02 -1.000549064520011161e-01 4.724713667930138250e-01
-6.990155035818171325e-02 -1.045682265616041662e-01 5.303160194016900419e-01
-7.738935988059436610e-02 -8.853721654737449487e-02 4.712798994042534106e-01
-8.223445406043174144e-03 -9.679990247514358437e-02 4.612372381355721029e-01
-8.261013153009048871e-02 -9.985731849109664993e-02 5.278964006915249918e-01
-6.474543984082108128e-02 -9.521670330416229233e-02 4.775834983762273223e-01
-3.678011942795612887e-02 -1.148366951114985490e-01 5.237293988281722656e-01
-6.837244031200906402e-02 -6.657499545694182952e-02 4.446918939151938699e-01
-8.860072254314003970e-03 -9.924648212399637959e-02 4.634251211608128029e-01
-9.729092173845625344e-03 -1.001353517999759718e-01 4.644110994869238285e-01
-6.128628650403710604e-03 -1.146705867646556631e-01 4.838606288849693904e-01
-7.065202484403171335e-02 -7.022141602376687219e-02 4.460669098366675245e-01
-1.177350518426335813e-02 -1.226712129567106568e-01 5.113735191952590853e-01
-9.865388284798239094e-02 -9.462870410260425247e-02 5.035588333303920860e-01
-5.836575173048515197e-02 -1.069877099264858605e-01 5.378435792488542866e-01
-3.745098554202203750e-02 -1.140828795215378666e-01 5.138260893442606614e-01
-8.418170672708792657e-02 -1.002742794411503047e-01 5.166944202891501359e-01
-7.839825489746486686e-02 -6.777660551258811450e-02 4.468184019527015605e-01
-1.948507412503745762e-02 -1.159656381643528050e-01 4.935706469181661560e-01
2.247808416073486006e-03 -1.261355563888909570e-01 5.242705176871038653e-01
-2.802277800227206267e-02 -6.680203936763728922e-02 4.462835839375661751e-01
-1.069353065233488859e-01 -9.152639845786766926e-02 5.176749918949609119e-01
-2.087020962519804332e-02 -1.187538873339749751e-01 5.409851067974060790e-01
-4.657592153032711832e-03 -9.905418507661624405e-02 4.626823315248613233e-01
-7.441041031348910595e-02 -9.025335221767996630e-02 4.729009779402625901e-01
