-6.888564345858905202e-02 -5.647607215356316435e-02 4.464024126638884149e-01
-1.148624457656717383e-02 -7.677615617269620274e-02 4.491667474468113985e-01
-8.661568050014581410e-02 -9.727658086512219748e-02 5.284200402401942886e-01
-5.826032074923208348e-03 -8.186881017538655270e-02 4.508175869933709889e-01
-1.096479937938553417e-02 -1.221903549286302154e-01 5.362847173797614664e-01
-6.465073374270821627e-02 -9.734737739502721809e-02 4.860530564112557350e-01
-1.026118242599136504e-01 -8.093797025904143905e-02 4.806721274480829087e-01
-2.791527811410852641e-02 -6.448342264928416667e-02 4.462638291603720497e-01
-7.347560620276195886e-02 -9.489031416099094618e-02 4.860020516691813119e-01
-8.025348485604846815e-02 -8.472414349960398494e-02 4.706282149820104066e-01
-3.456454836472680481e-02 -1.145732391423157220e-01 5.390179880646078781e-01
-1.065261650243306268e-01 -9.085934342526566510e-02 5.112477704267871514e-01
-4.489791682496720865e-02 -7.525331390710708612e-02 4.542410434168027145e-01
-1.686905834113936603e-02 -1.211414884803394959e-01 5.134164775382925594e-01
-3.399895156887126207e-02 -1.153973897467092252e-01 5.272379757328115035e-01
-4.537304216479658148e-02 -8.005626945703320230e-02 4.577026303847430699e-01
-5.712367529266922789e-02 -1.012611502504712491e-01 4.913670117920335700e-01
-9.285175161264898336e-02 -8.027515275371996384e-02 4.715698769686271774e-01
-4.266556517346566796e-02 -1.127402074973649915e-01 5.285205301677242673e-01
-9.019289806218193373e-02 -7.393997768566930306e-02 4.634938980734637504e-01
-2.884779730102099080e-02 -1.009685305864174848e-01 4.733305842258523355e-01
-3.401577375024018857e-02 -1.152897849621524196e-01 5.313501129569860870e-01
-1.035867268743839581e-01 -7.241439927806070376e-02 4.814495976925288745e-01
-5.165743241399973346e-02 -4.177609253424886815e-02 4.438441771652521517e-01
4.251747832071097952e-03 -1.262460038090434944e-01 5.317524938600669548e-01
-8.683923724792493026e-03 -1.231844133276265990e-01 5.338189594184865605e-01
-9.298502391913307519e-02 -7.179456330719274915e-02 4.662725608905035624e-01
-4.697297217016294102e-02 -1.114606050177530394e-01 5.286417959581274362e-01
-5.504946207092091537e-02 -2.164910775360905093e-02 4.483050667221891161e-01
-4.851019741578092848e-02 -1.020648945770500221e-01 4.878529087727403457e-01
-8.625997413142508230e-02 -9.789257432322930053e-02 5.268095418060265711e-01
-7.394691036447022248e-02 -1.004669666841815773e-01 5.046265185423287614e-01
-2.128122005797715086e-02 -5.540061687691790610e-02 4.430895290310540857e-01
-7.170436146416080125e-02 -8.309892198033866362e-02 4.636400429935734757e-01
-1.990605534079525202e-02 -9.965976286835960540e-02 4.664467044730389866e-01
-7.625725952839637611e-02 -5.672406411721855196e-02 4.488167403074722062e-01
-6.057760599425268677e-02 -1.034834242440882679e-01 5.006406868577043534e-01
-7.850077763407654896e-02 -1.003562395886090364e-01 5.105367207506235072e-01
-5.365635705477211220e-02 -1.051627677292514274e-01 4.992157856014129980e-01
-3.218844157041418630e-02 -7.590028457490628766e-02 4.515807179348282907e-01
-8.984956277914121769e-02 -9.486321734079825041e-02 5.319882964468974906e-01
-3.584197791893654200e-02 -3.107402280364875147e-02 4.405548318170151578e-01
-3.697696322508964989e-02 -1.065279279671868390e-01 4.888549309843765456e-01
-8.810620373537654537e-02 -9.661517156331474177e-02 5.285121920339576063e-01
-9.272393728112993810e-03 -1.128813071991553313e-01 4.815272630450660452e-01
-9.598065266076480362e-02 -9.493844909315717062e-02 5.092054060204151966e-01
-6.559944590958605160e-02 -8.031205905584622162e-02 4.592664326840648070e-01
-5.690189183671037071e-02 -5.396520293831525567e-02 4.450866019603664236e-01
-3.824217877876868316e-02 -9.983336294936588640e-02 4.777629442252319114e-01
-4.640127157803275448e-02 -7.499370134637603491e-02 4.544259066770647837e-01
-7.618137685817337468e-02 -9.018483289121061175e-02 4.779124618345063635e-01
-1.047004168319896900e-01 -9.177878011049450668e-02 5.133073786194999322e-01
-1.416832590463886626e-02 -1.136813081974944184e-01 4.846716878382672511e-01
-1.903166819001793006e-02 -1.183985549260505449e-01 5.018089516111108317e-01
-1.046967870616816176e-01 -7.039324083282154365e-02 4.886454378709475521e-01
-7.704481790557403398e-02 -9.320298401822477152e-02 4.847000041934168557e-01
-2.480634520764163006e-02 -1.058348116058663718e-01 4.779094045318513784e-01
-2.984575246569200202e-02 -3.335408832241721494e-02 4.414253889220664528e-01
-1.057779061636649268e-02 -1.225777873462931267e-01 5.340481212368415331e-01
-9.377215029107675848e-02 -9.556996552692775815e-02 5.087083220998886990e-01
-6.556843092242890803e-02 -9.867209583265651451e-02 4.905301124519793055e-01
-1.090692598119258616e-01 -7.777349554766295470e-02 4.874455144154687392e-01
-2.802772548837962133e-02 -5.613234704612499876e-02 4.441859811762002286e-01
-9.572973876443112429e-02 -8.564891087830901750e-02 4.811839347847297055e-01
-5.604474079860274210e-02 -3.472034283966550505e-02 4.450150514183464634e-01
-1.599501468468994200e-02 -1.200148612644492407e-01 5.047253150460131454e-01
-5.653021308974302134e-02 -9.727709944665351161e-02 4.815515615403439531e-01
-1.519160231712756055e-02 -1.170152857777154720e-01 4.940365568173252231e-01
-3.512682817399576801e-02 -1.150540195932507337e-01 5.254304966987758396e-01
-3.822056680697218795e-02 -7.589283040533445490e-02 4.529238117264950958e-01
-5.475088242444145492e-02 -1.087966291505981647e-01 5.320990143840923503e-01
-3.746623577930772997e-02 -7.522229364188691425e-02 4.523632975220714392e-01
-2.611018893945738634e-02 -1.021455745404171583e-01 4.730900800928843908e-01
-7.698257296174232378e-02 -9.904529564888171767e-02 5.026536612854924924e-01
-2.356839935279893966e-02 -1.190050953937510231e-01 5.262364649818679352e-01
-2.057780431974939178e-02 -1.202134141193904326e-01 5.247911016846744658e-01
-1.455238345030092362e-02 -1.223743884884564009e-01 5.179196145875866186e-01
-5.712967925296674049e-02 -9.240652675340856048e-02 4.728512374543134555e-01
-1.020510295844326148e-01 -8.372614499808106459e-02 4.831998053403041005e-01
-7.797465078891059609e-02 -1.012348563076284069e-01 5.157878871428659417e-01
-1.736059630255772784e-02 -1.170321290953017651e-01 4.955650038640508348e-01
-5.107718964748206303e-02 -5.246055851261995084e-02 4.450577710669094134e-01
-5.861853060969347828e-02 -6.956120681634089808e-02 4.510747441155879001e-01
-5.642475806315440379e-02 -1.085365118994720685e-01 5.228287948444120259e-01
-6.501962970758624893e-02 -5.444883962547051454e-02 4.452848494692774328e-01
-4.120992997990290119e-02 -1.079892727004105740e-01 4.959171788566515415e-01
-9.990577803361801179e-02 -8.155403288657533944e-02 4.786604926567262219e-01
-7.313301390387300094e-02 -9.789744400087854737e-02 4.946869044589438102e-01
-1.079270472397491770e-01 -8.724910130561615296e-02 4.989489793243822024e-01
-8.228774918149522888e-02 -6.007730785711041382e-02 4.541400225387867695e-01
-2.746561084226381566e-02 -1.019334603796833161e-01 4.737900528680720202e-01
-5.660139598766888991e-02 -1.084996026368360289e-01 5.234879789018840324e-01
-6.925062966882533644e-02 -9.286630765269467125e-02 4.791993781602336133e-01
-9.074378709865307813e-02 -6.565045471664732180e-02 4.651595526187593532e-01
-6.335816351272104130e-02 -1.048813544142333382e-01 5.108138338597142392e-01
-3.632434016699223611e-02 -1.075383902861464236e-01 4.907485312670173960e-01
-6.383484437640055131e-02 -1.044311375450918261e-01 5.090182231008670843e-01
-3.737967933895661871e-02 -6.337482951441608670e-02 4.469651484621489090e-01
-4.994286983541235125e-02 -8.466823288930785951e-02 4.624788200556402273e-01
-9.391724848006099968e-02 -9.406803125205723259e-02 5.012503139964323839e-01
-8.278682147840946137e-02 -8.852245414737806850e-02 4.783338758751116693e-01
-1.059020946233436844e-01 -8.834215500214781525e-02 4.981168634400339190e-01
-5.541149197489215333e-02 -7.905393096320097179e-02 4.582193183688196836e-01
-9.316999350180635298e-02 -7.032416902139103365e-02 4.664887666585982307e-01
-9.874394087760310357e-02 -8.710530862447012079e-02 4.863118884373957007e-01
-3.372174197857948086e-02 -1.151595338907681343e-01 5.154630449585004826e-01
-9.984751311061716705e-02 -6.743008946572254247e-02 4.830619722669547977e-01
-6.815747954350867555e-02 -4.991072718138514497e-02 4.501715401343265865e-01
-8.191852906926681832e-02 -5.779535004651412816e-02 4.582297803099040778e-01
-5.800609054170689088e-02 -8.740157761360613231e-02 4.664296236441424770e-01
-6.058268865880758053e-02 -4.859140067987795242e-02 4.448302475778331821e-01
-2.817463072260452742e-02 -9.286588165392867245e-02 4.634481091086762317e-01
-3.085101222603470195e-02 -1.119728486594630118e-01 4.976193760985261338e-01
-8.818851170049932242e-02 -9.641270810924977563e-02 5.041343526708141898e-01
-3.831950200153929481e-02 -3.235228237484987640e-02 4.407132054045981295e-01
-8.052979443338491305e-02 -8.427521110998152654e-02 4.700481023511840495e-01
-1.127968900861561763e-01 -8.154402355736380115e-02 5.012318082875841796e-01
-3.882117212388755401e-02 -6.453954470938788601e-02 4.475353201046213258e-01
-2.986256043411759931e-02 -1.166891068950180049e-01 5.170904975579835305e-01
-2.759609193002506358e-02 -4.221463058317363043e-02 4.428057922678201863e-01
-6.028118130583797613e-02 -8.079200460865655631e-02 4.593685728242669630e-01
-8.857418611668076147e-02 -8.436697803253023764e-02 4.744881931996688951e-01
-3.578102506537499811e-02 -1.059236954169813089e-01 4.867331501605189903e-01
-6.686622727048760484e-02 -1.049321849600445972e-01 5.179687537049468826e-01
-4.121699751783160920e-02 -8.045766796296745238e-02 4.569936982755276045e-01
-5.626100227133261182e-03 -1.064888853833541177e-01 4.711207383847824670e-01
-9.435318705204873146e-02 -9.293965741230973687e-02 4.969637426076665143e-01
-1.918629511721496594e-02 -6.636340289931461078e-02 4.456046887735553574e-01
-6.719131015086479697e-02 -8.140246393353707532e-02 4.602182153872900749e-01
-4.835313736369282328e-03 -1.170847265356315531e-01 4.898427816585319006e-01
-5.563463074633943906e-02 -2.642656192440212201e-02 4.479893894275405186e-01
-1.516091007167354524e-02 -1.170429586034028024e-01 4.940885440319974231e-01
-4.334510423149683794e-02 -1.105457004352518174e-01 5.067304910529362161e-01
-4.286985637624139700e-02 -1.126776713850894396e-01 5.284223762639573829e-01
-8.294772888139981259e-02 -9.963631038884415703e-02 5.173356135908848685e-01
-7.043433279959113169e-02 -6.941334209359706353e-02 4.498602533633371814e-01
-2.426282959516127408e-02 -9.899930667854177357e-02 4.674504258608122020e-01
-5.825783549172118547e-02 -1.052208431015596302e-01 5.045711163014499068e-01
-4.608332487395357113e-02 -8.825596901797951033e-02 4.657746507035732120e-01
-6.734203494199185458e-02 -1.005051749381151993e-01 4.976594274434983367e-01
-8.657787504579322890e-02 -7.128414214333779475e-02 4.583832816499417429e-01
-4.194934728463515367e-02 -4.914282371750049172e-02 4.441832908555643500e-01
-2.216426915706206160e-02 -1.196550159708014427e-01 5.186960900515706907e-01
-1.820419918752298402e-02 -9.085282484786279256e-02 4.579859946947444915e-01
-6.282980649878826263e-02 -1.057691371304481792e-01 5.354745169247869807e-01
6.121928186632999425e-03 -1.263863502393891836e-01 5.262138746746253259e-01
-7.286848287644362605e-04 -1.184284234124028667e-01 4.930827610319986620e-01
-4.109549671812281341e-02 -1.101159501531884383e-01 5.018704356169195746e-01
-1.099587348849334761e-01 -8.517118573191477526e-02 4.973842242108452161e-01
-2.710250202392025867e-02 -9.635742589741175257e-02 4.661242640627150657e-01
-6.399815600333762233e-02 -1.063277991914911014e-01 5.248734253431630581e-01
-7.277884606854266580e-02 -1.033581856258817266e-01 5.247308640606784813e-01
-5.826801771001983293e-02 -1.062983578756806907e-01 5.394127896258886778e-01
-1.122580051029502674e-01 -7.508976679881153304e-02 5.016960377360630829e-01
-5.179023937811306350e-02 -8.780961105226933738e-02 4.661282521393849687e-01
-5.780518216456674747e-03 -1.248748425413718499e-01 5.286355050362941954e-01
-2.575982373040941811e-02 -1.178520786538496817e-01 5.340511752974088644e-01
-9.579088534413733591e-02 -7.538711522898404460e-02 4.701083759060037948e-01
-4.528227794479117163e-02 -1.115059214906432700e-01 5.350512985417668066e-01
-2.872643524886207486e-02 -7.066762341191283603e-02 4.484654685038582667e-01
-1.551869884609174965e-02 -1.204526744331853028e-01 5.406094339686062789e-01
-6.511257833519913663e-02 -1.024261260394513096e-01 5.020130551489629944e-01
-3.909003510322613117e-02 -1.131776149137178888e-01 5.140093858994972953e-01
-5.735613224569022228e-02 -1.067359048930118931e-01 5.387144303682223079e-01
-2.164579680878263301e-02 -5.627639607224049767e-02 4.433011377838989575e-01
-3.342401492326705498e-02 -1.132201604148512231e-01 5.035625046015289596e-01
-4.159340232203989629e-02 -1.130604313821939738e-01 5.260732793787697981e-01
-9.438738733732006392e-02 -7.063765323334653123e-02 4.675080053395151980e-01
-2.527491382605188616e-02 -1.155644355246473326e-01 5.006828016381065227e-01
-1.370481622071961260e-02 -1.106393997396376838e-01 4.787969723956003176e-01
-5.224603647334617740e-03 -1.194498028555137925e-01 4.957107058726263338e-01
-4.224165501487139179e-02 -4.051527161280982919e-02 4.423881159817456554e-01
-1.114356057506844244e-01 -8.468288940476884075e-02 5.017378220482554552e-01
-5.823501343786585682e-02 -7.038629549078770364e-02 4.516942228449188912e-01
-5.260397793125677623e-02 -5.260270878566438574e-02 4.450410801772023972e-01
-7.835853622758125192e-02 -1.013021073751054490e-01 5.265839122917114201e-01
-7.387023303140968777e-02 -1.029742738621398090e-01 5.213186742937430118e-01
-2.415543179748035063e-02 -8.602489488587922173e-02 4.552863189993721638e-01
-6.067750895838345399e-02 -1.061651231171580057e-01 5.370861539730341638e-01
-7.643736647121524702e-03 -1.233490641742178984e-01 5.343450325727708838e-01
-3.711465953499801934e-02 -6.089956444282706993e-02 4.462666640700662102e-01
-2.189049815672986996e-02 -1.190459676862783978e-01 5.109869092241609012e-01
-5.788502293431910944e-02 -5.307997705412714762e-02 4.447999463468496617e-01
-4.837416875854638754e-02 -1.047173154153083763e-01 4.938320638658163508e-01
-4.535166749869214142e-02 -3.928793933855785625e-02 4.424202248232783630e-01
-7.324382447977348387e-02 -6.346414787047961747e-02 4.467439866972275353e-01
-1.692042468962245624e-02 -1.131329264247631500e-01 4.847643144352982159e-01
-1.032129219933128894e-01 -9.256766541224101252e-02 5.159356383131883383e-01
-9.260157636940981318e-02 -9.418609072517609981e-02 4.998137138514772149e-01
-1.844814354769190243e-02 -1.179393763942527956e-01 4.994781584271517083e-01
-3.989898062157598568e-02 -1.099780316674549147e-01 5.002223915923323938e-01
-5.749957300486337880e-02 -1.063101744038489477e-01 5.401195326084655690e-01
-1.106502843804919450e-01 -7.713942262112739867e-02 4.923503777049303420e-01
-9.003027088690106206e-02 -9.723391879501552815e-02 5.201750963738789313e-01
-1.123244495549860639e-01 -7.730893272220150381e-02 4.990863656458006670e-01
-6.813529887688524189e-02 -6.758278545262075276e-02 4.486733113724917232e-01
-1.090610912374655010e-02 -1.212938998054592099e-01 5.044312157664396779e-01
-1.962975375676856427e-02 -1.135866202287184740e-01 4.882388716705235998e-01
-8.350972326200431159e-03 -1.202126211557509178e-01 4.988445352071868011e-01
-3.432866591077005786e-02 -8.626656711096142294e-02 4.600576324210343127e-01
-8.888798305914673292e-02 -9.426095411503022936e-02 5.351989425242613674e-01
-9.193262628751559806e-02 -8.252067884474645343e-02 4.738918274140642151e-01
-2.573616238207437901e-02 -4.809959558390482920e-02 4.429665858576613546e-01
-5.025805524723889195e-02 -8.262177308544728371e-02 4.606291727280857895e-01
-3.840000818155490936e-02 -1.130666946203246342e-01 5.418988619541244001e-01
-5.734363223441806684e-02 -7.053611616363167358e-02 4.518994645350979944e-01
-1.957063086289875450e-02 -1.188142260657105848e-01 5.048792270418412942e-01
-1.858410611177578262e-02 -1.177541538856728964e-01 5.484388703460837400e-01
-6.915474801065472216e-03 -8.575870015930978085e-02 4.531912181266311568e-01
-3.839965688640809005e-02 -4.102163093598999027e-02 4.426940064863430502e-01
-8.378415777036082868e-02 -6.482688898433218438e-02 4.529516571427706362e-01
-6.828799486673384211e-02 -6.345458505390567938e-02 4.466939226344021630e-01
-5.118615975133591900e-02 -9.761320598439465757e-02 4.797943254206102903e-01
-5.619668297712800825e-02 -5.402927261894297645e-02 4.451699504264201024e-01
-8.538946118524450013e-02 -9.779183340811570258e-02 5.075883068673540111e-01
-4.838191732786838867e-02 -1.099384044571321412e-01 5.132090376369595752e-01
-9.252764134123261930e-02 -8.820771279755990069e-02 4.834047234955934358e-01
-2.223522895557859813e-02 -1.143047766006224236e-01 4.924318182783949394e-01
-9.108998405440196788e-02 -9.533197289046142775e-02 5.285891993892586349e-01
-1.913209880595070911e-02 -5.335911293035292685e-02 4.422879196411229619e-01
-1.094356264804645651e-01 -8.881489905178772959e-02 5.082723800847098738e-01
-9.757104656729373438e-02 -7.832607237230718167e-02 4.744096568915648904e-01
-6.896486179056759980e-02 -5.500166093128280864e-02 4.466326619000569043e-01
-3.774767470974291911e-02 -1.074641009678871245e-01 4.916674998916524264e-01
-2.738435142968815086e-02 -1.088961697557801339e-01 4.863975999967860564e-01
-9.007631881980036892e-02 -7.527064388603836587e-02 4.645491709791916279e-01
-4.221100547053241447e-02 -1.124529625711421094e-01 5.362373468383763164e-01
-1.084990628350868680e-01 -8.366662526978731196e-02 4.899332030379750513e-01
-1.719607266886461969e-02 -5.599438524084261737e-02 4.423013690752726212e-01
-1.012893895271657629e-01 -9.198115133262793619e-02 5.042899736229167207e-01
-8.582755444474338483e-03 -7.797321241693501437e-02 4.494206181112025966e-01
-7.127802173361395821e-02 -1.020812540246624767e-01 5.086670220403474163e-01
-6.087786283385410169e-02 -1.063133246492403566e-01 5.360670574811005062e-01
-1.324066881809188648e-02 -8.823477922524516903e-02 4.554295348783781727e-01
-9.042435094055874256e-02 -6.689874060016651192e-02 4.632865457241134299e-01
-5.435221942011096014e-02 -4.887085340120555371e-02 4.444570190052228864e-01
-2.058943168354713388e-02 -7.260268807536933433e-02 4.481625839655412613e-01
-2.626337923857688383e-02 -6.242912144249411488e-02 4.454445184769907362e-01
-1.658715240034759272e-02 -1.212940416625742229e-01 5.329159582548224083e-01
-3.148508610724325835e-02 -1.143922891024164723e-01 5.456013582296150854e-01
-3.815260802636526866e-02 -5.091547547149546937e-02 4.442289885534554394e-01
-7.593622049548075237e-02 -8.601648890479435261e-02 4.705491890676231082e-01
-1.023394208406048084e-01 -7.911504040927100356e-02 4.781961087988599868e-01
-6.550942222694769446e-03 -1.237865110351475118e-01 5.103899448971068731e-01
-4.894619328883564879e-02 -1.087858993492861054e-01 5.068587697108303258e-01
-3.142595520120652214e-02 -4.530089135403193162e-02 4.433338618937416875e-01
-1.519189049232227626e-02 -1.221782759325268780e-01 5.206527322337756170e-01
-4.700595165491388422e-02 -3.292066830432383018e-02 4.412791387484759631e-01
-1.381176344086785211e-02 -1.186237281176848873e-01 4.973166109776582244e-01
-9.777125671030309495e-02 -7.335961855471385962e-02 4.718591685540204916e-01
-3.620032306606670025e-02 -3.536247099454063736e-02 4.415833689720487509e-01
-5.928639295152000888e-02 -1.075472101271682801e-01 5.204559435158905289e-01
-3.653155516223664107e-02 -1.127535292612150547e-01 5.461703776726003490e-01
-2.280681627766800029e-02 -1.176003916357549195e-01 5.433211569503134664e-01
-5.936101677803450744e-02 -1.074772891330088298e-01 5.313892526231752678e-01
-5.698442448114211800e-02 -1.083683873130353303e-01 5.297314226607332532e-01
-1.009217018408371247e-01 -8.803099942260307620e-02 4.902008247056829915e-01
-1.000002321897455054e-01 -9.224183404291337596e-02 5.029303436231163937e-01
-7.585613884114018705e-03 -1.197554005192806997e-01 4.973060728532943675e-01
-1.923996004671160720e-02 -1.005305152701364696e-01 4.671119582921492430e-01
-5.642256946414062058e-02 -8.888316421458278271e-02 4.679930684732094281e-01
-2.995784243821776605e-02 -7.585665721194852218e-02 4.510979838239703721e-01
-4.663534793880536045e-02 -7.774914092445384117e-02 4.564376356612689922e-01
-8.145312733833787178e-03 -8.676195569994356316e-02 4.538979543864458122e-01
-5.481564230166598162e-02 -4.452247525547445295e-02 4.444308849383852844e-01
-7.622308108440041530e-02 -9.404711255081406318e-02 4.862311747094663072e-01
-4.724520114566619494e-02 -9.056506058302078721e-02 4.686246531424314021e-01
-8.533973731119891271e-02 -9.687116070191757744e-02 5.330830381845778065e-01
-2.842129054227997189e-03 -1.183002120930957274e-01 4.928098983344711415e-01
-1.097265684783264167e-01 -7.764210867412350836e-02 4.892710249277994472e-01
-4.427959005702587075e-02 -1.122503645154453861e-01 5.284372725819619365e-01
-6.579524814421178203e-02 -1.047673187047658827e-01 5.144961348233448861e-01
-1.077546818519663913e-01 -9.034784052207280036e-02 5.124257756651561246e-01
-1.389148363733413993e-02 -1.226560155422511678e-01 5.224140185025455407e-01
-3.938730308165062227e-02 -7.560348973420062679e-02 4.530519180231087906e-01
-1.005184411941610345e-01 -7.948034006714010946e-02 4.768384194059144265e-01
-8.979343203845996380e-02 -6.241222965065483519e-02 4.678416905157462002e-01
-4.705005041660267895e-02 -9.418118234837341562e-02 4.729292346258964219e-01
-3.005047513199694126e-02 -1.167233011335989668e-01 5.195590883227020340e-01
-5.498082119952007324e-02 -1.068579486030655223e-01 5.068494075258654918e-01
-2.245812632509183379e-02 -1.194392975326396961e-01 5.260035262105386966e-01
-8.380878922171315637e-02 -8.021550913086268608e-02 4.658091042672077853e-01
-1.087242139534128904e-01 -8.554710075175547823e-02 4.957163426076987012e-01
-8.554639763681634590e-02 -6.232478397123365071e-02 4.572550416070351176e-01
-5.757128428413592347e-02 -1.075605471903582494e-01 5.166483270073660705e-01
-5.952492952207922433e-02 -1.076344157937898088e-01 5.233769246114395868e-01
-6.771673536260026938e-02 -6.742273431882922496e-02 4.485860371362004884e-01
-5.597549162395715205e-02 -8.733973324415603146e-02 4.661267741539359410e-01
-2.092806094366150838e-02 -1.199297554260447540e-01 5.288553804150040172e-01
-1.389940622885684277e-02 -8.094332600782035148e-02 4.513390340765798814e-01
-5.660186458896587086e-02 -6.074015834718170248e-02 4.473321964500173165e-01
-1.576009263982758660e-02 -9.463718294796566455e-02 4.609170230831011184e-01
-8.094118857561946601e-02 -1.004034501697300963e-01 5.183040931138237495e-01
-6.730614188669287179e-02 -1.045229278682413138e-01 5.159850024858838591e-01
-3.675086207479016931e-02 -7.179353764887176637e-02 4.506062126428013181e-01
-5.519974171581527173e-02 -2.256251835482868395e-02 4.498991132824717298e-01
-2.077450692967806184e-02 -1.156899367752125540e-01 4.947978617043541916e-01
-9.230663797206992149e-02 -9.512121786417689073e-02 5.276059895665714539e-01
-8.659976592525128747e-02 -9.842242709096828135e-02 5.180337501511029785e-01
-4.686667649198025809e-02 -7.600578856656832472e-02 4.552696656127805941e-01
-6.300083000401650313e-02 -1.065361284737638414e-01 5.298092166786446677e-01
-4.914269417756928632e-02 -4.664688025461923016e-02 4.440677353907190317e-01
-3.120779663319142236e-02 -5.992793809715962761e-02 4.453457820583031634e-01
-6.483747982665770404e-02 -9.910954911005838419e-02 4.911781582338395902e-01
-7.584211239331832555e-02 -6.601909823980095515e-02 4.476409211995162063e-01
-6.305191188739710240e-02 -4.801122302529760993e-02 4.464006123822413796e-01
-6.986025270900984852e-02 -7.367353897402703633e-02 4.531210116801207555e-01
-7.966800610393642845e-02 -7.827590014569751897e-02 4.599969558390433755e-01
-4.920405801927396627e-02 -5.089558458295809912e-02 4.447894594569662963e-01
-7.247574563725536767e-02 -1.026448649757393805e-01 5.329170098072919526e-01
-7.666359634272089385e-02 -7.683567892115446274e-02 4.562675910029773685e-01
-1.090871000754953524e-01 -7.703314178162828929e-02 4.874935115875660419e-01
-5.309230303825408087e-02 -1.096205525192466834e-01 5.264038661013681342e-01
-2.979039749831741482e-02 -9.596829539945642140e-02 4.674161611261039018e-01
-1.087291972130201810e-02 -1.126796549367684863e-01 4.814810120407396199e-01
-1.493630028414982304e-02 -1.219371521600632891e-01 5.322960772374766281e-01
-1.015660296533801507e-02 -9.290175127905551944e-02 4.586450867603198422e-01
-7.708084357908681628e-02 -1.010657809244249056e-01 5.120720852276264834e-01
-7.987813543671720695e-02 -1.008038137770006365e-01 5.219560506718864401e-01
-2.696747004521903024e-02 -1.096917541621854619e-01 4.874516508109634216e-01
-9.850558889520962674e-03 -8.365086437866865732e-02 4.523388531719269579e-01
-6.709288476576420746e-02 -9.600981808941039253e-02 4.841096980737426558e-01
-8.876324229054764758e-02 -9.772322946281908340e-02 5.184967336370297497e-01
-4.540181734928910168e-02 -4.335549349413670567e-02 4.432563436075389607e-01
-5.344148589219950563e-02 -2.042524904329975563e-02 4.423603601281927977e-01
-7.520742633830422574e-02 -9.448412885423015939e-02 4.864324338432158834e-01
-1.012744629571362895e-02 -1.155160673385928205e-01 4.875069416839760139e-01
-2.352810561612224405e-02 -4.080703772131911294e-02 4.422228071939801608e-01
-1.008418980754065691e-01 -6.797166355919352643e-02 4.842456756303880616e-01
-5.550026903819588187e-02 -1.027715634023728120e-01 4.944006215729130904e-01
-1.785779817891627527e-02 -1.191724110620194510e-01 5.436077527724468839e-01
-3.640765712046110936e-02 -8.519319478633016751e-02 4.599045923433481842e-01
-6.537118349617426771e-02 -1.058781427562701521e-01 5.240931541769949797e-01
-2.059770181323596072e-02 -8.035493679882603490e-02 4.516042336176156469e-01
-2.753921324116284999e-02 -1.097025139555308226e-01 4.880572713675056518e-01
-8.665457225312141187e-02 -9.225031770294796207e-02 4.883760066141866196e-01
-5.844871070229384208e-02 -1.074109298048678135e-01 5.339596260747713208e-01
-9.397984254487815048e-02 -6.686177769238238477e-02 4.699909401471961123e-01
-7.239817779947411991e-02 -9.584204384543357214e-02 4.874055346645776998e-01
-5.020902256370832206e-02 -5.032585578228535722e-02 4.446407230939379840e-01
-3.742440905596268463e-02 -4.198582365933983124e-02 4.429169407265549641e-01
-8.201688168585823113e-02 -6.018548542148699498e-02 4.534288866942872143e-01
-7.375836402941858549e-02 -9.827030557018082146e-02 4.965135447798868507e-01
-1.166408883931894722e-02 -8.314588956979497569e-02 4.523511998863464223e-01
-3.104271676153323722e-02 -1.134059580795654665e-01 5.016472159189255819e-01
-5.768317145726216399e-02 -7.663505974016282529e-02 4.564745587942609650e-01
-5.917032185313669812e-02 -9.106385896434053551e-02 4.715754976140303922e-01
-5.900205692586465295e-02 -6.077844110781095016e-02 4.470251685189315372e-01
-6.695583703309654355e-02 -8.786500424908000317e-02 4.694977643052493654e-01
-4.277627239379711704e-02 -1.105692802011590259e-01 5.060457960432215296e-01
-2.674591299735048361e-02 -1.145324706656007663e-01 4.992634453683482687e-01
-6.151151919367375299e-03 -8.429972420865815275e-02 4.522655005629515057e-01
-7.813194318114868864e-02 -6.313632077671024745e-02 4.477560846971599395e-01
-4.829112655384340536e-02 -1.084964878324793935e-01 5.049253705262322089e-01
-9.298533713097831277e-02 -9.546695143029447495e-02 5.065469976814599429e-01
-1.089927211054517592e-01 -7.781805168843830556e-02 4.871679945189312244e-01
-5.479155723215425877e-02 -4.213638528676865586e-02 4.444722021864162542e-01
-8.519292538159431438e-02 -6.346985223013278110e-02 4.549593746303091657e-01
-5.229729232440967490e-02 -2.778463201289111881e-02 4.429275525675523961e-01
-1.259855290100166808e-02 -8.085661618389547445e-02 4.512237234700361421e-01
-5.958802988056598193e-02 -9.981760851624185693e-02 4.891945881502540727e-01
-4.349577378452555015e-02 -6.913191991491071664e-02 4.503778104228717827e-01
-4.843498247357416048e-02 -1.032031479788376310e-01 4.904147934491686622e-01
-9.555499717104447288e-02 -8.321688405139494871e-02 4.772701249679529578e-01
-2.759965008596411765e-02 -1.075778033198370870e-01 4.840299544630928263e-01
-6.941772216628540326e-02 -1.038456814716200577e-01 5.157678198037114470e-01
-2.635809924872490814e-02 -1.084090495165136309e-01 4.843812065843935422e-01
-4.171155717041657995e-02 -1.068068446937974342e-01 4.932692724812471896e-01
-2.770885350721587898e-02 -1.099150081816724633e-01 4.887523000479557789e-01
-8.445673011345711592e-03 -1.211916243296524975e-01 5.018869616004683065e-01
-7.405764997226017832e-02 -9.239287806774829082e-02 4.811111394021164722e-01
-8.766513290785349008e-03 -1.188882873106299476e-01 4.956202364730705190e-01
-5.364118879239355292e-02 -1.071579621417983325e-01 5.061151833825267010e-01
-8.889260201919728377e-02 -9.743124519260025485e-02 5.132593669899212507e-01
-1.012807632653175971e-01 -8.405804212976245027e-02 4.829019938811667800e-01
-6.182750176588616697e-02 -8.802191949127317894e-02 4.681817995073390692e-01
-7.840922580769402184e-02 -1.003948399107583295e-01 5.320144163886129096e-01
-2.373460913862342203e-02 -8.270478962340091500e-02 4.532350133101075706e-01
-4.130126990291121264e-02 -8.012095891681615678e-02 4.567314212367403758e-01
-2.198750541732624741e-02 -1.162138729627750638e-01 4.982168613982197458e-01
-1.100900395749958988e-01 -8.864417651294623224e-02 5.158063525252893911e-01
-2.896851505374249680e-02 -1.170629178834591555e-01 5.182541365176219772e-01
-1.996122917807799726e-02 -1.198859294712367046e-01 5.351266389728821515e-01
-9.480407765637815024e-03 -1.236453355188331799e-01 5.152946181990730734e-01
-1.372725173997676150e-02 -8.077774572097180805e-02 4.512425614161573173e-01
-1.021393915063077695e-01 -9.171860791426779402e-02 5.230716118348792687e-01
9.416893849382919649e-04 -1.184069923298223248e-01 4.929944988125702920e-01
-2.914094679048986891e-02 -1.170870006091347809e-01 5.239713861362251812e-01
-1.889822749009168953e-02 -1.076678667587423616e-01 4.764212680158189106e-01
-9.585642156631847544e-02 -9.279675182287172586e-02 4.985700981326842696e-01
-8.206817351619737078e-02 -9.013497592992107676e-02 4.810588851456916171e-01
-8.950707384457017024e-02 -9.496968785550272130e-02 4.988253770730810555e-01
-5.027513838121452916e-02 -1.094180587748991018e-01 5.137614026926020649e-01
-9.071941833931079779e-02 -8.435264984831733481e-02 4.757073938405070868e-01
-5.426637763606020903e-02 -1.021665908522077643e-01 4.920790436028232850e-01
-5.640379423550194449e-02 -7.494835848283494528e-02 4.553372582557673187e-01
-6.285314583922083087e-02 -1.066499383788255539e-01 5.237386455709055477e-01
-1.003029518542185826e-02 -1.227056784347001495e-01 5.341655320229290460e-01
-3.839832986186155622e-02 -4.730210629646470349e-02 4.436668147365870341e-01
-4.209694420973431744e-02 -1.055640403799821408e-01 4.906237084547113159e-01
-6.206068105031307958e-02 -1.064986558809424139e-01 5.327996184559214976e-01
-7.832745857978469506e-02 -9.360542575088068307e-02 4.866212594050282059e-01
-1.039869924732452627e-01 -6.941894890140003216e-02 4.893862401966244668e-01
-3.714622129918321997e-02 -1.139306512615961275e-01 5.148907907988534705e-01
-2.064703934634149959e-02 -1.192347119969541097e-01 5.386783471417628810e-01
-4.518367167523834604e-02 -8.155131437129085892e-02 4.587333702838525262e-01
-2.356695549476842122e-02 -6.342895143473369080e-02 4.453545447268209556e-01
-1.371347759155486581e-02 -9.430516258935996154e-02 4.603587506428245546e-01
-1.008820612330410399e-01 -6.834925453303768161e-02 4.829174298067240856e-01
-3.575829810249971097e-02 -1.128842285886397512e-01 5.463488407476049247e-01
-7.592267028762336722e-02 -8.392170160843209770e-02 4.671429048497540149e-01
-2.245858944793822573e-02 -3.948311438641302629e-02 4.417294568021177259e-01
-1.690942875781514809e-02 -5.971138855036654813e-02 4.431437919561669880e-01
-5.954040563596975366e-02 -9.119291041179572455e-02 4.718267732671719838e-01
-2.446955213211024147e-03 -1.207280961423857907e-01 4.989245764720729448e-01
-9.677722799050463010e-02 -9.384004347549844416e-02 5.046754178623407139e-01
-4.528410522203854885e-03 -1.240520029905480687e-01 5.351407372575691657e-01
-4.847965511192835197e-02 -3.443037550434874250e-02 4.419609337802797300e-01
-6.988168772767724968e-02 -9.176156153971873342e-02 4.774132937585882641e-01
-8.430768410392115719e-02 -9.922987211088690751e-02 5.201648778807262952e-01
-9.638547817436488030e-02 -8.211951926093122300e-02 4.765047674285108337e-01
-6.880175042139673180e-02 -5.067235723981251133e-02 4.505461387739621015e-01
-8.483279093658926961e-02 -9.772742042686766162e-02 5.303073145248826670e-01
-3.107873578421445349e-02 -9.774659613832047123e-02 4.703483419941172916e-01
-6.812662461002758074e-02 -5.103363146002783818e-02 4.476228845351787888e-01
-5.175383190576190312e-02 -4.954919305792881978e-02 4.444931399160443886e-01
-8.169789002866781336e-02 -6.344175350095865307e-02 4.510346672202057983e-01
-5.242454798710218661e-02 -1.097145682748750378e-01 5.217416344151162289e-01
-4.864236674733636578e-02 -5.552617961644339128e-02 4.458114190998169191e-01
-3.442875527290131799e-02 -1.152864746081391500e-01 5.241213063417540230e-01
-6.595501064819653259e-02 -9.038618670332650151e-02 4.729031983669499950e-01
-6.922156788797063920e-02 -9.906443246904540756e-02 4.948837218589235976e-01
-7.452627347310164518e-02 -7.889385843094817719e-02 4.581989327753531183e-01
-2.672900362584647305e-02 -1.124213788592351299e-01 4.933014207872585266e-01
-3.916545021090982182e-02 -1.087128970797774652e-01 4.961427735186459409e-01
-6.006854030904125452e-02 -6.320569559503406987e-02 4.478276257361128998e-01
-2.543031963295118089e-02 -4.018034346778280586e-02 4.424055598532449785e-01
-9.242954130823724523e-02 -8.883096454716045420e-02 4.844031331237620974e-01
-3.918699573652825729e-02 -9.473807180792498395e-02 4.714446865404553488e-01
-3.228483797651535148e-02 -1.148707236588966951e-01 5.420136891361411191e-01
-6.016869617984361984e-02 -5.201726945249598305e-02 4.448056259624324493e-01
-3.546251889159447029e-02 -1.143168120360014417e-01 5.134521441305325284e-01
-8.470421905867470125e-02 -9.679474672633482657e-02 5.015112920981826816e-01
-1.120954426566107137e-02 -1.229748496610826858e-01 5.135861905804822714e-01
-9.738107377443636081e-02 -9.260518348529933608e-02 5.000363126204053765e-01
-6.675451687658988387e-02 -8.879021270032692870e-02 4.708003984908781248e-01
-3.919541191122625362e-02 -6.696253822589248728e-02 4.486283067515979828e-01
4.828002447175681541e-03 -1.250737569863981657e-01 5.154895876555736223e-01
-3.748573880694577865e-02 -1.139976713053251628e-01 5.174181892836635654e-01
-7.248065627141399292e-02 -6.372427155570635493e-02 4.467583804189301788e-01
-2.065307063341918076e-02 -9.045979279136950879e-02 4.582183200617968022e-01
-6.278201725118122412e-03 -1.240546238329449935e-01 5.119029351438905140e-01
-1.795121190340988326e-02 -7.717949322135742030e-02 4.498786923368778834e-01
-1.903748110048795669e-02 -1.205837711911733889e-01 5.303035367814774581e-01
-9.993369382830648295e-02 -9.352715784626773610e-02 5.207063070619709633e-01
-2.871546458293276413e-02 -8.649899571577399082e-02 4.576043186160016485e-01
-1.942744071684773116e-02 -6.191670630161033584e-02 4.443146131372020524e-01
-2.805173421837034095e-02 -1.145999782316870358e-01 5.014200820279335336e-01
-3.574025527083982828e-02 -1.146370449483361115e-01 5.184549917043608236e-01
-5.541007275224537482e-02 -2.482506544962638159e-02 4.474157112398824410e-01
-9.256025680851402704e-02 -7.108866103938799030e-02 4.659472876973861366e-01
-8.722968637091957356e-02 -8.349803372436589988e-02 4.724800052155560537e-01
-2.471388127481679783e-02 -1.118879567627226040e-01 4.894781918943615917e-01
-7.994151645248698257e-02 -1.008166530847062342e-01 5.208071416032946654e-01
-2.862122848381612114e-02 -1.151896912847292509e-01 5.044687758720196591e-01
-1.315701849806060267e-02 -1.177165704406280128e-01 4.944928133466615638e-01
-2.518289544626832466e-02 -7.599179092540954417e-02 4.502015145198742241e-01
-3.509016104973657069e-02 -1.149375237349597040e-01 5.317269646272659855e-01
-5.588270711637483013e-02 -1.049224586253674485e-01 5.003979726222773650e-01
-2.189118118812151403e-02 -8.011335003587616299e-02 4.517029551111690355e-01
-4.186199701573134480e-02 -2.766327318030521384e-02 4.400196384597918620e-01
-3.099804077794263146e-02 -1.119538587109636663e-01 4.977036313207432450e-01
-5.319089403387148272e-03 -1.235425387680457315e-01 5.362172094305740488e-01
-1.792391304486394901e-02 -7.301341141103101506e-02 4.481032586713927790e-01
-3.271348558607483931e-03 -1.219348915484194662e-01 5.023120478440072922e-01
-3.824458603262398393e-02 -1.140820723132038306e-01 5.274733969866317596e-01
-8.923594726357685081e-02 -9.686022671138122542e-02 5.259570374567078543e-01
-1.849978895304284221e-02 -6.949359625409175234e-02 4.467038438174550929e-01
-8.338304492860941497e-02 -6.175178805282373340e-02 4.543155857770752037e-01
-1.031706720496334238e-02 -1.218557479320072079e-01 5.063118185447008646e-01
-9.361968021707833820e-02 -9.451675352189302382e-02 5.027706055741424374e-01
-5.885078924173715170e-02 -1.078722361008181835e-01 5.250087660265608802e-01
-7.967059619139708893e-02 -9.677300505260567898e-02 4.966247724379815875e-01
-4.215388966427728590e-02 -1.083422334095211770e-01 4.976851911792875560e-01
-9.950391677408634838e-02 -8.069477174856259927e-02 4.773239375925449890e-01
-3.843770119134000407e-02 -1.094470412819684019e-01 4.975216778801596074e-01
-2.781073075953191531e-02 -3.817736635697646652e-02 4.423389780565943896e-01
-3.273657754684996396e-02 -5.914796100052020777e-02 4.453854741109882220e-01
1.946481478163511296e-03 -1.257273847725192406e-01 5.187809036987608424e-01
-6.207587669840817363e-02 -1.012628204332180620e-01 4.950053347053252617e-01
-2.910274588022505188e-02 -1.159551407312869459e-01 5.084517688384763145e-01
-5.238490057033692165e-03 -9.538714541023858573e-02 4.600579607771550505e-01
-6.404391392503956670e-02 -9.798895160873638543e-02 4.874905655135473581e-01
-2.640986940973063732e-02 -1.072312212976268275e-01 4.821208271232763076e-01
-7.122977352389966987e-02 -7.922829057300384559e-02 4.580789694723518268e-01
-3.379728555193527856e-02 -1.144791556550203010e-01 5.414774764995555767e-01
-8.942836763019418322e-02 -8.461437812779303014e-02 4.753322497353331677e-01
-1.817534413477331356e-02 -1.177476279983552393e-01 4.984694833884290577e-01
-7.177599306125628797e-02 -1.026448963983810775e-01 5.123676929075223763e-01
-7.026185308316190703e-02 -1.036134337089670149e-01 5.159430965391956780e-01
