-1.036716192304852902e-01 -8.232238087465496013e-02 4.831780322950241513e-01
-5.502562002831421634e-02 -2.120565850171863068e-02 4.493617883587309181e-01
-3.950036764984291709e-02 -9.239999826630980462e-02 4.686555872889912600e-01
-6.962517428942632813e-02 -1.040991738089641350e-01 5.181918824116145128e-01
-8.490017654244733092e-02 -8.215032269068997528e-02 4.693361536220262975e-01
-8.126578082608289233e-02 -1.000112938223892411e-01 5.144845058417703010e-01
-1.038271204294596989e-01 -6.909549980790646861e-02 4.898573657303395557e-01
-1.735419391153721069e-02 -8.231894554347439497e-02 4.522553094986552225e-01
-6.255597946595019276e-02 -9.363955648565486234e-02 4.768630843245470485e-01
-7.753804562231490782e-02 -9.299772205468413711e-02 4.845865765252502788e-01
-2.016236312434600136e-04 -1.256759322277973823e-01 5.186070990990916396e-01
-3.326790638730144772e-02 -3.642697232548459951e-02 4.419839449030393830e-01
-7.778705884971841289e-02 -8.413292921633691579e-02 4.684751289965348731e-01
-9.660967881766652221e-02 -6.528620155274719727e-02 4.799537827524825717e-01
-2.941695922314044309e-02 -9.943679591320322975e-02 4.713727431507744869e-01
-2.441707630348285626e-02 -5.853951553870249958e-02 4.441365844093645987e-01
-4.406009820424245521e-02 -1.116653345263678432e-01 5.152605485681666098e-01
-5.103968053155375634e-02 -4.642408450786514318e-02 4.441889167395881022e-01
-7.632809370637101687e-02 -1.011048065154793729e-01 5.111604999245179526e-01
-8.805617695142133050e-02 -9.661455420592207632e-02 5.051421168032642628e-01
-8.855654468959264780e-02 -8.096026273083968550e-02 4.698172550040340401e-01
-7.754989409830788383e-02 -9.883114408857246458e-02 5.024799468923273338e-01
-5.525868811306867967e-02 -4.041651105615796935e-02 4.444221630674312640e-01
-2.452007518184070103e-02 -1.004088097300962351e-01 4.692624217168532841e-01
-2.168663835090835559e-02 -1.195316902796607350e-01 5.310800022592530034e-01
-3.814078806750058337e-02 -9.272620178537145652e-02 4.685974779066183760e-01
-4.266279466814586890e-02 -1.125170157723912462e-01 5.199411960345177164e-01
-4.478018280534141332e-02 -4.585533590511746416e-02 4.436499524416664952e-01
-1.553628441932305981e-02 -1.215866262131866937e-01 5.335408561983479014e-01
-7.586848499400940249e-02 -1.017383400338967292e-01 5.302859433268722888e-01
-8.742871629243915976e-02 -9.543681953122151729e-02 5.340952830603142854e-01
-6.439416395144258176e-02 -7.398537818134802435e-02 4.537848849778385873e-01
-8.877173021850190415e-02 -9.735934712076568798e-02 5.234212895972260027e-01
-7.586587703787878167e-02 -9.516942786803431198e-02 4.886165298037987159e-01
-3.587449889355906474e-02 -3.712389541970807783e-02 4.420144573229875529e-01
-4.134652504898502640e-02 -5.451392631286085949e-02 4.453167734073328332e-01
-9.761982775517799582e-02 -9.311745494875778295e-02 5.027604894593338258e-01
-2.639131857500577605e-02 -6.003277108578265742e-02 4.447559766272481951e-01
-2.605349331907110683e-02 -9.740355731327450528e-02 4.666578906820419426e-01
-3.440070064798043253e-02 -9.678761891837722731e-02 4.714748637630628014e-01
-5.806425782779529171e-03 -1.240647689643294416e-01 5.110350026041522442e-01
-7.919142007274214412e-02 -1.010154980264476726e-01 5.185779210143638407e-01
-2.721121349279055635e-02 -9.470102564790161548e-02 4.646036082655541355e-01
-2.512173679044408039e-02 -1.003035344418767155e-01 4.695391553478974189e-01
-7.456422781796064048e-02 -9.340623698644849593e-02 4.836042117152493103e-01
-6.065538897623890674e-02 -1.061096538470720912e-01 5.132463692463264948e-01
-8.772853764841823110e-02 -6.496135932917815325e-02 4.593489557978028270e-01
-5.439337483918642996e-02 -1.092557881983568374e-01 5.279500723682507557e-01
-5.385205524419647838e-02 -5.561734570100172054e-02 4.458042041999457639e-01
-9.824982271893838159e-02 -9.453035428042892707e-02 5.138444942732608434e-01
-1.021178997085994827e-01 -8.455771314201118716e-02 4.844521505162513453e-01
-6.244943283819361785e-02 -9.996847633866350058e-02 4.917693048927733179e-01
-8.321389749409485725e-02 -8.450895679150338680e-02 4.718928446209664784e-01
-7.658013034119776075e-02 -7.507490171441168203e-02 4.548683925899528191e-01
-1.766144034116983938e-02 -1.149350448343708364e-01 4.902478174960552826e-01
-8.172469728911677112e-02 -9.994748612740761429e-02 5.157022076242737674e-01
-4.643665686493974459e-02 -1.112791020856805230e-01 5.196812406522270944e-01
-7.059921295750411219e-02 -1.022040046040003786e-01 5.084117432956299920e-01
-1.076974977045985944e-02 -1.236244354142655849e-01 5.249377243327698617e-01
-2.126428980574853259e-02 -1.007986040886403312e-01 4.681781280224194264e-01
-8.504625731447197634e-02 -9.802461974660460486e-02 5.084969053435721698e-01
-8.228706595821883019e-02 -9.014824268193839807e-02 4.812527738036589398e-01
-8.520898499307953677e-02 -9.706211768078429336e-02 5.324706237441261258e-01
-7.493846112380801727e-02 -6.691617171223492033e-02 4.478266715781413776e-01
-4.612245156633776322e-02 -1.116445352200566149e-01 5.230090751612788136e-01
-1.435866557524963574e-02 -1.224800446728371017e-01 5.214114089899207771e-01
-3.206128768703357668e-02 -4.461911302178131478e-02 4.432985556769071245e-01
-1.673896840576825223e-02 -1.215943882530290815e-01 5.171866232540937025e-01
-6.406249587478246577e-02 -5.546476506884232688e-02 4.452722175349299594e-01
-3.874274294833334603e-02 -6.283988052267219793e-02 4.469847535230208613e-01
-2.832632371877581018e-02 -4.814612352362392100e-02 4.432978150899914982e-01
-5.308923266522254381e-02 -7.094544546855224842e-02 4.525482600519301624e-01
-1.107111641735098947e-02 -1.203546960501225005e-01 5.009636727515928145e-01
-8.811227566630312757e-02 -7.369307621769301264e-02 4.615909095253332151e-01
7.983454441284015476e-03 -1.250797737480839056e-01 5.165358637319290569e-01
-2.957679643917755091e-02 -6.987193593314953988e-02 4.482785573689462844e-01
-9.036225939433044363e-02 -8.843670307040137069e-02 4.823653035280509038e-01
-8.890971157865298902e-02 -7.056179966738800047e-02 4.607085339816917591e-01
-1.131084759833717174e-01 -7.838191420423032407e-02 5.000105849255319646e-01
-2.358039794405814016e-02 -4.464341737467325544e-02 4.424753725386740277e-01
-2.308584360359822087e-03 -1.207852478967417764e-01 4.990817743932260964e-01
-6.021375423554545248e-02 -8.135460280718673221e-02 4.598084240525319166e-01
-2.633371908957398561e-02 -7.564853559779501080e-02 4.502156253020728194e-01
-6.073186565681179538e-02 -1.005827833310347919e-01 4.921420611281911994e-01
-8.925409239072458478e-02 -8.022284475970642426e-02 4.692728882376566157e-01
-5.730074940157166979e-02 -1.074081522815874545e-01 5.150129232328427564e-01
-1.400049628527449616e-02 -1.225660168731423777e-01 5.176775291737271134e-01
-5.822704649598861582e-02 -9.394323274992470718e-02 4.753559358294734416e-01
-9.389217805517299786e-02 -7.552666899800442035e-02 4.677986419354016601e-01
-2.875433797833749222e-02 -9.180485935163673616e-02 4.627859450616867432e-01
-4.935134537431124652e-02 -1.092345549343896050e-01 5.106274740106625520e-01
-5.767766854462180043e-02 -5.369285492578137337e-02 4.449546887354114411e-01
-3.840692107820912332e-02 -1.115172562030822961e-01 5.035901520584209479e-01
-8.553358792710587244e-02 -8.363045462206328273e-02 4.717561053859480880e-01
-6.329133047971136072e-02 -1.066061479147556307e-01 5.274805148573130653e-01
-1.413607639623081814e-02 -9.459183059572351393e-02 4.606684092766777927e-01
-5.429845657337976222e-02 -1.082993396348783249e-01 5.147657572444286345e-01
-9.345324378267086396e-02 -7.774438345900502867e-02 4.689651004416263147e-01
-4.770825714738379658e-02 -1.087879312222571615e-01 5.055006981493866958e-01
-4.783810820624469218e-02 -1.097616537210003990e-01 5.108625575795039397e-01
-4.992089853518534570e-02 -7.681828046904633223e-02 4.562442157549381205e-01
-4.290842429067776714e-02 -1.122646775347349440e-01 5.352352554946779861e-01
-6.457856854473047539e-03 -9.694463958478830024e-02 4.615626462860177304e-01
-4.875773135721830909e-02 -2.818004062280739935e-02 4.409292707248885224e-01
-3.034223328732882016e-02 -6.600826863223607788e-02 4.470202963868610269e-01
-2.196573873013765374e-02 -1.191982557272649040e-01 5.343672987173865296e-01
-8.755994815411805021e-02 -9.095387967280324504e-02 4.857372765910950574e-01
-2.520268359300846181e-02 -1.184223870825968639e-01 5.263921597603496982e-01
-2.322876861670446214e-02 -1.192536879179994652e-01 5.221072859154745061e-01
-5.008797158214157996e-02 -1.018844551293917738e-01 4.886037913585358217e-01
-5.988499221522347593e-02 -3.836433925387183058e-02 4.475504554045068861e-01
-1.767072626837640562e-02 -1.092703409082088489e-01 4.784890252910500852e-01
-1.461993533065861217e-02 -6.033266768340448533e-02 4.429251902902240356e-01
-7.336573339010060701e-02 -8.467959139183725559e-02 4.669725585102137977e-01
-7.179375270039314860e-02 -6.019141159223422716e-02 4.463346345718884889e-01
-4.838758551235599475e-02 -1.110335952978388357e-01 5.279510206176920573e-01
-8.403028740075010883e-02 -9.896491570169732577e-02 5.262525158229459654e-01
-4.570739863735250041e-02 -6.466331951014826773e-02 4.486758014933825423e-01
-6.568151253619726460e-02 -7.092388070394910204e-02 4.514497456729699154e-01
-2.586358032301000823e-02 -4.773212682432305398e-02 4.429712673776836085e-01
-1.005108180381466924e-02 -1.226514513010725921e-01 5.091862978840467902e-01
-9.463357866181960898e-02 -9.557290722208176825e-02 5.205660483317020581e-01
-7.248575062682448278e-02 -5.370964011132772081e-02 4.498592736902038425e-01
-6.979213630773412058e-02 -9.091816688570461547e-02 4.757842058761527215e-01
-8.438200681666906122e-02 -9.757470931682797610e-02 5.046791151919555185e-01
-4.998738100000757467e-02 -4.432693548784164689e-02 4.439388241224163645e-01
-5.597168776816963814e-02 -8.658316495815437941e-02 4.653088637158775409e-01
-2.596918656659561245e-02 -1.175413975991400628e-01 5.112400783108305147e-01
-4.728514333650320201e-02 -4.868055332073048524e-02 4.443388359424639278e-01
-8.301250548490150816e-02 -6.373647331650854342e-02 4.522455647738700124e-01
-3.795601553528015620e-02 -1.140215507793364974e-01 5.322492973766228541e-01
-3.623178454245432750e-02 -7.195457512863775995e-02 4.505856268406941423e-01
-3.594739592951864265e-02 -4.108559616335416553e-02 4.428003546961150616e-01
-1.317045222085717719e-02 -1.228769603735098276e-01 5.249502187374915918e-01
-5.056080450628273881e-02 -1.004143552658535582e-01 4.857191655615447634e-01
-5.795206675389936307e-02 -7.647523521389888723e-02 4.563848961396696491e-01
-4.331668480517020942e-02 -1.025771375252205464e-01 4.850793620867122069e-01
-5.219748685563751350e-02 -7.862076577416081402e-02 4.577929407856634048e-01
-4.625147941427657644e-02 -3.984275845049382175e-02 4.426315204979184292e-01
-4.164067980135403857e-02 -4.971289134178981384e-02 4.442996957355165866e-01
-1.971087592700766777e-02 -1.204058205783913316e-01 5.283488756009306897e-01
-1.207919433975793155e-02 -9.948107322897643823e-02 4.647117418782686915e-01
-5.727367186253914944e-02 -1.003076351386276571e-01 4.889824767501937397e-01
-9.381268234741124701e-02 -8.908555992344477370e-02 4.858343668443572683e-01
-9.812749451026222397e-03 -1.233669424006929582e-01 5.138481449800702539e-01
-4.613598419278500118e-02 -1.111260358659361264e-01 5.170745163347481022e-01
-4.052141041309173519e-02 -1.098714952296029612e-01 5.004830074256184647e-01
-3.188047812279801163e-02 -1.087059754878881707e-01 4.900600748418134089e-01
-7.303826161470394762e-02 -9.232349518002176680e-02 4.803281249364483307e-01
-2.564943491440720667e-04 -1.220796077066880481e-01 5.025452532819290052e-01
-9.523847444380907634e-02 -9.210188520987662442e-02 4.951495545922840469e-01
-3.448276484228100791e-02 -4.051388989401717017e-02 4.427266871747836396e-01
-1.082595936254022312e-01 -8.480441426531540317e-02 4.925026717646459051e-01
-8.839471891294328754e-02 -9.677612803481998316e-02 5.067363811759060255e-01
-1.553234171106312490e-02 -1.220573803882515490e-01 5.206248632339263160e-01
-5.232724395508584619e-02 -1.096972899504759374e-01 5.213631361009383181e-01
-2.814262424563963860e-02 -1.155020767616046218e-01 5.050650853822193920e-01
-5.925714993525522944e-02 -1.062267083343695628e-01 5.114268192164989069e-01
-1.775647362812970281e-02 -7.779661294079112666e-02 4.501392904356210090e-01
-2.345009605912977066e-02 -1.191664018501235878e-01 5.163439673579438560e-01
-3.215800991394349162e-02 -3.702810096801456563e-02 4.421590343848941784e-01
-4.922599318716271849e-02 -1.096508429033881682e-01 5.131490034765373576e-01
-5.874044115634362295e-02 -6.746045568361069833e-02 4.498807764357933836e-01
-9.631062990465254214e-02 -6.511050666526413400e-02 4.796269538342191607e-01
-8.444392897459436498e-02 -9.860514553507716828e-02 5.109784097507892309e-01
-1.032168199473115083e-02 -1.153910419617506650e-01 4.872822428596726985e-01
-7.239111077743784484e-02 -5.786367076673550741e-02 4.467566683537700922e-01
-3.317605293059183030e-02 -3.270519100922366501e-02 4.411480430631915528e-01
-7.282924078302221993e-02 -1.024161609335118711e-01 5.128751413947558735e-01
-1.658271044159866786e-02 -9.493492966227935759e-02 4.612914967177428882e-01
-6.128385514283253566e-02 -1.055333318720356878e-01 5.110138923721209148e-01
-7.780086701870606025e-02 -1.000393173695068999e-01 5.079773508047615849e-01
-2.437049519050881255e-02 -9.699303292059141546e-02 4.654944615712668377e-01
-2.643056732494420899e-02 -1.176400526842101835e-01 5.337854541638394901e-01
-1.125053672169806090e-02 -9.951308485930174252e-02 4.646042533689005438e-01
-3.125645209639124622e-02 -6.441496163953135123e-02 4.466585893995635992e-01
-3.702347451931971289e-02 -6.561608121386315606e-02 4.477346108445083295e-01
-6.225341647787827060e-02 -1.068445067930904602e-01 5.291261223624860177e-01
-1.067717454833345680e-01 -8.216935836851015085e-02 4.854831127737933572e-01
-1.039578155660324243e-01 -7.279413507081383683e-02 4.816329146258522820e-01
-7.276956752684472784e-02 -6.905434543356414601e-02 4.494588049678490127e-01
-2.313610218913237163e-03 -1.251959126347036155e-01 5.328880377415241565e-01
-2.952665057464683163e-02 -9.647141479510375206e-02 4.678296140859038443e-01
8.303499185574932800e-04 -1.258433196029661305e-01 5.307586067154248521e-01
-1.175439612075288368e-02 -8.404071538465096580e-02 4.528341986800957786e-01
-8.412131658675973955e-02 -9.918634222811066603e-02 5.169936873662434040e-01
-5.748865287359173487e-02 -1.063490416562785645e-01 5.086753402366882559e-01
-2.315240625617632358e-02 -1.012041672460586156e-01 4.695732267545117411e-01
-1.340675309096490617e-02 -1.175689498274802569e-01 4.942806081655820583e-01
-1.054219495645117577e-01 -7.982317892651612234e-02 4.825196119702795383e-01
-3.110292146803676425e-02 -1.151292215776660993e-01 5.080500544883176373e-01
-3.188437502570375115e-02 -1.161281726857693736e-01 5.210099681807639493e-01
-1.536303822799959563e-02 -1.193647248561093138e-01 5.453613333786843098e-01
-1.058235614693141952e-01 -8.665835493765491893e-02 4.933338444527194944e-01
-7.096488584692611790e-02 -1.008558154042773214e-01 5.027595939042319717e-01
-9.120909972103827257e-02 -8.413148726850126768e-02 4.757195818687820488e-01
-9.489276060412669966e-02 -7.447246268367943567e-02 4.680418805019077588e-01
-1.022790952733777792e-01 -7.816044613283874842e-02 4.777525277261228664e-01
-3.468043149053894741e-02 -9.572552736048708932e-02 4.703775704047165607e-01
-3.166692736326283397e-02 -4.462563869198060695e-02 4.432795952186828758e-01
-9.570212513810288923e-02 -8.072789447556688591e-02 4.743306131214345411e-01
-4.390469219891525443e-02 -1.089410707823502134e-01 5.009669022688906237e-01
-2.933703744182343878e-02 -5.738730580856928054e-02 4.445717059291689477e-01
-1.531534657233600549e-02 -1.214932293403939434e-01 5.118976654376085067e-01
-6.993402410615917608e-02 -9.280550299363632405e-02 4.795026675313690534e-01
-5.386578408227971765e-02 -4.933291534790405081e-02 4.445276566159291898e-01
-1.431533636458189561e-02 -7.082813167189309922e-02 4.468493435182174789e-01
-3.385026500732327831e-02 -1.154840502116393636e-01 5.221943442147340964e-01
-2.628601188056367902e-02 -8.018631436235131027e-02 4.523999658174998051e-01
-1.396339815984003717e-02 -1.218458760663402862e-01 5.352233271247852642e-01
-9.334977825132771689e-02 -9.318893283371867953e-02 4.967111837507252603e-01
-1.212408982844618080e-02 -9.657434737943244862e-02 4.621105291878679355e-01
-4.626191334648776382e-02 -1.116471012991679945e-01 5.276939498018831110e-01
-7.307959632545861506e-02 -5.534613625325383868e-02 4.474465597844994313e-01
-8.512678523912771411e-02 -9.038197002449042949e-02 4.831946902268487998e-01
-3.966195407589163252e-02 -1.045437513275600666e-01 4.865908488378785646e-01
-7.266339069070444634e-02 -9.286739296864757187e-02 4.812115711102208371e-01
-8.250232575480992425e-02 -7.928116716362761107e-02 4.636025025049860249e-01
-7.869644704376549393e-02 -6.159203177143710711e-02 4.483418507603745273e-01
-3.542554718732508073e-02 -1.140001415895802311e-01 5.107226503528153883e-01
-9.759734004833589549e-02 -6.585397024625654072e-02 4.812719854457457314e-01
-3.871159276962673340e-02 -1.139404271329155227e-01 5.262563010527490093e-01
-4.781990861616201849e-02 -7.140382585494070566e-02 4.524134604453331487e-01
-2.528203450118533119e-02 -1.167412999600285217e-01 5.439908476451916775e-01
-8.578467990309315838e-02 -9.611916751564483774e-02 4.997375469710194085e-01
-4.156484560314480797e-02 -9.772775672326113050e-02 4.761500173703274164e-01
-2.256624939985063874e-02 -8.846140681429921770e-02 4.570651992383851780e-01
-8.190910449032267129e-03 -1.131388026685521686e-01 4.818094148762920859e-01
-2.297252058073313494e-02 -1.192952288238173647e-01 5.247254113610952952e-01
-5.186697021350587800e-02 -2.848696435707085903e-02 4.427554792441761866e-01
-7.829108973771260749e-02 -9.322302709699688272e-02 4.856870439788088523e-01
-5.835075479439812834e-02 -6.154884764194712421e-02 4.474384834099022767e-01
-7.658566041307846017e-02 -7.874937631210753020e-02 4.585507963033085277e-01
-8.151666380483221785e-02 -9.958167109466758982e-02 5.287556803994868382e-01
-5.362573502119731550e-02 -1.093625518637008631e-01 5.223421434849130351e-01
-4.212717447437178825e-02 -1.004120695847836170e-01 4.805676885579650004e-01
-8.344195362182259268e-02 -9.885484223811107085e-02 5.280256075768088309e-01
-3.728818988560363840e-02 -1.086225780772927807e-01 4.943105383187110236e-01
-6.240700049682762485e-02 -1.065229934298532882e-01 5.196865057292110457e-01
-5.705604157473554566e-02 -1.077352442814628608e-01 5.344722394888352657e-01
-1.137889909064894317e-01 -7.876612958312324830e-02 5.015193163688822509e-01
-3.284932660372788527e-02 -1.098553716756833637e-01 4.937825523318980503e-01
-6.154527797295981234e-02 -8.871643712613339061e-02 4.690877589200876940e-01
-1.812245940993071486e-02 -1.162791443757062726e-01 4.941102829627253001e-01
-1.025453898800831043e-01 -9.189990937620395872e-02 5.068023341002136917e-01
-2.999665419094470903e-02 -1.122055515306733392e-01 4.972583965164764086e-01
-8.786630601487324665e-02 -9.778182628429515910e-02 5.140533977413791478e-01
-6.061554735430210034e-02 -9.151251403357602010e-02 4.726696832403267101e-01
-2.437288180218178529e-02 -3.819090881640114371e-02 4.418913456658289385e-01
-3.243322100666365393e-02 -5.569420068753318243e-02 4.446262318574003003e-01
-8.766874397535579996e-03 -1.242590457585106556e-01 5.245970608991683548e-01
-7.131131810342461463e-02 -8.762601692180835289e-02 4.708974074121542452e-01
-8.807029488233243664e-02 -6.205606107716449271e-02 4.641745511523488465e-01
-3.737858449911650449e-02 -9.970925797261108448e-02 4.771376714183858669e-01
-7.273821697794620456e-02 -1.033968287599462271e-01 5.266007257303849665e-01
-6.157347072041401831e-02 -5.879690841860969741e-02 4.459070012994437171e-01
-1.269422532945316609e-02 -1.170390501036327052e-01 4.923942200434067162e-01
-3.402743248082562566e-02 -5.357041925136187682e-02 4.443926264391568348e-01
-9.888542201601131787e-02 -8.421760823162828535e-02 4.814168366616147776e-01
-5.156766165620277342e-02 -1.083755938596567547e-01 5.096646108542243203e-01
-1.341560475912640694e-02 -7.245203864865158716e-02 4.474720823819198223e-01
-3.747460361299104203e-02 -9.351714385731356438e-02 4.693243027430710756e-01
-1.093171394164170890e-01 -8.952086024080892213e-02 5.109201350095589067e-01
-7.540160516409208369e-02 -7.190750546080709737e-02 4.519283650075194281e-01
-1.021374507810468846e-01 -9.171583633397102642e-02 5.048503218255586678e-01
-3.607329708213842523e-02 -7.146802014448667972e-02 4.503276769716542671e-01
-8.093585331428888863e-02 -9.900210138990488129e-02 5.334148556472707581e-01
-9.887033904093035785e-02 -9.439594984154636714e-02 5.186404172490168829e-01
-3.730584787398390223e-02 -7.340757604418968185e-02 4.514784877950425157e-01
-1.035181341364594387e-01 -7.977259817522981689e-02 4.802292578646372712e-01
-7.794266890089232569e-02 -9.505310547499729035e-02 4.900838948305362708e-01
-1.045386638056801654e-01 -8.692815002776434208e-02 4.922034632827700928e-01
-4.722959349316070699e-02 -9.637544810314808974e-02 4.762718373522532023e-01
-7.037786075662501306e-02 -5.192236129244844761e-02 4.508797882929788114e-01
-1.710279566571965698e-02 -9.159720122940262499e-02 4.584854599447570345e-01
-5.164254425249185931e-02 -1.045506719909665427e-01 4.959320289435396600e-01
-5.055640969891216779e-02 -9.130921771794581199e-02 4.700870224703890266e-01
-3.963383398584437861e-02 -7.859283332576441627e-02 4.551274154081482171e-01
-3.705309368092035704e-02 -1.144552142798745120e-01 5.223519767781088508e-01
-2.027265645836276442e-02 -1.165588617098724661e-01 4.970648270603257868e-01
-4.097169829960525117e-02 -9.798156856875751830e-02 4.763285746068905424e-01
-7.576727489343193511e-02 -1.013652471335730887e-01 5.328190477161057759e-01
-4.741383546944857169e-02 -1.102827170466161438e-01 5.134109487217247692e-01
-1.245509339840802400e-02 -1.212736149161918742e-01 5.058164152953210646e-01
-1.968824711592410959e-02 -1.194130067090174718e-01 5.082411338188090877e-01
-1.475627847406900742e-02 -9.999354048924420646e-02 4.657172578964769438e-01
-8.916125492681328812e-02 -9.151628363379049613e-02 4.880832914237258624e-01
-3.817402955154311495e-02 -1.091478091572924691e-01 4.964964269634599692e-01
-8.628717858895891546e-02 -7.739017115497330568e-02 4.635507580701697661e-01
-5.025561755994630009e-02 -8.570054186378052441e-02 4.635985000908535714e-01
-9.288165632000230931e-02 -9.587837139951034537e-02 5.093554100042287924e-01
-6.721672994686093972e-02 -9.796019024249748297e-02 4.898047779721972361e-01
-2.221139754575334607e-02 -1.196104023508408054e-01 5.163006207654182722e-01
-1.293319531669910941e-02 -9.051419652149839123e-02 4.569934592516807781e-01
-4.508172077638299829e-02 -1.114176910608686566e-01 5.163607674822522364e-01
-9.557260049947032335e-03 -1.226074435923008854e-01 5.350750604357572549e-01
-2.044716914300138619e-02 -1.202684224483427655e-01 5.246748918535256712e-01
-1.092446485471953027e-01 -8.702635809968639613e-02 5.015781405590901132e-01
-3.108992699109842939e-02 -5.458136121378864142e-02 4.442438352833850135e-01
-5.863091987860258314e-02 -5.962685982795933037e-02 4.466504163881525602e-01
-3.722055445769983234e-02 -1.037270361479688957e-01 4.835290254355090744e-01
-3.044007201825056283e-02 -1.142663178345118963e-01 5.033824616648375772e-01
-2.495926215794161060e-02 -6.105437921322667827e-02 4.448535871987925328e-01
-7.712017496726264465e-02 -9.997822650441952341e-02 5.360106134385042020e-01
-3.998714582729803041e-02 -9.427775333382698575e-02 4.711416581999632869e-01
-6.941563589713220517e-02 -7.993328469550198268e-02 4.587303537098637030e-01
-5.137891821954605753e-02 -1.088252560922048223e-01 5.122116058565236996e-01
-9.670892622105155961e-03 -8.219536256910767169e-02 4.515585115942301053e-01
-6.804324076895168494e-02 -9.968245408753149961e-02 4.957401197382971247e-01
-2.520332582237201982e-02 -8.598929490594467429e-02 4.556637646023498633e-01
-4.165249700420388390e-02 -1.115344256372864523e-01 5.431192106884946691e-01
-4.608698419749539948e-02 -5.208900336591550106e-02 4.450129971093798598e-01
-1.545901821228544415e-02 -1.182847446155209509e-01 4.975541261104853841e-01
-5.344455300747302795e-02 -1.093879121108856517e-01 5.305115926332886200e-01
-4.053459659974687629e-02 -8.273110746164150098e-02 4.587561384949475074e-01
-4.136249749386075591e-02 -1.094278262291807774e-01 4.999911124848633870e-01
-3.180866707713714270e-02 -3.120845076565304660e-02 4.408574504390912474e-01
-2.870511487904034084e-02 -1.162312067026141232e-01 5.090185463136956967e-01
-9.095028618912363860e-02 -9.381715396944222130e-02 4.962240270269751008e-01
-1.094272056948726035e-01 -8.701889098000144263e-02 5.021447413370356827e-01
-1.411744868830406424e-03 -1.255776003697955390e-01 5.307192778106907260e-01
-9.425943660083485609e-02 -9.563477625481882349e-02 5.210724371637460717e-01
-1.076272692534106096e-01 -7.173765822405717141e-02 4.937590408166033784e-01
-4.644064210073886589e-02 -4.416138098343639490e-02 4.434534369230977435e-01
-2.885248291955957306e-02 -9.801902340406580538e-02 4.691652116778835535e-01
-2.738631754303767415e-02 -1.176907789301062657e-01 5.240860001667457801e-01
-2.727708566819080430e-02 -6.028785193977456713e-02 4.449518877857880361e-01
-5.378122859863428834e-02 -1.051490067590013094e-01 4.993130289977725789e-01
-1.007451902423245338e-01 -9.255212681910332528e-02 5.228458961591071485e-01
-3.616494882709977293e-02 -3.431258050546828059e-02 4.413413063438524908e-01
-9.103722509287832942e-02 -8.867179238587423462e-02 4.832204831117039023e-01
-9.592013692990959683e-02 -7.004681417564777302e-02 4.698237285821855180e-01
-5.438031668647611006e-02 -4.317820515081857713e-02 4.444386288916933880e-01
-1.045646703770504171e-01 -9.021535731091655241e-02 5.235918357032104398e-01
-1.552044647872364777e-02 -1.138249051072014739e-01 4.856765645965147593e-01
-4.492402702134008774e-02 -1.049037495307685169e-01 4.914909947696297077e-01
-6.807702814987479090e-02 -1.040381032498825103e-01 5.344007811254726237e-01
-2.277068609828872270e-02 -6.484637752714154935e-02 4.456668153391375453e-01
-8.576431749747737143e-02 -6.273637098449011407e-02 4.570107681493656981e-01
-4.343656466970613472e-02 -8.735912774343693177e-02 4.640326739768813602e-01
-8.633674740915214807e-02 -9.064912610168154861e-02 4.843497834107574618e-01
-8.345503039295247560e-02 -9.903556859099182930e-02 5.117592033947030439e-01
-8.276844792605661527e-02 -9.909756509986178408e-02 5.282652106082479371e-01
-3.446706561766847005e-02 -1.095045783079202778e-01 4.943009642099615575e-01
-3.464227067909276397e-02 -5.604440708484739048e-02 4.449845438665379627e-01
-2.006709310881507266e-02 -4.992913652966961269e-02 4.421562059289166902e-01
-1.529184574037036753e-02 -1.210298489305779851e-01 5.086120583243425308e-01
-5.370650197754032323e-02 -1.086675354743296684e-01 5.161947479333892641e-01
-1.095366145356451298e-01 -8.666456281247579552e-02 5.012696607612653343e-01
-5.831318835936587924e-02 -1.043750189037823406e-01 5.013373526026886351e-01
6.911301063064518788e-03 -1.251098502878496277e-01 5.165349888485436525e-01
-1.037181986399555167e-01 -9.100774604497059717e-02 5.222702145141886465e-01
-1.025986127419832722e-01 -9.254485375557798543e-02 5.112684384893733114e-01
-1.363697632914831134e-02 -6.653070392755547346e-02 4.449375699809517415e-01
-6.508227518274833923e-02 -1.050037453187122050e-01 5.147168185949329011e-01
-1.031893371243329249e-01 -8.917241168976268451e-02 4.959541862766363995e-01
-8.079963025786547626e-02 -9.981856888390366889e-02 5.113273225431121949e-01
-1.107349656932615639e-01 -8.744330723854297494e-02 5.111457314859224610e-01
1.176086614335059618e-03 -1.255637295056378222e-01 5.338432103145703822e-01
1.109315377467302247e-03 -1.202759797695262950e-01 4.974723276467690192e-01
-8.652372310884204332e-02 -7.475485633931126805e-02 4.608445107858895606e-01
-9.586341452119016837e-02 -8.743822677728166348e-02 4.845273353732474364e-01
-7.111687471379125880e-02 -1.036292598892527977e-01 5.299779089646976526e-01
-8.264040530964071596e-02 -5.934773427165421916e-02 4.557124193538512613e-01
-1.128792216430394985e-01 -8.221334472828989437e-02 5.063899869368319040e-01
-1.552171386482338253e-02 -6.934257645744512644e-02 4.463136988837712038e-01
-7.376231262844407111e-02 -6.511252750459520233e-02 4.472499690855114007e-01
-3.275088207528707718e-02 -7.819378213065855676e-02 4.529006309189437807e-01
-4.795317762075127638e-02 -1.110827472607441579e-01 5.232452621102851031e-01
-5.970202888055387014e-02 -1.075747787378220632e-01 5.233181430248765587e-01
-2.945149176593917992e-02 -1.062841398648144697e-01 4.834131336778936250e-01
-5.573549711408799616e-03 -8.477567372164920845e-02 4.524884390711338966e-01
-1.048207832848469107e-01 -8.502612933037591303e-02 4.882183546874861446e-01
-1.572938997728127314e-02 -9.659686466782073377e-02 4.626178646830652053e-01
-6.526296077549831320e-02 -6.377341576665451761e-02 4.472558666708486563e-01
-5.182797152344796598e-02 -1.003225722144750476e-01 4.862111071982206378e-01
-9.699694265648584057e-02 -8.729965343512410825e-02 4.852503149058000065e-01
-1.661759353468388739e-02 -1.216736795878128885e-01 5.208984036275757790e-01
-5.471014591860365317e-02 -1.090917512255396432e-01 5.247728409236273039e-01
-3.222077260704650503e-02 -9.786279674984232901e-02 4.712964349658423924e-01
-4.679678133518094113e-02 -8.921936899129218057e-02 4.670755907768273651e-01
-4.188297486992818841e-02 -5.031698582425982863e-02 4.444402787709912928e-01
-2.814329113339814753e-02 -1.050617118852819887e-01 4.797695772879235765e-01
-1.063676056075532478e-01 -7.601939423262198126e-02 4.828284799965955054e-01
7.421064208607205948e-03 -1.263940492605098442e-01 5.250514300195618933e-01
-1.129962490987492796e-01 -8.175731165993083138e-02 5.054558016051118319e-01
-2.503312227452380787e-02 -8.200574243299685318e-02 4.530624481038911244e-01
-2.702166647826718948e-02 -1.173335704257690432e-01 5.130988453781292202e-01
-1.091823187320885985e-01 -7.594305086596234156e-02 4.877803625354577011e-01
-8.355326235786871003e-02 -7.820824998756836788e-02 4.627090977005686723e-01
-6.315202256779377243e-02 -1.065296745237608866e-01 5.229231604067818839e-01
-1.117439008693645597e-01 -7.943836637256364297e-02 4.946559519713163433e-01
-4.554509895249583828e-02 -1.113936184644771510e-01 5.178905195607823586e-01
-4.900583969689689678e-02 -8.253099459023405249e-02 4.603586773385248132e-01
-1.036604193001067764e-01 -9.151118424079991709e-02 5.205580438074196570e-01
-7.438738909713593639e-02 -9.549065621242010249e-02 4.881995416310654923e-01
-4.723509802341161606e-02 -8.263229404912177112e-02 4.601551099384740828e-01
-2.165501457376902555e-02 -1.187538218773532550e-01 5.392304779451072561e-01
-3.278152163466351021e-02 -3.212594486317356390e-02 4.410269538854343363e-01
-4.103423775290562792e-02 -9.808016333024187350e-02 4.764797822987006937e-01
-5.341315005531951932e-02 -7.499738327425202467e-02 4.554327093620770261e-01
-8.944300299641813612e-03 -1.214228033004084717e-01 5.031406885316354050e-01
-6.188458448174403298e-02 -1.065337008384058676e-01 5.329406979116729781e-01
-9.758717911312660143e-02 -9.391392599014942999e-02 5.068075530556159780e-01
-7.921615539817698781e-02 -9.247788156628425349e-02 4.844789402417272184e-01
-3.393431888784299855e-02 -1.143711972257726861e-01 5.095107617417655721e-01
-3.395884342069286493e-02 -6.807947734683485186e-02 4.483197004997441781e-01
-8.687834355478900317e-02 -6.524376405812683244e-02 4.578023704944737537e-01
-8.482566919243711423e-02 -6.499379440313766965e-02 4.537111855771889246e-01
-7.829988940732066083e-02 -8.374604125495464790e-02 4.681185771934502915e-01
-8.279830935219729959e-02 -9.861696088442557795e-02 5.079806561917716845e-01
-9.929340314845066726e-03 -1.206990726641653244e-01 5.013022214591181802e-01
-2.902960796943648836e-02 -1.046078996743989437e-01 4.796710778368453165e-01
-6.494079806244262842e-02 -9.191154928538827762e-02 4.750913302950315886e-01
-3.338892232964963541e-02 -7.391821808640088032e-02 4.509171141103652247e-01
-4.382121139927417502e-02 -8.753964074945162765e-02 4.643456790415440572e-01
-7.103858428063204722e-02 -9.419159046000855073e-02 4.828868845970064050e-01
-9.005556633448540127e-02 -8.979429816876442760e-02 4.847363072257555028e-01
-3.245478532763904772e-02 -9.321209126737474426e-02 4.662076768984684816e-01
-9.317304607759628599e-02 -9.483138022032325254e-02 5.035608827999457082e-01
-8.155696924305018414e-02 -1.002201777570936592e-01 5.207582767592501272e-01
-8.181531912808968909e-02 -7.970248223210910088e-02 4.638159633012492455e-01
-7.457490969767630040e-02 -1.018365458973538445e-01 5.327793926348377562e-01
-4.757721193389168046e-02 -3.258736744626127002e-02 4.413758756696448127e-01
-3.745139832721104678e-02 -5.663877827819723682e-02 4.453927294885992039e-01
-3.140410078231944263e-02 -4.905728371643205965e-02 4.435284473902212365e-01
-5.203297606761334709e-02 -9.838993590861129512e-02 4.818950415758539441e-01
-2.333658033603680515e-02 -1.055973240735700036e-01 4.761630709033168873e-01
-8.922293221226741677e-02 -8.948087305858475060e-02 4.836411610468674960e-01
-1.013155412159478241e-01 -7.292088643970877360e-02 4.771444354359272166e-01
-7.120741057099090610e-02 -8.026633878769137698e-02 4.595535277916553696e-01
-6.985833294243086466e-02 -1.039269602793993913e-01 5.174516448770526411e-01
-6.873251575292384230e-02 -7.395183832940636914e-02 4.534129877645318718e-01
-1.881241591664412419e-02 -1.193054124591830661e-01 5.418796650211483712e-01
-4.614474045530318584e-03 -1.234573670529113820e-01 5.080748163518945537e-01
-7.283452707655323211e-02 -1.033014968405903677e-01 5.231022732311966239e-01
-1.920427932454996621e-03 -1.235016945969769075e-01 5.079313195765136069e-01
-7.065579277913448808e-02 -7.337642779838018936e-02 4.529034701603920632e-01
-1.058434104384636393e-01 -8.315196556550739915e-02 4.858846448031804988e-01
-2.524221448787206459e-02 -1.134818685328828902e-01 4.938506449652840247e-01
-3.535379356630095199e-02 -8.903956194615199327e-02 4.632752006515327148e-01
-1.868721096201038379e-02 -1.128345146723103015e-01 4.856585679266929856e-01
-1.118225848290924779e-02 -1.206227217165300875e-01 5.019360480366840127e-01
-5.297377510040537918e-02 -8.079452465911755865e-02 4.593638159819731781e-01
-6.312176753867268508e-02 -8.231420176020708135e-02 4.612782896566421376e-01
-7.904187059554590444e-02 -6.514131101861864170e-02 4.486031408583012192e-01
-5.578641760926328352e-02 -6.218474853766345345e-02 4.479292626604066685e-01
-1.088000797577414330e-01 -8.739747019919315296e-02 5.014236643454961229e-01
-1.089931242245174292e-01 -8.888213112296650120e-02 5.201766571486595714e-01
-3.974150072717396592e-02 -2.903057353403790813e-02 4.402256487871700208e-01
-7.951752422533227282e-02 -9.292913824177811977e-02 4.858238953611919153e-01
-8.873515376980013747e-02 -9.728868174310777162e-02 5.107894480001551329e-01
-3.661504572843383987e-02 -1.143689476903926860e-01 5.190090221564827022e-01
-5.775903865590221314e-02 -1.035166484360113964e-01 4.979188850327767035e-01
-1.968792516553292266e-02 -7.375742042291717759e-02 4.485669088995504761e-01
4.989325254452824446e-03 -1.257307224087096109e-01 5.199629794824669471e-01
-7.210899692330784150e-02 -8.144554126946564054e-02 4.614036496897764850e-01
-2.332124685384065477e-02 -1.186943949566308942e-01 5.123832563461694356e-01
7.973835204599462670e-03 -1.265394426296097830e-01 5.324732986098699161e-01
-9.184245052519579566e-03 -8.413799475768464486e-02 4.524946626413192119e-01
-5.933391903579728760e-02 -9.064184814301834425e-02 4.710815891212690731e-01
-3.657256082824984073e-02 -1.120198856973776969e-01 5.033017543200812849e-01
-4.037411363170199941e-02 -8.844414824233372274e-02 4.644183613378731756e-01
-3.693779307198385986e-05 -1.184686803444928577e-01 4.931745131589593267e-01
-6.799840686735598994e-02 -6.470191813399449321e-02 4.472490084269141741e-01
-1.770084950207818919e-02 -6.822930956625615495e-02 4.461169937816416575e-01
-7.873464188195759828e-02 -5.810285859459120988e-02 4.493299857772183881e-01
-5.859462860206429008e-02 -8.843456954916753543e-02 4.679117897174506213e-01
-7.565698313070341741e-02 -6.777283006190000514e-02 4.485756639484637653e-01
-3.230509249463675570e-02 -1.055054597327210048e-01 4.837946778023541894e-01
-7.656470744221323399e-02 -1.018854438927705858e-01 5.184315646978965297e-01
-9.198375361472554967e-02 -9.462834683260755442e-02 5.297957004548162763e-01
-7.318514801219720700e-02 -9.677732106786911259e-02 4.911076273344304743e-01
-6.349458447702242825e-02 -1.033855315709182598e-01 5.038889631917568002e-01
-3.712790890545306782e-02 -6.013239008932819152e-02 4.460950972661139047e-01
-1.863712529008179977e-02 -5.484217658154737218e-02 4.424390401093233338e-01
-7.950677992211657719e-02 -9.936982681519486438e-02 5.069643236682742637e-01
-7.917407213609832517e-02 -9.474618415160568352e-02 4.900744116996237909e-01
-1.184864634939242906e-02 -1.168200382932442355e-01 4.914014160922053343e-01
-6.339300119156825175e-02 -9.207481746261597655e-02 4.745716691214967309e-01
-1.676575143387458444e-02 -1.203542328715204029e-01 5.077508003324556762e-01
-2.328976201134644666e-02 -1.144260587808725582e-01 4.939985471976014453e-01
-1.000390460834071904e-01 -9.040672209008147886e-02 4.951544648172101493e-01
-2.506584698942432299e-02 -5.686170866490198456e-02 4.439168498435370758e-01
-7.668024194412420558e-02 -9.539838235244911535e-02 4.900671240161355580e-01
-4.895159637557394694e-02 -9.598147687626720770e-02 4.760020984087764417e-01
-7.373344507110074497e-02 -6.248926551365120013e-02 4.465510718294133929e-01
-4.438884111025290236e-02 -8.539496875903546114e-02 4.621430589392602206e-01
-8.492499941985685863e-02 -9.748369796137362764e-02 5.311704284724697578e-01
-2.372536885958602751e-02 -1.173681542302024289e-01 5.059175687167084545e-01
-5.651946535148763551e-02 -9.967057959698279179e-02 4.870644145635399935e-01
-4.164740686375468376e-02 -1.119810028085259507e-01 5.117228605669014163e-01
-3.559326224147416062e-02 -1.057430060875673428e-01 4.862316612044894071e-01
-4.152080809873433254e-02 -7.117183582925240559e-02 4.511191987708144668e-01
-1.032241339282088111e-01 -9.191175134933082802e-02 5.084116909551220642e-01
-7.394701981087430098e-02 -1.029161216092884940e-01 5.231740579671051439e-01
-3.837089723622718468e-02 -9.920388376938484021e-02 4.769195198675391101e-01
-7.166962352281662507e-02 -1.037555896890061391e-01 5.244371759411282641e-01
-8.209084679284814334e-02 -8.742570752000490553e-02 4.760754281473243421e-01
-4.185792608286646038e-02 -1.098003801139649654e-01 5.016386095628976305e-01
