-6.870557839254598509e-02 -9.646402057450488565e-02 4.889861613408904573e-01
-4.149939143102693295e-02 -7.759234299376195632e-02 4.556434069074308812e-01
-4.175428169756478791e-02 -8.856008364172671121e-02 4.658370068728588387e-01
-4.812632843683609107e-02 -1.068961286626401441e-01 5.002833952252041527e-01
-1.016468229832688669e-01 -7.958490602324788665e-02 4.801934202588046818e-01
-7.195515810064574691e-02 -8.860373588517395094e-02 4.748142149888410768e-01
-1.356798265779525156e-02 -1.226855563911614655e-01 5.265164171780684077e-01
-3.813399415041126422e-02 -8.604276097480152707e-02 4.620297584107639910e-01
-6.509966982951960468e-02 -1.046138613317126598e-01 5.360116339794889218e-01
-5.344947147721228198e-02 -4.602624840706662918e-02 4.448314139893917996e-01
-4.537997157388701241e-02 -1.117078833714885977e-01 5.288074366890604949e-01
-9.734171493795744368e-02 -6.391449028183386616e-02 4.832368656839593490e-01
-2.692932612495162192e-02 -9.730669509165273956e-02 4.674805627482132020e-01
-2.385179240536718093e-02 -1.122264726445240668e-01 4.894636529904846101e-01
-1.038431685442326446e-01 -8.149248493702379581e-02 4.844266525609705054e-01
-2.808974080424981798e-02 -7.288183623376509601e-02 4.497014672839792504e-01
-2.474968867908920039e-02 -1.071643377216470738e-01 4.806428222780947390e-01
-2.646983029721959244e-02 -1.141364021457699496e-01 4.978901914459036848e-01
-2.311620579310987370e-02 -4.681563449508619607e-02 4.426889695139665792e-01
-6.721039578940546377e-02 -8.718008282927260100e-02 4.705341622696450066e-01
-2.436068560694536200e-02 -1.186697944033080349e-01 5.259978041733956999e-01
-8.822353857430825785e-02 -7.189461253610811287e-02 4.621205950698764608e-01
-1.129093336766963801e-01 -7.573928598706072823e-02 5.020096142163418262e-01
-4.650477012866004178e-02 -1.059288277876723888e-01 4.962550443160574920e-01
-6.385708683404267560e-02 -9.983498563682158267e-02 4.945298865934906751e-01
-3.651284151121157728e-02 -4.614966677741565160e-02 4.439064422702375112e-01
-1.724867514466597515e-02 -1.068867870273190607e-01 4.749472386559543402e-01
-5.761273091084453263e-02 -9.963194102533380614e-02 4.892368356543285723e-01
-1.002262338326236624e-01 -9.290752247457201296e-02 5.136635048152572436e-01
-9.756216751116794650e-02 -9.115477979215313997e-02 4.986000231427161200e-01
-2.523145999639057196e-02 -5.555076308611359148e-02 4.439414211844934788e-01
-4.573583948382857478e-02 -1.021927878523114647e-01 4.870895839872422250e-01
-5.051666330496126789e-02 -4.200192343538518974e-02 4.440740788897693525e-01
-8.986549093903187235e-03 -7.783155228469355869e-02 4.495871385569640832e-01
-9.848063064949325041e-02 -9.386023337395935084e-02 5.175443058641947536e-01
-7.646474229406940992e-02 -5.353813661727242768e-02 4.528025784826941735e-01
-6.276761536185802848e-02 -1.010496508297043378e-01 4.970195349805891505e-01
-7.457236497166738753e-02 -8.081959850199935125e-02 4.638216699016409761e-01
-6.910534602561972661e-02 -9.557242086884626397e-02 4.867543112904402225e-01
-5.061585697537090978e-02 -7.383045687898658060e-02 4.554079426449301748e-01
-2.831114898498387697e-02 -9.869819501337950829e-02 4.699693943928761053e-01
-4.050085126790083784e-02 -1.119836667294481364e-01 5.105677430990256394e-01
-4.669300887014005141e-02 -9.624559406244119486e-02 4.769585750209098807e-01
-5.101136798354596880e-02 -7.386651994145822242e-02 4.554974248537798642e-01
-7.531812579730605417e-02 -9.474277652498563906e-02 4.895816230249840362e-01
-2.694093371851925128e-02 -1.035187635961644509e-01 4.764991917070490191e-01
-4.639025470266745083e-02 -9.603967109111265221e-02 4.764880248639381533e-01
-4.386891287785382731e-02 -8.724536940559490805e-02 4.649905798908273158e-01
-1.013496730200034862e-01 -6.702709172613333100e-02 4.850747689252766781e-01
-3.490603333364052790e-02 -5.503621932757694207e-02 4.451878017391445175e-01
-5.538843088542191179e-02 -8.452986024114107766e-02 4.644219735127328996e-01
-6.292759705754430444e-02 -7.858702830464046885e-02 4.595125899315668505e-01
-1.522807933320290824e-02 -8.742827378715886666e-02 4.554094597261241772e-01
-1.080660422822572880e-01 -8.843255265750415983e-02 5.218533598780492611e-01
-8.094723991396970963e-02 -8.748893830788152803e-02 4.780487286513588341e-01
-8.336053010066687974e-02 -9.899693825254865520e-02 5.223171582000923907e-01
-7.266644231767767359e-02 -1.012482023508095297e-01 5.096848397176356738e-01
-1.128490133192652789e-01 -8.165368251332506822e-02 5.036065611240898576e-01
-5.717402482379140699e-02 -3.318162207560750726e-02 4.511620347294975630e-01
-4.881471518225512923e-02 -8.196233006555961320e-02 4.609170030964819254e-01
-8.246612257537840052e-02 -9.933461127840610694e-02 5.194740955598791121e-01
-8.376002471196826449e-02 -7.004909472469512954e-02 4.561934215392691172e-01
-3.849775492972684621e-02 -3.704240006413644232e-02 4.421197778468735073e-01
-4.682065925730737738e-02 -1.039001850365072338e-01 4.918477033125214226e-01
-1.063769367086087880e-01 -8.042972535516858257e-02 4.854119694793397888e-01
-4.396548265124522459e-02 -1.120958467164158562e-01 5.304576925460615655e-01
-3.639807441617760875e-02 -4.920600737707121752e-02 4.442543001881772979e-01
-3.118725150719673864e-02 -1.023695831939242101e-01 4.780398022821057968e-01
-1.072515254476827246e-01 -8.678933605179077471e-02 4.997566527537595782e-01
-3.953100651926189091e-02 -1.125624521379534476e-01 5.121033615312327036e-01
-4.230169260785582308e-02 -6.127670718721928145e-02 4.474895777017140475e-01
-8.859791757837283052e-03 -1.226411337500606102e-01 5.082230740603295160e-01
-1.840693589540111363e-02 -5.787988877474437716e-02 4.431468819522476066e-01
-3.545915692757930365e-02 -5.450656991430015419e-02 4.451375465675733722e-01
-5.576082328128537796e-02 -2.592202874960916267e-02 4.471083144692396538e-01
-1.059523774015042608e-01 -8.226156182852732701e-02 4.871749745134906218e-01
-4.105200856367329648e-02 -8.576238800090230097e-02 4.625053059937162536e-01
-3.478890469885354692e-02 -1.033275467566001082e-01 4.821483734811030653e-01
-1.889330323514932727e-02 -6.637819936018785061e-02 4.458141856097610489e-01
-7.131445361273282268e-02 -9.010322004130741358e-02 4.772252795252450164e-01
-6.629014786145406846e-02 -9.412081269739658307e-02 4.814525805766948774e-01
-6.817171610079617028e-02 -1.044244188585044669e-01 5.208952224873515391e-01
-4.083192735051201228e-02 -8.795814548778640996e-02 4.648843822323751596e-01
-3.255377936020943663e-02 -1.151357136398872688e-01 5.389069625883161629e-01
-9.875593297391264958e-02 -9.069663248554002410e-02 4.985171836686507207e-01
-8.286633120804245967e-02 -8.608499990401244362e-02 4.766838305451934765e-01
-4.441416843792860697e-02 -2.855888895037607747e-02 4.404944466140054415e-01
-3.808037208382541311e-02 -7.778769341929056558e-02 4.547047844477607459e-01
-5.185813222557252022e-02 -1.090738786260645188e-01 5.361835785842397062e-01
-9.863837335541619095e-03 -1.181911632373333354e-01 4.946734236656089578e-01
-3.043612116928045078e-02 -3.993607242147097225e-02 4.428770743914366981e-01
-1.042177586039531867e-01 -7.023396976029068484e-02 4.850073876737056033e-01
-5.559062583429749682e-02 -6.633741486175791235e-02 4.510259263537945706e-01
-3.199621301457219319e-02 -1.020786759566620211e-01 4.781414693626813706e-01
-6.937416944644711481e-02 -1.037170268667170631e-01 5.185936549797894868e-01
-1.847234583220534916e-03 -1.207380377941416755e-01 4.992757952446868486e-01
-5.611151482271949098e-02 -3.146353056747352300e-02 4.454595544479512115e-01
-8.287677209595180339e-02 -9.829640366942284102e-02 5.105746700493811741e-01
-3.082860022055850663e-02 -1.159405580778723743e-01 5.369215742134397784e-01
-1.055160485967494843e-01 -8.431274654669973501e-02 4.905462493562908199e-01
-4.184783265051887635e-02 -4.324004017449220583e-02 4.433611876761253678e-01
-5.415574576723145017e-02 -5.301081649374690674e-02 4.458896439560467995e-01
-3.769133166486633019e-02 -1.140940117119566555e-01 5.262937168555000822e-01
-1.031323335400328167e-01 -7.522427102838516455e-02 4.796686955147602682e-01
-6.332099802738379302e-02 -1.038919253996800907e-01 5.080944302198413531e-01
-9.353556176323621352e-02 -6.468486649078306061e-02 4.707285563850966414e-01
-2.053411297774898267e-02 -1.202363876746902205e-01 5.229923679838046624e-01
-6.733433434742705503e-02 -7.623882978222257245e-02 4.572515186754738670e-01
-5.529023555820401781e-02 -5.783618059002703510e-02 4.474581836297394366e-01
-7.041691780166466075e-02 -8.463224117397534496e-02 4.678531858844697799e-01
-3.051986701168395849e-02 -6.123056170436495804e-02 4.459895777580936693e-01
-7.588807970731617503e-02 -1.011596038346465054e-01 5.149787309739927155e-01
-6.127080081849208687e-02 -9.398371292922114151e-02 4.785510408946347383e-01
-3.115450183432764281e-02 -9.706465410233906799e-02 4.700160763359781946e-01
-6.103279881906163024e-02 -8.475938241794260530e-02 4.655509614653000616e-01
-9.835959601929827878e-02 -7.882137955395830675e-02 4.763194008889936049e-01
-5.540894494624412636e-02 -7.601978801707996725e-02 4.574386837557183338e-01
-2.510765216813990244e-02 -1.182657803447244999e-01 5.151340370228160159e-01
-6.567254552493573261e-02 -1.032270013809381132e-01 5.086397451453661400e-01
-8.868853143594408739e-02 -8.230709884360738748e-02 4.740318598251060944e-01
-5.631470820474339389e-02 -1.076617994943165624e-01 5.176373525940005660e-01
-4.466858630166161553e-02 -1.063822836072062655e-01 4.956909263017574840e-01
-4.159762125804755684e-02 -5.840856546718148357e-02 4.466710472677531962e-01
-6.862195037699063416e-02 -1.028595844554737460e-01 5.116627926221738454e-01
-3.123054775183773876e-02 -9.284591900880913296e-02 4.656047124763079692e-01
-5.060145941223929966e-02 -4.205081379659277724e-02 4.441037136886658021e-01
-2.501831232003806985e-02 -1.133897385455871626e-01 4.935510826453626265e-01
-6.267118089568990413e-02 -4.329223813705353197e-02 4.483392944697401350e-01
-1.107040992795276096e-01 -8.075757985653296556e-02 4.942276282187057501e-01
-3.699541135795850200e-02 -9.033845260027312252e-02 4.660259197811251197e-01
-1.067448303092971146e-01 -6.948187166292868477e-02 4.951535320396901474e-01
-8.107320723649905081e-02 -5.705771518570090101e-02 4.531626397300634879e-01
-6.749892823873661352e-02 -1.039993093025534387e-01 5.342245742991986734e-01
-9.032277784643556739e-02 -6.393470177581700442e-02 4.638803708400155434e-01
-8.457197061235190161e-02 -9.808012077924747885e-02 5.125223519375526893e-01
-2.940933139166080484e-02 -1.078681473414768860e-01 4.866499997208639794e-01
-2.196754305705223009e-02 -4.789411112713377883e-02 4.425772073444069199e-01
-4.652473322585756049e-02 -7.561473392695822193e-02 4.558168372219059128e-01
-1.625768126931743940e-02 -8.469661256845344155e-02 4.537945335973584404e-01
-7.419179188192370766e-02 -1.013719515654659953e-01 5.127777100868297078e-01
-3.084858600580044075e-02 -8.035542086880352597e-02 4.540374745803403278e-01
-5.973535182808604321e-02 -7.627586000971026126e-02 4.576922123572509937e-01
-2.183555319487699015e-02 -1.127453863353360813e-01 4.886071608194907379e-01
-4.091509819071325466e-02 -1.027826482795062557e-01 4.849452642086454768e-01
-9.777426789121039519e-02 -9.350304940573919699e-02 5.099762740080152623e-01
-3.152443058596670483e-02 -1.053312095239874874e-01 4.837011024552055338e-01
-5.732733112286111238e-02 -1.076327636828726120e-01 5.328846256843806639e-01
-1.866080108296028564e-02 -7.561338361175180822e-02 4.495588022356734048e-01
-5.471552589537663491e-02 -1.088890968245735114e-01 5.283020461850339577e-01
-1.374344597077675582e-02 -8.799034951383259695e-02 4.556216874427937435e-01
-7.172579751266809633e-02 -8.127253117368746227e-02 4.635451122146170833e-01
-8.342940423546864326e-02 -9.873403768840290085e-02 5.155714885953759374e-01
-4.934860049942429994e-02 -6.966238367960195244e-02 4.524488638038874355e-01
-1.115850209896598472e-01 -8.527017909269163365e-02 5.091696588134287937e-01
-9.966031877923195448e-02 -8.327116395214916034e-02 4.830128340290107403e-01
-5.556720254021379340e-02 -1.068650786284154608e-01 5.396694235360823821e-01
-4.158871197482211929e-02 -4.248196789940096585e-02 4.432134047935074039e-01
-8.160788795993824396e-02 -7.530521384294394660e-02 4.601990132190791893e-01
-1.897975630570124944e-02 -1.137196509177208631e-01 4.884342266686462763e-01
-7.844025910546691127e-03 -1.214711405531498367e-01 5.026592515695987862e-01
-5.039894833172500060e-02 -8.731598283643557390e-02 4.666290310238327965e-01
-2.513549107764909835e-02 -8.981298894202081884e-02 4.594732308010563981e-01
-7.302249224467963207e-02 -9.959889701949946328e-02 5.030637294177393581e-01
-4.985284535946599843e-02 -2.789584525588992975e-02 4.415325588766232379e-01
-5.808953145194273304e-02 -1.077208059955094832e-01 5.304017107914758000e-01
-8.125292556419753953e-02 -8.941711504160922142e-02 4.817891218268766096e-01
-1.129044610321137815e-01 -8.156149316515308445e-02 5.068583705553040275e-01
-5.376657021008383192e-02 -1.079160891857214449e-01 5.135956131049943529e-01
-6.697588290368709785e-02 -1.041104667284930563e-01 5.347684396657271799e-01
-1.750542408846959136e-02 -1.070646210346177934e-01 4.753170581003408612e-01
-1.894434495479052280e-02 -1.207784223082965375e-01 5.181210594277916304e-01
-2.427506128018635037e-02 -8.243968504443548173e-02 4.535741994427606172e-01
-4.574326720545177777e-02 -6.841488418042949993e-02 4.512702597882788935e-01
-1.038429238060629804e-02 -1.224076695227592354e-01 5.088113949138833858e-01
-1.621605260537664628e-02 -6.877287802444102816e-02 4.463875531126189622e-01
-5.550879370381367472e-02 -1.080969959725151808e-01 5.189913863998389942e-01
-4.820770808458582635e-02 -6.962248167011271527e-02 4.523002131723449781e-01
-1.036944007665108192e-01 -9.158671818824473676e-02 5.168180167479705656e-01
-4.096841007616044972e-02 -1.125022517381099874e-01 5.387340472763513244e-01
-1.093124307232885700e-01 -8.617076859583551462e-02 5.025110524091356279e-01
-5.117644855323901648e-02 -7.154531087651652688e-02 4.539296041794667058e-01
-4.371937791837943177e-02 -1.119082587354418706e-01 5.194726053574697522e-01
-3.049977758455750532e-02 -1.164385261489963436e-01 5.189099372468524152e-01
-8.849768911689327722e-02 -7.835174878209090477e-02 4.686983820379534427e-01
-6.829556711645738687e-02 -1.004056538723516190e-01 5.007667468038898839e-01
-2.590549592514364285e-02 -7.689091066260889118e-02 4.511453739103585825e-01
-1.338545429319712432e-02 -1.185771907212174181e-01 4.972873350001121295e-01
-1.645421758442370316e-03 -1.189458909680937843e-01 4.946756321418568358e-01
-1.381584185651385521e-02 -1.223447838970812968e-01 5.147541862083355735e-01
-4.465792285461549910e-02 -1.117656163029015631e-01 5.319954347260936744e-01
-8.326224411674638948e-02 -7.702500612181263639e-02 4.634445227699554581e-01
-5.610354791655627199e-02 -2.762900502931911820e-02 4.500579532356486223e-01
-1.774826213298667105e-02 -9.269061914075381325e-02 4.598991829904485740e-01
-1.711560562454192067e-02 -1.191517391693290018e-01 5.444269920933516582e-01
-2.435276259621963965e-02 -1.183724057277029257e-01 5.323888366601764455e-01
-5.441364558864454637e-02 -5.578178853341800997e-02 4.467397416894645090e-01
-4.369627238991885543e-02 -8.364170215502428340e-02 4.611960353113679911e-01
-3.662609673296094576e-02 -1.021283359308695626e-01 4.811735658674513028e-01
-4.655073833853934362e-02 -7.119275697887930687e-02 4.529038123949220562e-01
-8.621878059698077912e-02 -7.023948986545597295e-02 4.583914171720847586e-01
-4.834204509966313207e-02 -1.102725545716362193e-01 5.357858875131793486e-01
-3.282313226219009394e-02 -8.753522058145558893e-02 4.611060580416455612e-01
-9.762115831669723742e-02 -6.471912172583034473e-02 4.812053899570731264e-01
-8.982222433323477917e-02 -8.648261767496474850e-02 4.812561142844222761e-01
-5.998896425436280738e-02 -8.432350754222350808e-02 4.648530068761480005e-01
-6.141579258128157526e-02 -9.352465992476331758e-02 4.777607014041884148e-01
-2.276817430806651887e-02 -9.627021403805073596e-02 4.644820725442510567e-01
-1.308499646739360103e-02 -1.103541940066025545e-01 4.784318969378272834e-01
-9.171226459865380876e-02 -7.406658348481834353e-02 4.666594577693080614e-01
-2.919484555949637683e-02 -1.168174081795046310e-01 5.304470151836134795e-01
-2.535584721503420652e-02 -1.180319696396578272e-01 5.324202742309934733e-01
-8.627407046710715288e-02 -8.384429496495873768e-02 4.749880805126197592e-01
-3.058394632148439540e-02 -7.853749267767479170e-02 4.530602255318423865e-01
-4.919218414567803205e-02 -7.230423362647041274e-02 4.541547452476232816e-01
-4.212092654724312185e-02 -1.084290118851679863e-01 4.989154832127399852e-01
-9.125897494807067023e-02 -6.972832587952540462e-02 4.649012729655680465e-01
-1.012972620987550448e-01 -7.242460582896170784e-02 4.770670223467465276e-01
-3.081011147350893806e-02 -1.145900047497272201e-01 5.060669979085357095e-01
4.137042525544061891e-03 -1.258022423259935463e-01 5.217283570652336833e-01
-3.096932286259262632e-02 -4.100129247865442333e-02 4.430592329495924298e-01
-8.000047885793531988e-02 -1.000937653427206031e-01 5.278202015371570299e-01
-9.793301573434486096e-02 -9.374051301677781278e-02 5.219826534009981422e-01
-7.198949791622441530e-02 -9.591998968591433639e-02 4.900409060349777413e-01
-1.101334407899498546e-01 -7.516009693123582025e-02 4.908581358056581245e-01
-7.010364732157403633e-02 -5.608056066498779552e-02 4.475046987306762203e-01
-8.811471276149836218e-02 -7.119345544484340094e-02 4.616551387601121048e-01
-4.921106592817683228e-02 -8.090464526360870157e-02 4.600181779242302760e-01
-7.939268573513877381e-02 -1.004024583920518632e-01 5.266175936012192915e-01
-6.296722017614619915e-02 -1.061170207224753081e-01 5.211925824496377313e-01
-1.544334366326644697e-02 -1.154150526889619610e-01 4.903908337087543590e-01
-4.078529837329094437e-02 -5.303274743433841754e-02 4.454058463406417312e-01
-3.952805254298754484e-02 -1.135256784406778185e-01 5.267226398811046817e-01
-1.080276873756935985e-01 -8.429286622210201141e-02 4.941610891671630590e-01
-1.013045465033198811e-01 -9.127982945475093812e-02 5.059225195094348981e-01
-3.245485274369733220e-02 -1.146241677560862898e-01 5.429051644337553606e-01
-2.108471949484002142e-02 -9.606289980446391930e-02 4.635423408430989767e-01
-1.066224451368908560e-01 -8.581488772402839915e-02 4.957721861939000108e-01
-9.007476742170543449e-02 -6.963374579655748353e-02 4.628580431956636487e-01
-6.508211136516517392e-02 -1.051939286295675430e-01 5.193788079226567822e-01
-1.561410872749793930e-04 -1.233753068381363421e-01 5.075436803982623646e-01
-5.289266359982943561e-03 -1.248196973284370487e-01 5.167348625338800128e-01
-4.977650239717274633e-02 -1.084242281843988964e-01 5.084172772603215984e-01
-2.999982556529135966e-02 -1.023589469373295674e-01 4.771032024955500495e-01
-1.095018079588658405e-01 -8.041563063425062607e-02 4.903801962829354988e-01
-9.677893587023037036e-02 -9.443918205790807763e-02 5.182647762067318364e-01
-2.133993662415031162e-02 -5.524570637152710628e-02 4.432738072440185473e-01
-2.249633765116436715e-02 -1.165993774854704318e-01 5.479239506746782506e-01
-9.763517454717822452e-02 -9.381066696745461730e-02 5.115556816310008470e-01
-3.161825793513290545e-02 -1.030715084404432297e-01 4.795022708112688381e-01
-7.339178170647080168e-02 -1.026822974781830128e-01 5.210962987189953211e-01
-2.498658605503577962e-02 -1.184757089669112723e-01 5.182576641115052007e-01
-3.598246919397519311e-02 -1.146467808168937924e-01 5.252973801374923868e-01
-8.838039176364638483e-02 -6.365292844654245330e-02 4.607126934053412115e-01
-5.532354595511198431e-02 -2.218785772382386723e-02 4.498138366936132448e-01
-7.678194656581975586e-02 -6.670374411052881758e-02 4.503425606015434846e-01
-7.428580767312553679e-02 -9.482763449978957870e-02 4.888485400655321889e-01
-4.210863048207964116e-02 -8.336085789190450512e-02 4.605388568687670547e-01
-3.656161727072589768e-02 -5.823056510212297476e-02 4.460696726369980936e-01
-2.040409436625064202e-02 -7.076740707205944614e-02 4.477270257142251242e-01
-5.418209277399908125e-02 -4.856452224492090880e-02 4.450876682943355478e-01
-7.881498874202523541e-02 -8.457991466553330118e-02 4.721083937185390211e-01
-7.572374438845218617e-03 -1.027560307769478931e-01 4.674918375318359853e-01
-2.265106052946280757e-02 -1.160970248249343501e-01 5.496198704987692585e-01
-6.132584834244581701e-02 -6.820232223818289974e-02 4.517775835326013900e-01
-3.640893833650597072e-02 -1.129139634534127579e-01 5.072155312110131486e-01
-2.829442057377177730e-02 -1.115541422940456162e-01 4.937382506436465146e-01
-5.033386770992030051e-02 -6.372242394185516356e-02 4.495086415560251569e-01
-4.139561304191340108e-02 -6.619013699008363671e-02 4.493369767373316948e-01
-3.512835835354993080e-02 -1.146186289527985902e-01 5.359570160674488326e-01
-1.059669985891012745e-01 -8.659831789607728980e-02 4.967227821087570883e-01
-7.260689593259381236e-02 -1.028028032495190286e-01 5.195467758523489854e-01
-4.095692259883457198e-02 -3.662216127906729735e-02 4.419021711228292570e-01
-1.839092696234838342e-02 -1.180039171244062907e-01 5.477643051998462020e-01
-4.953614959304927789e-02 -8.464118407298823477e-02 4.635674722910764212e-01
-6.500015065360537081e-02 -6.511917042524907606e-02 4.495059319842510948e-01
-8.871713879590448215e-02 -8.419511188307546301e-02 4.768115572599998520e-01
-6.896322289541439998e-02 -8.439888526653215040e-02 4.670417961069444068e-01
-1.297948129236563969e-02 -1.197185685401437744e-01 5.005274584428420770e-01
-8.562660695333706995e-02 -7.673654520404818435e-02 4.644509639419834857e-01
-1.934210193890563076e-02 -1.201684682057689163e-01 5.130598048983774362e-01
-7.668280899533650233e-03 -1.191064347687409708e-01 4.960425218612009579e-01
-1.870871460640630840e-02 -1.143729572078404644e-01 4.899529087685645656e-01
-7.294058757934746007e-02 -9.156481087405926589e-02 4.809276249523048441e-01
-6.978947000171167869e-02 -8.284699149643767746e-02 4.650660059581873673e-01
-1.071080721400545499e-02 -1.233927477634272213e-01 5.301029034707023246e-01
-3.676135645388876189e-02 -1.117551532793964048e-01 5.035247973234239227e-01
-6.911335013496376634e-02 -8.741600394317225464e-02 4.715841931922462038e-01
-1.058669502673939694e-01 -7.025725971477626841e-02 4.894337776189203737e-01
-1.634835604730812408e-02 -9.785367709009253068e-02 4.641945804123379649e-01
-1.076104193711075324e-01 -8.616714906490194337e-02 4.987418882189859626e-01
-8.746403931380888896e-02 -9.636999512297984849e-02 5.075638306978627057e-01
-8.161266176539601347e-02 -9.628771997441852581e-02 4.999586966527692078e-01
-7.740284754116816268e-02 -9.804153267898688129e-02 5.023570285129979052e-01
-1.751605996991846895e-02 -1.141747107531368571e-01 4.886041618158367683e-01
-2.918935237158873028e-02 -1.131231590590947161e-01 4.992503736254749747e-01
-5.449168544532700248e-02 -9.580174968995223972e-02 4.791552273952199292e-01
-1.004886773721909987e-01 -8.841107243435000762e-02 4.932550114779779005e-01
-1.013495088775127895e-01 -6.792427487047524026e-02 4.823555442610557020e-01
-2.684374140382755555e-02 -9.541018152873644020e-02 4.653829573675156150e-01
-4.414792709805837739e-02 -8.430625401760635795e-02 4.619421876898890944e-01
-8.746981937589426437e-02 -9.741413829861836349e-02 5.171333004624502072e-01
5.471656010875382281e-03 -1.259060020798259405e-01 5.353107711140265845e-01
-9.528233061386795488e-02 -9.363199596953053483e-02 5.275650563976256313e-01
-9.245217061406631187e-02 -6.384661800356729311e-02 4.697633030751745542e-01
-2.061764180983238770e-02 -1.201735464895107713e-01 5.246084770780768958e-01
-1.065208689745508197e-01 -8.932518891256154003e-02 5.076370215798617913e-01
-7.003212723062662848e-02 -7.900773341879113731e-02 4.600722021678241291e-01
-7.927362608111578057e-02 -1.004896233691719015e-01 5.234639311451716459e-01
-9.677608963438065481e-02 -9.417063514829838999e-02 5.119845697477721780e-01
-9.124696525785006007e-02 -6.343831514250684867e-02 4.677169676116901820e-01
-2.347213637062380703e-02 -8.024590680225876516e-02 4.523682122066861599e-01
-9.336140534057575657e-02 -7.311806806857494567e-02 4.672946919646970843e-01
-2.866161390194011532e-02 -1.074699159859277831e-01 4.853206254400332931e-01
-1.021911616072188576e-02 -1.182493454445823489e-01 4.949647996334804456e-01
-6.282732910246803526e-02 -1.063461470238305506e-01 5.259259692122572050e-01
-8.669607797354006440e-02 -6.384902022565799862e-02 4.569450396500725486e-01
-6.545236939529366915e-02 -9.873862294153258612e-02 4.927285070120271393e-01
-3.001944776609735341e-02 -4.155695733841438533e-02 4.430807987122211689e-01
-3.906766697423935328e-03 -1.223249330065369900e-01 5.041093468048279957e-01
-2.973864095064383123e-02 -7.612043115594488429e-02 4.516470194350705181e-01
-4.065080195949366537e-02 -7.029270014793334576e-02 4.511528395569132655e-01
-3.227847563883699117e-02 -9.721280695096273794e-02 4.710018239536948315e-01
-3.805999207077288143e-02 -4.321152764016256143e-02 4.434522753650214644e-01
-9.001668793165681914e-02 -7.095604691660811758e-02 4.631640800639129085e-01
-8.185498864411739489e-03 -1.185164651919608375e-01 4.948048995422277829e-01
-5.299300311588966278e-02 -5.596449804121679528e-02 4.467309398634455864e-01
-7.374003105845816641e-02 -1.009322392506798033e-01 5.368428550579871228e-01
-2.378282942350899362e-02 -1.157135170856259804e-01 4.994540470049019243e-01
-2.929748929460123871e-02 -7.217411616804669805e-02 4.496752563020733340e-01
-5.053924385247875878e-02 -1.097024607713092959e-01 5.344288798658973771e-01
-6.462737403565976292e-03 -1.220294322781478175e-01 5.036518411302663978e-01
-6.334051655406267023e-02 -6.924247802368700688e-02 4.524196146932023543e-01
-6.508511011470312357e-02 -9.490152763423273519e-02 4.823378409987115756e-01
-3.857052448139731277e-02 -7.652703354289920601e-02 4.540597008929307954e-01
-6.850383790490763292e-02 -1.024649668378383865e-01 5.095097335829505969e-01
-1.056347139308887600e-01 -8.757007347909694095e-02 4.989555638010970129e-01
-9.539483370770585058e-02 -9.470967615286755847e-02 5.125636695129492937e-01
-1.570667520619711127e-02 -1.024768422448615879e-01 4.687256852752015868e-01
-4.622514273226158155e-02 -1.114080592926835755e-01 5.253944830838306324e-01
-3.432123381998022915e-02 -1.127572037687868955e-01 5.038923566624404771e-01
-2.475904027338022076e-02 -1.150851668273175921e-01 4.986641387768712685e-01
-5.200067020930525946e-02 -5.525760106752790335e-02 4.464766973187933585e-01
-4.006351610368371480e-02 -7.413182493681522156e-02 4.530246142456343383e-01
-8.332986035657535817e-02 -7.317307250577240185e-02 4.590113036164080174e-01
-4.345855285217169184e-02 -6.903945784607379288e-02 4.510822557477643935e-01
-6.113179821135765989e-03 -1.168555122630410420e-01 4.899090359894430757e-01
-8.935718332165831779e-02 -8.814153729876909871e-02 4.838326867570219569e-01
-8.199464745226055229e-02 -7.814488921517492859e-02 4.642049416608977630e-01
-6.755447131827753415e-02 -1.047104986986070879e-01 5.293545439446774026e-01
-4.478371278033996261e-02 -1.060417072774570424e-01 4.949916485968423596e-01
-6.731707215402256417e-02 -1.046707586985228394e-01 5.301615286453299491e-01
-1.363792111568680118e-02 -1.171880711562423849e-01 4.937650164485653526e-01
-1.142784162767087990e-02 -8.393373100546054622e-02 4.529383354825411434e-01
-3.619328784146333411e-02 -1.135017851394376082e-01 5.103733735419462292e-01
7.539210191609474129e-03 -1.258258758397421406e-01 5.206665737386126924e-01
-6.260431028486496130e-02 -1.056575579385740787e-01 5.171891332600148106e-01
-1.048697586906448612e-02 -1.061377009122262821e-01 4.715634162111079775e-01
-1.027162852801900977e-01 -9.207936930767868233e-02 5.175851324409632692e-01
-6.878587642593621265e-02 -8.138150188420785469e-02 4.628769839769762973e-01
-4.558080456162254962e-02 -1.116413746381727384e-01 5.284535626598637625e-01
-5.666735520439004914e-02 -7.448879279032845357e-02 4.564164622139111893e-01
-5.785301938474184114e-02 -1.078895733888568520e-01 5.268531694510169006e-01
-3.360115008567356176e-02 -3.748757899186357101e-02 4.424560588516103232e-01
-4.859326782142009415e-02 -3.691984925534486789e-02 4.427014239325808287e-01
-7.784122997836422087e-03 -1.242066948926175141e-01 5.163178642497620041e-01
-8.491071189386259488e-02 -9.018224899461159405e-02 4.854264433178184235e-01
-3.260345940413492821e-02 -1.104838831260864518e-01 4.958742517549170059e-01
-3.720799913999167652e-02 -1.142520788925540653e-01 5.257854916550100954e-01
-4.982683020704149063e-02 -1.011340631717441152e-01 4.879461772158440458e-01
-6.163713352396699846e-02 -1.065978056042003880e-01 5.306476820286162299e-01
-1.027713527474918009e-01 -9.123280957481606779e-02 5.089832007686529991e-01
-3.765868899496064431e-02 -1.141023991463152726e-01 5.284738476596750889e-01
-9.008230798059091438e-02 -6.170798999203165602e-02 4.677476921043264846e-01
-3.689008021173269432e-03 -1.255530117036957050e-01 5.204844891124393857e-01
-6.567867719918681069e-02 -7.233417189717414320e-02 4.544001592378684729e-01
7.777708396527268850e-03 -1.258813620856333582e-01 5.363134418358648237e-01
-5.935248259737333637e-02 -4.102711243053679124e-02 4.458103675459797466e-01
-5.322737801203837604e-02 -3.632304919210703475e-02 4.437801817541100480e-01
-6.881530992691550774e-02 -1.026418187239092478e-01 5.108995245415571818e-01
-7.707979630744704602e-02 -1.005925904820474531e-01 5.132300794519580878e-01
-1.060901693897412928e-01 -8.911899515937679594e-02 5.230680360425911113e-01
-6.305611397680539743e-02 -5.193890197160110078e-02 4.460039310754952413e-01
-7.858473451437664181e-02 -9.657434300112592573e-02 4.981158886978680478e-01
-8.730809066794681383e-02 -6.308001551621990333e-02 4.589065150682934968e-01
-1.117728287375462093e-02 -1.230903893610461597e-01 5.148651292920082279e-01
-7.584259422887720814e-03 -1.128939718673749315e-01 4.815767923634762804e-01
-4.641477017114901960e-02 -1.112988044630660728e-01 5.222546903014664288e-01
-3.953401505811281191e-02 -1.089844678499233138e-01 4.981407191716619720e-01
-1.023334548257013275e-02 -1.027203094279349332e-01 4.678615146372900879e-01
-5.405943143866607375e-02 -5.602805932617453688e-02 4.468001064099662578e-01
-1.429106420059499810e-02 -8.700077885190049543e-02 4.549836011925400547e-01
-4.756908043105415040e-02 -9.679866796021717457e-02 4.782404516883604906e-01
-1.025192084367910206e-01 -8.435749563698591302e-02 4.873866835157597555e-01
-2.786222966264117681e-02 -1.143026990619655237e-01 5.007154265643676272e-01
-3.745653419614832641e-02 -8.443436881354535184e-02 4.602307821349469474e-01
-8.214082071605560698e-02 -5.784817768676059346e-02 4.545982304344945990e-01
-1.443487354547806807e-02 -9.247097055334624338e-02 4.592157159231953223e-01
-2.539954506905978474e-02 -9.109810449629446305e-02 4.605763201518115468e-01
-3.736593951015363541e-02 -6.094040880807496952e-02 4.467937867849781641e-01
-7.710601740440736762e-02 -9.795653256444496193e-02 5.017244781514559326e-01
-4.826032898680820277e-02 -6.981272161996687764e-02 4.524321038458051225e-01
-3.028526989220184720e-02 -7.723389351200884989e-02 4.523372131647994676e-01
-2.757422272996344625e-02 -9.653974885165474140e-02 4.670300343351389549e-01
-1.006414074184238810e-01 -7.026350989723907647e-02 4.777681482868567642e-01
-5.419858823183823504e-02 -1.042895854977018144e-01 4.987987932631464116e-01
-2.636350674766742286e-02 -1.041556419246963822e-01 4.769754948142171380e-01
-9.342294270279793977e-02 -6.390121117176730814e-02 4.717493715264437504e-01
-4.159591918252019543e-02 -3.586401116565116759e-02 4.416710520858618816e-01
-9.163470633346486316e-03 -1.241250507747999610e-01 5.249277524457925947e-01
-2.018023506034300960e-02 -1.181741737420350241e-01 5.448566209953115136e-01
-1.796199059741939580e-02 -1.202698956234068695e-01 5.376695534675598465e-01
-1.006261330867504189e-02 -1.073001178100242009e-01 4.731849461390307265e-01
-8.878872380603726466e-02 -9.405381562981994514e-02 4.984365842741852459e-01
-2.405900519275441796e-02 -3.982868883342861183e-02 4.423959400149026777e-01
-4.158227572577977843e-02 -1.024846351545723733e-01 4.847638466433932258e-01
-4.503890639891081765e-02 -1.017700007901102127e-01 4.856803677354439852e-01
-3.691618910148147109e-02 -1.122111478537570484e-01 5.052286601232539587e-01
-8.012972896193200356e-02 -9.117868148322309796e-02 4.846698951088731500e-01
-1.172980509524605003e-02 -9.918091887113668348e-02 4.646665175233883338e-01
-4.324051475371372411e-02 -1.123626699834506248e-01 5.277994268226727792e-01
-9.147415785551173129e-02 -9.468023012841016162e-02 5.047956892520182315e-01
-3.751558984131405511e-02 -1.140704611543192359e-01 5.313981803129944614e-01
-1.028433009027247547e-01 -6.803604455465876721e-02 4.863001760702634346e-01
-2.626511008371648290e-02 -1.171325831817207203e-01 5.097808230033556987e-01
-5.876631678921333257e-02 -6.747261171808036084e-02 4.514286686477197441e-01
-8.644077576097418392e-02 -9.695889664978026012e-02 5.092239399782083620e-01
-5.615326584418954547e-02 -3.690674098452556562e-02 4.452508006896978010e-01
-2.001746622571773729e-02 -1.200637592286518812e-01 5.322157741667847830e-01
-2.662826455745986171e-02 -9.721239593041491878e-02 4.671762167773063079e-01
-9.380623709890249795e-02 -7.899879001210428908e-02 4.729663381869665950e-01
-1.540144866365078524e-02 -1.220872841819640314e-01 5.211758487903497272e-01
-1.971314465750482678e-02 -1.122836390638054238e-01 4.856576134078475215e-01
-2.959366215005578352e-02 -1.168395117416060197e-01 5.224300187876015356e-01
-2.092580712710795030e-02 -7.143075189361086652e-02 4.480393265191261465e-01
-1.292524096741978594e-02 -1.026461761147197671e-01 4.683008361025762789e-01
-4.029160514123500403e-02 -1.056929836361538561e-01 4.903752292001158364e-01
-3.365256003119329598e-02 -8.740453081634397270e-02 4.614194304599721352e-01
-7.638132865171883001e-02 -9.480255904411621914e-02 4.907669683907988634e-01
-3.179957386623778748e-02 -7.451763766143512657e-02 4.513187960282323830e-01
-1.600284925394120789e-02 -1.195793143806783698e-01 5.031872711610386739e-01
-4.966820451531784447e-02 -1.103914646487251655e-01 5.267521092570489616e-01
-6.553063310528986496e-02 -5.970095655543258828e-02 4.472677853933456071e-01
-3.128998069416646238e-02 -1.161564174552281725e-01 5.191783914028446079e-01
-1.049867300129484066e-01 -7.965640893336153883e-02 4.835541940290971064e-01
-3.349354348508915002e-02 -1.000901674264641356e-01 4.759313560146135602e-01
-1.861583900908612022e-03 -1.228760500920029197e-01 5.059644174243541626e-01
-5.224777574632084864e-02 -3.590189916274315329e-02 4.434447656051339615e-01
-2.406419219337440490e-02 -1.119822710150759904e-01 4.892167614274173237e-01
-5.312352249887906247e-02 -1.015124784653715917e-01 4.911990780408897472e-01
-4.454610489346951668e-02 -4.326256654411810704e-02 4.436242052076095899e-01
-1.053595629703914932e-01 -6.950307527152194131e-02 4.902269185695312115e-01
-2.723706850795724541e-02 -1.167444874130235122e-01 5.097013050731898920e-01
-9.526378933960592821e-02 -9.191293404079863005e-02 4.983778342865370359e-01
-7.126746828516590526e-02 -9.982941193870774332e-02 5.020516694484323805e-01
-2.824879416070246591e-02 -5.613869616597272350e-02 4.445127744516103596e-01
-6.798216186610471501e-02 -9.612031649143321088e-02 4.874462561390263127e-01
-5.808769811823753793e-02 -1.046377976945621763e-01 5.040759817526304642e-01
-2.966582098036190177e-02 -8.870242770826702872e-02 4.606331279261446365e-01
-9.051765397524311196e-02 -6.385524307409128075e-02 4.647010795499875169e-01
-9.823056409041817927e-02 -8.943571393463344010e-02 4.935949685167994039e-01
-1.483266972426171629e-02 -1.055581850489456380e-01 4.719825245001333935e-01
-6.660549295054897512e-02 -9.285234592989904945e-02 4.794208160423598652e-01
-5.271008088448672635e-02 -9.522879143952103775e-02 4.773191454443365123e-01
-5.675538457119495839e-02 -4.783741720483706411e-02 4.450954867207473353e-01
-6.635515461660833336e-02 -9.029555496301894246e-02 4.748800346429137842e-01
-7.006348644328398712e-02 -5.278769177936029622e-02 4.479737824737104468e-01
-9.311855713420280622e-02 -9.557189358676768109e-02 5.201145236331754518e-01
-3.997856084899729240e-02 -1.072793400651431278e-01 4.939634708616416625e-01
-5.609298076702440988e-02 -4.146392017245848632e-02 4.450699365215490810e-01
-1.821560808762873185e-02 -1.156521655672651666e-01 4.929428949436145402e-01
-9.765760943459288190e-03 -1.226695213992001904e-01 5.091952857604868932e-01
-6.104391580392086458e-02 -4.129306390399421767e-02 4.467575989620125032e-01
-1.949636457243111680e-03 -1.252658866966110673e-01 5.170517333027371265e-01
-4.000533010780591564e-02 -1.099373933384178992e-01 5.011224397058924307e-01
-7.212948398588728272e-02 -1.019109011887344290e-01 5.358239783642219090e-01
-8.513135557829927536e-02 -9.804710169678432230e-02 5.143259290378103810e-01
-1.092862266134434213e-01 -8.445179277315212341e-02 4.972838746249150788e-01
-4.583736497255280068e-02 -9.227150874255056479e-02 4.712600166999054152e-01
-9.660906050854990712e-02 -6.558998828207608656e-02 4.756633257761027633e-01
-7.770403514012177992e-02 -6.003959154877348825e-02 4.486422515217111107e-01
-1.102663097798574215e-01 -8.656378152838498097e-02 5.071054110825168326e-01
-2.851507680206272904e-03 -1.256584476569984343e-01 5.244389514199020441e-01
-6.476447413222011229e-02 -1.030640532852206970e-01 5.065161156503759088e-01
-1.607554664350212270e-02 -1.032864364103622812e-01 4.696246349804173992e-01
-1.375381135013373484e-03 -1.181204885542734839e-01 4.927191038820091795e-01
-5.374501745274451459e-02 -1.091957154790337281e-01 5.289090079679308332e-01
-6.440733735003185967e-02 -1.028504715392050961e-01 5.052091665076500204e-01
-3.922019157037456155e-02 -9.571407372727573637e-02 4.734148173076354049e-01
-4.014168861217377871e-02 -6.716874849249721002e-02 4.495079077314135252e-01
-1.048470278261936228e-01 -9.105807970724982825e-02 5.170103105539138877e-01
-2.844440254501896803e-02 -5.844849366331717616e-02 4.449729730706235564e-01
-4.855944878715418023e-02 -6.361817818082973752e-02 4.493278759894908658e-01
-1.122889864294296658e-01 -8.287777454079389705e-02 5.038366781610512657e-01
-2.993338181417487878e-02 -1.062867007464660118e-01 4.843494297858591535e-01
-1.376300613526634797e-02 -1.173166761306195099e-01 4.941883300679549840e-01
-7.456360143782789218e-02 -7.684369926968467879e-02 4.582655834919358573e-01
-2.187113205968830437e-02 -1.161196407886587317e-01 4.981098965077903062e-01
-9.370487027735351082e-02 -9.416902605486139610e-02 5.056306774087417910e-01
-5.106423647943799521e-02 -3.999048209866741532e-02 4.438261614297059343e-01
-6.287131010620400362e-02 -9.383772793082602315e-02 4.790801045150210324e-01
