-9.235798517784912787e-02 -9.222748322473731108e-02 5.336991075159300824e-01
-3.779043735510257546e-02 -9.053929103811912682e-02 4.682889423497205161e-01
-3.231707994795468553e-02 -9.442496889291177031e-02 4.688168687596341311e-01
-9.308446350490291038e-03 -1.125927582012476308e-01 4.823401159921388293e-01
-3.682423326702001509e-02 -1.121757920360363231e-01 5.070678159556631925e-01
-7.280959377977709590e-02 -9.791478538893787220e-02 5.032779019613906613e-01
-5.016911069506738152e-02 -1.061879063171862619e-01 5.032381085748511840e-01
-6.066913306161073743e-02 -7.827162490160449737e-02 4.626676697664167670e-01
-8.020142108463369779e-02 -8.518492765815398327e-02 4.793119877026618680e-01
-3.209363562564679362e-02 -1.101145929881169466e-01 4.955728758776153930e-01
-5.779554877538215646e-02 -8.558654891690775646e-02 4.692631839738701238e-01
-7.241213636614284022e-02 -8.051464280297326859e-02 4.680737548778368118e-01
-2.013249086045452302e-02 -1.120050763319610926e-01 4.862022215921768531e-01
-5.593207137688512715e-02 -7.283422076221238162e-02 4.583515555645016337e-01
-8.836119275480001922e-02 -9.567534278641166845e-02 5.198164582314674931e-01
-5.672808222820162338e-02 -8.985782362440489224e-02 4.741195114196950500e-01
-5.516010975839115427e-02 -9.614730355210304724e-02 4.839478384442717496e-01
-3.746899510104822334e-02 -1.137571456628943267e-01 5.319464956811468248e-01
-2.016842511466965943e-02 -1.092597319233420405e-01 4.810651921253825125e-01
-3.851963624446758799e-02 -7.813146522921886328e-02 4.567174400954944202e-01
-8.299029397975615785e-02 -9.738289423790134902e-02 5.303049805068282829e-01
-9.031836245533639285e-02 -5.726331617351961695e-02 4.707726312566440363e-01
-2.868610431807414388e-02 -5.469505967542163949e-02 4.449966954874026714e-01
-4.717947599643270568e-02 -6.022949474301827338e-02 4.494524376190688342e-01
-9.660573850235698590e-02 -7.500245521819004502e-02 4.756842072578727487e-01
-1.101166084639229326e-01 -8.124425567615764510e-02 4.985795817164940802e-01
-4.947025177202767771e-02 -7.731787966063026485e-02 4.599007579537577328e-01
-1.193231170327197638e-02 -1.231142861906511232e-01 5.286517994427781808e-01
-8.745933370299057916e-03 -1.227667685168841588e-01 5.089657677574177530e-01
-7.391215641472434483e-02 -8.058652357415248269e-02 4.688249992316203540e-01
-8.283958216743844694e-02 -8.791753910638028247e-02 4.857772393374041320e-01
-1.933043646705944266e-02 -5.288177231428118491e-02 4.427779242190565401e-01
-3.482748436120530755e-02 -8.962765696403396376e-02 4.655717063595771754e-01
-8.579995257245086326e-02 -8.139027239789972668e-02 4.768942717205544857e-01
-5.099562105610475071e-02 -1.093002332365057977e-01 5.238991149009369908e-01
-9.261703370671640900e-02 -5.938545842096545901e-02 4.726421266697169443e-01
-1.501932602702997673e-02 -1.081476864429568308e-01 4.766843448135683614e-01
-5.465478558833343492e-02 -7.510010612415164710e-02 4.595690230940960852e-01
-4.467230697605968637e-02 -7.516304904215816152e-02 4.568163282232395872e-01
-7.327479780157269973e-03 -1.229666985446595528e-01 5.364468934808264144e-01
-3.354546939954735491e-02 -1.137848304966708607e-01 5.088269476952416159e-01
-1.139315506777726326e-02 -9.324580158141498876e-02 4.600577362710055462e-01
-7.166505576317858117e-02 -9.370575228778021959e-02 4.896309227798658625e-01
-1.500122809066993003e-02 -1.101302877319471907e-01 4.796423560316470103e-01
-7.981400572128477533e-02 -5.745514369886448730e-02 4.521620106354182211e-01
-1.134523947941191296e-01 -7.937831760042254881e-02 5.124071038983633031e-01
-2.031104973896574392e-02 -1.202228168526728452e-01 5.243604073817609290e-01
-4.022603243944744555e-02 -1.007537074538192856e-01 4.827939017311402847e-01
-9.198179927022634428e-02 -9.407494980414177199e-02 5.153089963088172132e-01
-4.613761915803825386e-02 -7.577057477279067199e-02 4.577498588019026649e-01
-4.381691844455390394e-02 -9.515304866606477674e-02 4.764502227800239131e-01
-8.672436918509128512e-02 -8.248910495337209714e-02 4.790223055635065008e-01
-7.213564394359318899e-02 -9.396731307210945405e-02 4.907291341831216402e-01
-9.067292644546291747e-02 -6.163172755121460594e-02 4.650201837013347439e-01
-9.859286143734020957e-02 -8.933654719382413956e-02 5.032603955423167186e-01
-4.062941434122251116e-02 -3.151066999185064832e-02 4.414548719910440511e-01
-1.045200153591000908e-01 -6.605917116612206041e-02 4.895883831694844979e-01
-8.397955724531218358e-03 -1.187407325147449011e-01 4.961361910086849458e-01
-6.507260839207311409e-02 -8.063761005687150596e-02 4.659546272584882964e-01
-8.494771876727137683e-02 -9.658029665252754192e-02 5.298351289762786021e-01
-3.518106110386060720e-02 -7.156244749489326651e-02 4.519199338647269526e-01
-9.820465665458199406e-03 -1.206761754265534836e-01 5.021170290509363587e-01
-6.459569221955363538e-02 -7.251770691405125258e-02 4.589604592489167634e-01
-3.916290755809963969e-02 -6.524492740412281278e-02 4.499014539789472078e-01
-7.570169111452039468e-02 -6.347259441013090864e-02 4.535745606276568864e-01
-5.496850831649489899e-02 -1.068540665759576125e-01 5.150788962356913636e-01
-9.427139541381143739e-02 -9.280600260212822084e-02 5.112127067134958347e-01
-8.994008047680365769e-02 -8.023684980758258312e-02 4.775774806912073123e-01
-2.569057912209081820e-02 -9.884770817299358414e-02 4.691966937815856276e-01
-4.146955673311316509e-02 -1.115857690020499726e-01 5.140300415942596901e-01
-1.048779984804411175e-01 -7.666006246513833167e-02 4.852721359342255236e-01
-3.609404616134654492e-02 -5.693561994298801388e-02 4.467310426166558046e-01
-7.050389565446064932e-02 -9.637154625564674226e-02 4.959940251912310916e-01
-4.507608320342253172e-02 -4.836627690048771189e-02 4.458465897062026118e-01
-1.137912385545254285e-01 -7.823182865397484975e-02 5.112543639600302114e-01
-2.885704982611607752e-02 -1.098923287719656416e-01 4.915065929895314767e-01
-6.082225885854269237e-02 -9.864822020251234891e-02 4.932474388235671414e-01
-1.021255049977464087e-02 -9.772926216756802620e-02 4.636637944473815387e-01
-8.295132296780553804e-02 -5.275503100755385422e-02 4.591167251239748892e-01
-4.782990657230724862e-02 -1.024495222989797172e-01 4.919501585537237598e-01
-1.035258512484117099e-01 -8.852559711724927727e-02 5.265121659260915132e-01
-9.333191122058623335e-02 -5.909466348299562133e-02 4.749889630514324002e-01
-1.484257671779604972e-02 -1.213922379540128965e-01 5.364719447600848623e-01
-4.877088202462273592e-02 -9.005086790452897227e-02 4.719120548222208722e-01
-3.755273194625868144e-02 -1.136340162162043088e-01 5.340722140624311054e-01
-2.692786570916162747e-02 -8.843209436758230069e-02 4.599257622343370100e-01
-4.505555043146658445e-02 -1.112482166678119971e-01 5.233013006936377831e-01
-1.086234505774598957e-01 -8.715724871807857543e-02 5.204595652801996541e-01
-3.983701796355218483e-02 -5.141795193599319608e-02 4.459739910201607760e-01
-2.919279710173264264e-02 -8.747666523509071979e-02 4.601976080079590026e-01
-5.678194444258501117e-02 -7.464216585832443573e-02 4.596409671663308494e-01
-3.557078664441772758e-02 -1.133524627616587510e-01 5.437136618438288549e-01
-3.368956825646692022e-02 -1.128487738327053486e-01 5.052536803198200976e-01
-7.899191508223751823e-02 -9.631257496631730197e-02 5.049192534674007415e-01
-3.328937462096314553e-02 -9.434375942778383539e-02 4.693997537250442220e-01
-6.882686237291257836e-02 -9.341638888567431465e-02 4.865529794102166350e-01
-2.567649853868668453e-02 -1.172939909390882524e-01 5.109735371429245943e-01
-5.881656478884828010e-02 -1.067603139399610074e-01 5.317413361067286903e-01
-7.145791094062220461e-02 -1.022313605275603360e-01 5.217805766637311216e-01
-3.958554718646663251e-02 -8.364364049185320227e-02 4.619860910296380574e-01
-4.278736803507728059e-02 -5.324841747535280501e-02 4.468200590084401846e-01
-9.011406220125005306e-02 -6.298825347227983429e-02 4.636160722193833905e-01
-6.467329760620885160e-02 -9.560006449096163095e-02 4.887634909733297728e-01
-5.919945088241795189e-02 -1.060521011758887994e-01 5.366973826452501317e-01
-4.820276235821618210e-02 -6.160547364322650765e-02 4.503640977180905502e-01
-6.952052697639095336e-02 -1.013615058445807293e-01 5.126510026457941072e-01
-1.304674788879359171e-02 -9.068237760603425901e-02 4.581737630742392375e-01
-2.279036336233195015e-02 -1.189216327533887813e-01 5.146497702562522480e-01
-2.513689469943571411e-02 -4.277015745207832925e-02 4.431322181020894702e-01
-1.256498409095617615e-02 -1.173986285891452375e-01 4.946730716406333439e-01
-1.144364209293914289e-02 -1.233607875638319529e-01 5.262577907904694152e-01
-5.386464040941912196e-02 -7.769082816178231321e-02 4.612030407838381696e-01
-3.546194273001991581e-02 -1.099817762003890559e-01 4.989757103905431146e-01
-7.972597941460472792e-02 -9.913579991140988867e-02 5.234647634269802285e-01
-2.797334182248725765e-02 -4.245332754532404190e-02 4.435157970489736479e-01
-3.508407653527634285e-02 -4.118611032284484608e-02 4.437749835447110103e-01
-6.223042394804915306e-02 -1.047885966815399611e-01 5.176733066554926044e-01
-1.766638817290404340e-02 -1.014416493101542860e-01 4.689701825877849450e-01
-1.456988538317891858e-02 -1.222962332722863227e-01 5.276162513885370720e-01
-3.938342102414014306e-02 -9.930468254943081163e-02 4.800849418696440662e-01
-4.504429873337072177e-02 -9.793499432337253452e-02 4.811706886188233945e-01
-4.881552283540336462e-02 -1.026526232193569477e-01 4.933092980346845402e-01
-5.746945429386324244e-02 -1.071300878513875982e-01 5.231105478443560663e-01
-9.187175204785343052e-02 -8.983036378231230856e-02 4.966104716668249264e-01
-1.122223264536081344e-01 -7.296974722057812668e-02 4.999073379597678835e-01
-4.412244510483083818e-03 -1.238388673173495408e-01 5.108264390085840434e-01
-9.782472662637442529e-02 -9.038355293315566974e-02 5.061874280481639676e-01
-9.280722836439149470e-02 -6.533090416963931168e-02 4.682153050455912791e-01
-2.421942168502873999e-02 -1.179034562321993052e-01 5.382030700999985706e-01
-1.690110034330116057e-02 -1.116436352976863944e-01 4.831172073415486157e-01
-1.077413808593390004e-01 -6.805895886597540523e-02 4.947097545474270497e-01
-3.957619377045813042e-02 -5.452244266515794691e-02 4.466922824983627360e-01
-6.516970800996509106e-02 -1.044326832310585318e-01 5.219307223827788222e-01
-6.474794609890126285e-02 -7.797283354778031250e-02 4.631181577062779553e-01
-1.086054506233305114e-02 -9.985726486415837100e-02 4.658552115366887403e-01
-2.735401531835595507e-02 -1.173192753340378258e-01 5.297302411365526487e-01
-9.309300095552487664e-02 -9.200648817171235005e-02 5.334708982755240747e-01
-9.558631775624247713e-04 -1.230268977642157840e-01 5.070839789232014505e-01
-1.021966938055214741e-01 -8.010708315393252898e-02 4.863202001885754688e-01
-7.938044893426958459e-02 -7.897589073058550180e-02 4.697549645812876262e-01
-9.786423827294121747e-02 -7.591821458134535849e-02 4.777660004902027913e-01
-7.270020949511939168e-02 -5.008046500076131224e-02 4.509815193902927399e-01
-5.290678421252921482e-02 -1.076310374440127282e-01 5.390890420684456563e-01
-6.411375949789774320e-02 -1.015445849839362175e-01 5.053017156381740538e-01
-3.953670821571408228e-02 -1.131249562583362261e-01 5.259421753036166436e-01
-3.435981947024063093e-02 -5.761766940977699342e-02 4.465790644177450863e-01
-5.901067887327709344e-02 -9.482062676335624440e-02 4.833796579309156405e-01
-7.686466013086147575e-02 -7.455008094329232393e-02 4.624561545858085765e-01
-1.064568561388064688e-01 -8.401820258548044207e-02 4.986707251084567805e-01
-7.924468803467057260e-03 -1.230053423334543372e-01 5.090282312986154079e-01
-7.630508251152796906e-02 -7.161881737825046002e-02 4.594067519533972521e-01
-3.710452556147234016e-02 -8.511498259179572923e-02 4.622074042990323983e-01
-1.919044531770922393e-02 -1.046615248605457932e-01 4.735101869631946347e-01
-8.829932685038784090e-02 -9.273443709279498293e-02 5.018601713010873988e-01
-1.207248389294435578e-02 -1.190469863124461181e-01 4.985283503795466253e-01
-1.017735939246593863e-01 -8.712640621940319352e-02 4.999627549395379567e-01
7.330153434973983757e-03 -1.264573241954420890e-01 5.327576885160097975e-01
-4.181576415654054274e-02 -5.734047006887470210e-02 4.476908512740770951e-01
-7.955518932722840941e-02 -5.229129987898460674e-02 4.523285897006361078e-01
-6.946260504684868831e-02 -1.024422922584185547e-01 5.351990707417580984e-01
-9.099519871170724805e-02 -8.015194148476703639e-02 4.781282636694406118e-01
-7.501939336354836174e-02 -6.946138484366123911e-02 4.576810157992104444e-01
-3.959321147895496218e-02 -9.997508126400531103e-02 4.811781487532951207e-01
-7.109441000400226751e-02 -1.023308983690432161e-01 5.216331907896969433e-01
-1.788580362334016988e-02 -1.151145509126526717e-01 4.922667142570519294e-01
-2.832844345408380010e-02 -1.143706293336534535e-01 5.027080788579689763e-01
-4.228857476192787734e-02 -1.121081060588771244e-01 5.327860194329255838e-01
-7.294072845092824942e-02 -1.010184362776024442e-01 5.354636307159793551e-01
-5.719111897677794931e-02 -3.033918342145884919e-02 4.507203034074203640e-01
-7.507704384609964476e-02 -1.009541733684425902e-01 5.262006789382606131e-01
-2.525371415064842431e-02 -4.498494409794229903e-02 4.433229544794158872e-01
-6.966743637157415958e-02 -7.624916680111418210e-02 4.624010371914173412e-01
-5.418672013979584229e-02 -7.052041174168864612e-02 4.564793123248638840e-01
-1.741363575683788079e-02 -1.205237112050186882e-01 5.368021589508913394e-01
-6.196300284955891940e-02 -9.307924115232717177e-02 4.813754933610597253e-01
-8.018129846541977024e-02 -9.801070921683197046e-02 5.344678211390736511e-01
-7.499526515191105858e-02 -9.748937310622406149e-02 5.042959322569747771e-01
-4.702576335845521510e-02 -9.873460553566941467e-02 4.835083085382301804e-01
-1.019509964679421871e-01 -9.068751530800463201e-02 5.199744556533463236e-01
-7.744180844139235409e-02 -7.830634555873783320e-02 4.677050587336621379e-01
-8.142609877986953237e-02 -6.013882061487624275e-02 4.532796404329196838e-01
-3.738325060809636474e-02 -1.132764927236992597e-01 5.155794479765035687e-01
-4.576394496512544569e-02 -1.097314781800089456e-01 5.125356559668063916e-01
-4.451731042870403499e-02 -9.509606411495455380e-02 4.766300617251437166e-01
-7.265238282593151388e-03 -8.710390369300284596e-02 4.546411614599960571e-01
-2.001849758716081618e-02 -1.196015469491201466e-01 5.116296814725782571e-01
-1.289803633326637965e-02 -7.573600658568949151e-02 4.495996161720507978e-01
-1.066103488888985318e-01 -7.748955296206018473e-02 4.876044686607677314e-01
-3.701997381181226787e-02 -1.006545560220400981e-01 4.806931657535720159e-01
-4.182718030831949346e-02 -5.881237095755219996e-02 4.480733123196898315e-01
-4.165124278139482189e-02 -1.073319416803850124e-01 4.978603110626353412e-01
-4.755042368259505131e-02 -9.382407012193810791e-02 4.760823048714319383e-01
-5.826980849140018376e-02 -1.068932531393414487e-01 5.238828370269733581e-01
-3.845506679127737998e-02 -8.786643020383247404e-02 4.656003652438431839e-01
-2.891790016843588662e-02 -4.396766873847691298e-02 4.438080521139152745e-01
-9.057690423222231058e-02 -9.437069575517983977e-02 5.282867408796393383e-01
-6.435331530785462495e-02 -1.040302119156312211e-01 5.176108157484788919e-01
-5.847628582590398694e-02 -6.815072069162837753e-02 4.555008751454499571e-01
-5.551757193043822119e-02 -1.063443113305882204e-01 5.131879456505372694e-01
-3.393975733981641207e-02 -6.670654177335956503e-02 4.493426501260609496e-01
-9.375075394466976519e-02 -9.001737031432083258e-02 4.989656468737181383e-01
-2.083244522307193744e-02 -9.456945457757726103e-02 4.630017832303057190e-01
-1.057563383753619968e-01 -6.648121684376803731e-02 4.931755114943529583e-01
-1.011169113167982303e-01 -9.098312910775920026e-02 5.219669462081657496e-01
-7.023817732301840255e-02 -7.022800431184413050e-02 4.577269455330932879e-01
-8.165298860267218573e-02 -8.131529870657577819e-02 4.743279495170762972e-01
-1.115920846876647110e-01 -7.590992626060276416e-02 4.955511407178279648e-01
-4.443391950439986443e-02 -8.889825347775000275e-02 4.692002249066024588e-01
-7.774317574230352190e-02 -9.965903471462297936e-02 5.311722296593108794e-01
-4.941511285710126905e-02 -8.051109722117576195e-02 4.623195034998321962e-01
-5.276904983825012052e-02 -4.038295208569381983e-02 4.454360730203222318e-01
-5.252570696910505849e-02 -7.854681350633263559e-02 4.614866569675392660e-01
-8.026586644770287993e-03 -1.232716665784565208e-01 5.102416552332843525e-01
-8.984909581527260325e-02 -5.853339198853706182e-02 4.650674261313013091e-01
9.017720763106573494e-04 -1.257252203078168540e-01 5.324721120971448451e-01
-4.679406449363439358e-02 -8.334873431110467745e-02 4.640670420241498340e-01
-2.394137031856112888e-02 -1.171979907212813560e-01 5.068893275292608580e-01
-3.669642238344604512e-02 -3.776540947702964474e-02 4.431171098981150358e-01
-3.415609452481629948e-02 -7.969400379514078592e-02 4.560829247287290222e-01
-1.596874989206267803e-02 -5.431139920528263443e-02 4.421827998441011931e-01
-7.006082072866617882e-02 -6.951842178556805196e-02 4.572099913296449047e-01
-1.862523219911740857e-02 -9.445854780864253175e-02 4.624596722139305283e-01
-3.858020919165427304e-02 -8.564755041663049684e-02 4.634963195753230014e-01
-2.461907194794761208e-02 -9.964879913666371825e-02 4.696804281959220395e-01
-7.857952400522193181e-02 -9.435208520786589337e-02 4.980328639508454502e-01
-7.057778283637232419e-02 -8.436386578131568892e-02 4.724870163032200421e-01
-5.999276322225630814e-02 -7.271627770669454593e-02 4.587332929835834516e-01
-8.256508277260678208e-02 -8.912538770440450731e-02 4.881787797919033278e-01
-3.995213982644837958e-02 -7.946656709026674037e-02 4.583898143868677666e-01
-1.843402464066979524e-02 -6.673676567543504468e-02 4.464838432008553237e-01
-1.424868953850117956e-02 -1.224848570583834118e-01 5.215778693951904632e-01
-7.613661320265012293e-03 -1.215416371023785025e-01 5.033741562581108830e-01
-1.103381205133162762e-01 -8.530523902488153232e-02 5.118980788548881389e-01
-8.941663514280932812e-03 -1.241056918575516033e-01 5.204919158942671320e-01
-5.842434099873298342e-02 -8.636467549247785203e-02 4.703322841671216392e-01
-7.895872742922004084e-02 -8.931599123816065522e-02 4.859488849176451519e-01
-4.396624445808577919e-02 -7.917611495355038331e-02 4.595255610802134183e-01
-2.235394352651449978e-02 -1.161549831001056077e-01 4.997043117546833835e-01
-6.113911082220211540e-02 -4.202462578664447473e-02 4.474460060676332951e-01
-5.508335809748364509e-02 -1.067349722942036588e-01 5.146091618199434281e-01
-9.030056579932135841e-02 -8.363668873818193295e-02 4.829235539032594726e-01
-7.884956531775663691e-03 -9.267142166440539564e-02 4.588930392442889805e-01
-4.176125299698517368e-02 -4.841279485074629491e-02 4.455252115182987138e-01
-7.422197113215717353e-03 -1.190446420751601342e-01 4.964500581868312445e-01
-5.942336844572674442e-02 -6.156692484821764400e-02 4.517516596211229585e-01
-6.278989569256109016e-02 -7.484585187340456192e-02 4.604767764939374786e-01
-2.838481552743890926e-02 -6.193493437337516810e-02 4.467193015191018857e-01
-7.006452115275878245e-02 -9.946669756268484985e-02 5.053563575274847564e-01
-6.402144682946499243e-02 -9.938779168651659668e-02 4.980810317181150748e-01
-5.519896391676688135e-02 -1.838135029028223344e-02 4.506808839816306422e-01
-6.478847432767861902e-02 -1.048793988987722636e-01 5.278530612966320090e-01
-5.275166045756314592e-02 -1.076046356657642394e-01 5.393674247578830183e-01
-4.201062595217117113e-02 -8.325860414156859013e-02 4.624088672952062495e-01
-7.714918408065492283e-02 -9.742402166711142120e-02 5.066945156813913442e-01
-3.967873958764561726e-02 -1.128425032925921695e-01 5.203888808433294599e-01
-1.096529741250789752e-01 -8.616987490626069890e-02 5.126859193384565305e-01
7.120383734035363836e-03 -1.260623142445110034e-01 5.352546374167367338e-01
-5.415446206070149981e-02 -1.069053915215403411e-01 5.136898999771575269e-01
-5.195566057107592339e-02 -4.358628739827958426e-02 4.457864774548657150e-01
-1.283013759456018595e-02 -9.170461384971166641e-02 4.590103172585410785e-01
-3.417226135930854364e-02 -5.486642754580167008e-02 4.459198326016977632e-01
-4.202552404673583208e-02 -6.943550640368216509e-02 4.526629156586295388e-01
-1.296275993769723141e-02 -1.229284897945335936e-01 5.232296001880035741e-01
-5.286590129656258685e-02 -3.241585715797941358e-02 4.443047881680539102e-01
-4.779510102670789240e-02 -9.983174887144447007e-02 4.863291883468672805e-01
-5.196417081291714729e-02 -9.626579781116906265e-02 4.822427458710520920e-01
-2.282153420300370161e-02 -6.534343998129693576e-02 4.467511067222861842e-01
-3.195981432462698113e-02 -1.157222086224482388e-01 5.261149130871078938e-01
-1.014287405238839257e-01 -8.236661395823813292e-02 4.893437309826306203e-01
-4.091216215665962469e-02 -1.126678365332078602e-01 5.245045130802953315e-01
-9.749969705114901186e-02 -6.231691378122460045e-02 4.790203300159091571e-01
-9.331840162344796907e-02 -5.922369514369099641e-02 4.747152261858444966e-01
-5.276407095580424450e-02 -1.015789721678923285e-01 4.940681981465515071e-01
-8.132938575929543612e-02 -6.185333113059492127e-02 4.540424135932806804e-01
-1.003652899435410195e-01 -9.007205152873262732e-02 5.279299914728504683e-01
-6.159953849451654806e-02 -1.058414177555761782e-01 5.251004749297584207e-01
-5.935187673638617212e-02 -3.790432602732657363e-02 4.472404594627584773e-01
-1.044883308050466031e-01 -7.277971620444075029e-02 4.831808777342379568e-01
-3.038744890640040358e-02 -9.509205399273906734e-02 4.682212942310648995e-01
-3.005368407072532902e-02 -1.164602421275876543e-01 5.231088838897831605e-01
-9.029015037334821303e-02 -9.257600651117160739e-02 5.356157538481547409e-01
-4.356475759560671235e-02 -9.288149874888058932e-02 4.734431152052248626e-01
-7.623551236898437611e-02 -8.919020032039466639e-02 4.838464755003240580e-01
-5.471857974381678924e-02 -2.221702782213053756e-02 4.442270688502485965e-01
-1.584423779174791089e-02 -1.217115549286496567e-01 5.308284148006282566e-01
-1.046590286395271685e-01 -8.812942217904536080e-02 5.097837328374288379e-01
-6.883041119240868380e-03 -1.244963172219304831e-01 5.167974741162101315e-01
-1.511249024521053169e-02 -1.220970538545846640e-01 5.175911422131639350e-01
-7.603640290019120229e-02 -7.128544786494619978e-02 4.590961585572369552e-01
-3.723108779501351634e-02 -1.044854569904962172e-01 4.874488350745935783e-01
-9.596438206913532332e-02 -5.925524004662333089e-02 4.852973306223192784e-01
-6.373214363466463139e-02 -9.117511095489348738e-02 4.789482395785528701e-01
-1.309138392097307022e-02 -7.413476047330817831e-02 4.489323925475753874e-01
-1.391191295530889299e-02 -1.130875846268182688e-01 4.847423046246626122e-01
-7.436715212075055426e-02 -5.414993948704630716e-02 4.507940446370709009e-01
-3.803978663417029865e-02 -4.165600056065518059e-02 4.439815745024344729e-01
-8.322850850726171146e-02 -5.570688156114324274e-02 4.555609122384124410e-01
-2.722874388542641938e-02 -1.030178452277661916e-01 4.767130258315005475e-01
-4.710035154352683329e-02 -5.672719182710814212e-02 4.482193252139302087e-01
-6.491346044828934236e-02 -1.001156560076407048e-01 5.011720832540724757e-01
-7.289819129555109856e-02 -9.991549230230607759e-02 5.111141271774427564e-01
-8.056833212246775067e-02 -5.478905436260986250e-02 4.524327512873201340e-01
-1.083518907030180112e-01 -7.915162216555630958e-02 4.911942259518539688e-01
-1.053516185186346293e-02 -9.840460497893230296e-02 4.643810289383172862e-01
-6.466280813310958109e-02 -1.037558803034821925e-01 5.165383729247060574e-01
-3.771003835426717243e-02 -1.101361008557216609e-01 5.015111794477645768e-01
-4.018589174129129360e-02 -8.373591118529499777e-02 4.622636635022714935e-01
-8.096574108722903729e-02 -8.213683741392827087e-02 4.751273625523619870e-01
-4.098065251665183872e-02 -6.635187570070863461e-02 4.508244703075671156e-01
-1.935208093959238720e-02 -9.409986018908919614e-02 4.622880504369822896e-01
-7.986908525117476787e-02 -8.411438484898420276e-02 4.774073412336477529e-01
-4.703780557482629271e-02 -5.805600524029624204e-02 4.486824097665123023e-01
-3.015635944392583770e-02 -1.156616643360918600e-01 5.396315502514447138e-01
-7.530486615398093719e-02 -5.816234090868770829e-02 4.512001677821639301e-01
-3.424373063178814958e-02 -4.417507801666341327e-02 4.442874612206825780e-01
-1.129695109209167825e-01 -7.274526073738414589e-02 5.042535544354744825e-01
-1.454658453478352778e-02 -1.000841068086838342e-01 4.668444478918273299e-01
-9.608909156306529031e-02 -7.269704366207985213e-02 4.731192044398754293e-01
-4.091980547681720037e-02 -1.125227967705086374e-01 5.341231696871909795e-01
-8.117206747168694003e-02 -9.311556486064437310e-02 4.966262813929070985e-01
-4.554922192825737459e-02 -9.802674153799065260e-02 4.815759829988264240e-01
-3.436024514376577466e-02 -5.903278545792628451e-02 4.469003843518972729e-01
-5.297664505019006320e-02 -3.243529376198846931e-02 4.443642132537335976e-01
-7.148585693802883556e-02 -9.446776357564726223e-02 4.915024884682673290e-01
-5.515112435017410775e-02 -1.076988594783891695e-01 5.341882762052682088e-01
-1.058678119324857753e-01 -7.911067832194591809e-02 4.884789385022048069e-01
-4.284988217349443990e-02 -5.495169572056425589e-02 4.472442521437623442e-01
-3.391919559815826518e-02 -1.150183198194420636e-01 5.289521609159345550e-01
-9.205027639590021571e-02 -6.580064846087815833e-02 4.668212325193850099e-01
-4.054102437077408000e-02 -7.471639529499425614e-02 4.551229701527289562e-01
-2.872923294299970995e-02 -1.169187354150531127e-01 5.223312460581861494e-01
-6.160503169947893765e-03 -1.235264712524313663e-01 5.099079490742240983e-01
-5.040034227086466478e-02 -8.646689050984830704e-02 4.684507837504424677e-01
-4.776747672022284286e-02 -1.102360261988745010e-01 5.222776623777201088e-01
-1.062835547918531687e-01 -8.834981359423788039e-02 5.166655661389950582e-01
-1.851390674330191319e-02 -5.227682301094847828e-02 4.425141982873121993e-01
-4.752081224426082939e-02 -1.027730187893822339e-01 4.923762488986399566e-01
-4.742075294259645579e-02 -1.103760955375743535e-01 5.327371774332798626e-01
-9.008821818362762468e-02 -8.365945622163874218e-02 4.828298692807079795e-01
-1.462869444492860549e-02 -8.473570698589724670e-02 4.543590129157675239e-01
-3.986905341137878585e-04 -1.190429180885615446e-01 4.955451030396659795e-01
-9.193535908659955513e-02 -6.450973364821924183e-02 4.666863506883755508e-01
-1.501141049630020687e-02 -1.007780032502259976e-01 4.676431535071410295e-01
-3.187810860986980271e-02 -8.501337433669423072e-02 4.593552211349454795e-01
-5.622534250125489630e-02 -2.538210129138872284e-02 4.493517156134634316e-01
-3.144265266501474615e-02 -1.158795493803589094e-01 5.202772406945002093e-01
-6.183717773981090710e-02 -6.366901986061396235e-02 4.530277309668502839e-01
-2.917855192665481934e-02 -1.147230095855458487e-01 5.055593730884000436e-01
-5.242467405265207464e-02 -7.883654643727677769e-02 4.616602017349273890e-01
-8.728297914846021299e-02 -5.580419110978232511e-02 4.640586581173458680e-01
-7.320212016746327488e-02 -9.961825813118752038e-02 5.101671826763002349e-01
-6.781550141178234459e-02 -8.286379304670629664e-02 4.693255921481443993e-01
-4.222098237325724174e-02 -1.115909031846879645e-01 5.404050989625390766e-01
-1.115551368054004816e-01 -8.359514129181529196e-02 5.120038989325810252e-01
-4.024749076711954532e-02 -4.930803191269626101e-02 4.455286058742412014e-01
-9.606636580665953162e-02 -9.255794918505660940e-02 5.260790771812153821e-01
-6.238931868327601132e-02 -1.050876633700532636e-01 5.360404642843492606e-01
-7.260798776937246735e-02 -8.067486992186249928e-02 4.683673025641743037e-01
-9.657458175588596455e-03 -9.328357557399570565e-02 4.597594794106348304e-01
-3.890662753138109109e-02 -1.123830306884385788e-01 5.433193749553529850e-01
-9.835165514574273349e-02 -8.972188731564753605e-02 5.044016662355033098e-01
-8.971623911633620774e-02 -7.541395150873619890e-02 4.714510751316121073e-01
-2.423865502470715430e-02 -8.095906527479071468e-02 4.536840073660442507e-01
-6.087180937336281183e-02 -5.184515140360018010e-02 4.479440848275124676e-01
-9.613190017167361212e-02 -6.347527221780650819e-02 4.732620867222506189e-01
-3.727489324043133101e-02 -7.762575257487328018e-02 4.557811141854102299e-01
-4.046005920795802541e-02 -8.649403657101248366e-02 4.651973532494663166e-01
-1.061106296366160634e-01 -6.833923656262474999e-02 4.888430655311579720e-01
-6.656301059102877338e-02 -8.485799743423003139e-02 4.714569402270502585e-01
-5.346879072840099445e-02 -7.924695599533854162e-02 4.622830375183406559e-01
-1.009656465726110341e-01 -7.603154852056175084e-02 4.806052562067412159e-01
-4.226556650749715288e-02 -1.065076846248062398e-01 4.962507946754974864e-01
-5.064730239435266679e-02 -1.048950207083145375e-01 5.000942265944057219e-01
-7.634526847469899624e-02 -9.502799914860901587e-02 4.979236612172411314e-01
-4.077579530653471090e-02 -8.730823714961169491e-02 4.661845977162508703e-01
-1.004100656072121761e-02 -1.237983431337473378e-01 5.265282554115848779e-01
-6.193285127670023621e-02 -8.104339340317248674e-02 4.656308246576064680e-01
-7.698955407623182812e-02 -1.002284030110541374e-01 5.242175147278240743e-01
-6.735909471068120269e-02 -7.358822851955891531e-02 4.598591127919526289e-01
-5.577235412178322554e-02 -5.721164409348487162e-02 4.496736050882306768e-01
-4.268991758487510058e-02 -5.609148422652865396e-02 4.475019673317312541e-01
-1.029076608105242846e-02 -1.033027206598978731e-01 4.690868130254122748e-01
-4.112723748260480733e-02 -1.123685950808841622e-01 5.359242991208431617e-01
-2.864280750463146438e-02 -9.732796148700013916e-02 4.695015011862206378e-01
-9.324119381282641381e-03 -8.476757000221073202e-02 4.535731987488499928e-01
-3.534954123526688058e-02 -6.337028162007840582e-02 4.483510063120479949e-01
-1.108276045681480804e-01 -8.081594395984167956e-02 4.988826002202536025e-01
-8.817206929989677977e-02 -8.164001529554107406e-02 4.785933981329052456e-01
-7.345115506480609513e-02 -7.032639996668257898e-02 4.581400363537846965e-01
-1.959888178730333913e-02 -1.178285253625596246e-01 5.015775168206765278e-01
-6.149226371446845502e-02 -9.602324144314632048e-02 4.873642940990216554e-01
-2.606326190069424911e-02 -6.801187193536596676e-02 4.482765108238233043e-01
-6.531828624951131756e-02 -1.046127583061462335e-01 5.255955262387312921e-01
-1.844609278168206357e-02 -5.424249444256279418e-02 4.427625891275068226e-01
-7.914544190768506293e-02 -5.257932779606363377e-02 4.521652333783033328e-01
-7.645722466524164374e-02 -1.004342694210005327e-01 5.267035163570498169e-01
-6.010272106899678529e-02 -6.417324395734973208e-02 4.532269039973181868e-01
-2.797049576428201415e-02 -1.172395687234057682e-01 5.235842695437650240e-01
-1.960182453547743356e-02 -4.582692536358861507e-02 4.420771566141794007e-01
-9.968989153592719421e-02 -9.172798430320014407e-02 5.210379780814612394e-01
-1.503268756422274435e-02 -7.203378115169019325e-02 4.482704679871082343e-01
-8.533002270633234174e-03 -9.757473672118815999e-02 4.632151221418081000e-01
-1.016006736579823377e-01 -9.035585260302635147e-02 5.143040134147843778e-01
-1.437636366758258434e-02 -1.214456347809078074e-01 5.369133144892382914e-01
-8.195154413103350466e-02 -5.218105448608681418e-02 4.577409688983561931e-01
-6.984259786560279015e-02 -1.022598251877677167e-01 5.354611353122818995e-01
-5.870745885374159534e-02 -6.724162632511113125e-02 4.549427000810866151e-01
-2.907725926325051627e-02 -1.166783445860926638e-01 5.181562756659046087e-01
-6.103582335902422301e-02 -6.185583778770984559e-02 4.519846110540812756e-01
-6.458609723065453223e-02 -7.125286115616966121e-02 4.580887305463271497e-01
-5.789216365253858909e-02 -5.739890540192880281e-02 4.499198226757429309e-01
-2.971935873820752416e-02 -1.048298446736147110e-01 4.823202678926919451e-01
-5.858703470072990083e-02 -1.068910870481977332e-01 5.267143665045080914e-01
-3.949762136239493016e-02 -1.131469655375608452e-01 5.275530489798717637e-01
-6.891784569286675544e-02 -9.329253166989898149e-02 4.863352110178897347e-01
-3.662333587144355612e-02 -4.467963850962938105e-02 4.445100030802957569e-01
-7.973012931704910600e-02 -9.854489931870064057e-02 5.157703386373537757e-01
-6.738457551952162228e-02 -6.043497243311170275e-02 4.514969266190910213e-01
-7.001412486365152232e-02 -9.455828660851187117e-02 4.904823951011539895e-01
-9.393447253559501775e-02 -8.935629644535644789e-02 4.972644565310099241e-01
-7.124005608332054096e-02 -1.016071655433262305e-01 5.362969041419760607e-01
-9.242224934958931382e-02 -9.247545061082214357e-02 5.063983542819717742e-01
-6.902708411057961735e-02 -9.653252914486408487e-02 4.948741983004381062e-01
-3.077858720818431662e-02 -1.150867556218452409e-01 5.422679896059734439e-01
3.962600731792599758e-03 -1.255544147454888404e-01 5.190407546370631175e-01
-1.136975617238909914e-01 -7.303729001627100315e-02 5.063003666996530594e-01
-3.154661353168712601e-02 -1.053337327785600630e-01 4.851533097114900661e-01
-1.916381961003207901e-02 -1.163392358658732056e-01 4.963159091297980607e-01
-6.734014222395896809e-02 -9.913337528568023915e-02 5.009184181065563513e-01
-4.884178297484171455e-02 -8.599371823905180290e-02 4.675717620623582316e-01
-6.563288918504887881e-02 -8.548834746607225643e-02 4.718937569552048017e-01
-2.002855617536659222e-02 -1.202865973782755726e-01 5.188199629047064443e-01
-9.256209491743956630e-02 -6.102223716849164425e-02 4.690037344440164957e-01
-8.622693243522300266e-02 -6.865298394085359024e-02 4.618989413219596885e-01
-1.219752595847605620e-02 -1.144813873826935890e-01 4.872891547368685683e-01
-1.131293425718050971e-01 -7.463389515014377806e-02 5.017248282861587194e-01
-2.600897736629062193e-02 -1.073857431507065086e-01 4.831199615004089787e-01
-5.626152347195068765e-02 -2.554471137670578582e-02 4.501529348827641996e-01
-9.508101940591714984e-02 -7.753452534512794703e-02 4.776088130631750417e-01
-1.736220665815372058e-02 -1.077531978801770929e-01 4.771458502845166705e-01
-2.036338719076630915e-02 -1.170549484022209707e-01 5.488900794008869655e-01
-4.674756338379485593e-02 -1.108055803333020534e-01 5.301393041523069227e-01
-3.501544530749016448e-02 -1.143333746489984815e-01 5.374379661222000726e-01
-8.734248263148942926e-02 -8.909731216568463064e-02 4.912614929905633199e-01
-9.345336910164821209e-02 -9.036099579306061669e-02 4.996548485979173115e-01
-7.646458459190989820e-02 -7.197438077122415845e-02 4.597332984738236039e-01
-2.304644954385360461e-02 -1.024534310628885947e-01 4.727670980821751523e-01
-3.100832677720962924e-02 -1.157321290183403184e-01 5.357269522526539873e-01
-1.743758796970409225e-02 -5.762253252332065478e-02 4.432815150312002794e-01
-7.204974848579831503e-02 -5.403920751941071465e-02 4.502745827660809552e-01
-8.038864940173402751e-02 -9.858265449072733944e-02 5.188065393678944481e-01
-1.094599271375534671e-01 -8.235624925625140147e-02 5.002724984311032186e-01
-9.187646619453879171e-02 -9.289399227209112209e-02 5.318717136375189503e-01
-9.557136163619064928e-02 -8.826020372532000779e-02 4.958152293186549042e-01
-6.533756013230788973e-02 -8.864713333148968588e-02 4.759647615932345310e-01
-9.587550213212753247e-02 -9.017760185841558473e-02 5.024134153975439165e-01
-8.261699637649490280e-02 -5.328032193416677720e-02 4.567346140370071028e-01
-3.078733693982590655e-02 -1.147185914543861623e-01 5.449602428317605884e-01
-4.307146587149109779e-02 -7.425621359907151608e-02 4.556832807269329266e-01
-6.834346984959309423e-02 -9.678317806463608564e-02 4.949336563980419323e-01
-8.346471635198973726e-02 -9.754051475344248379e-02 5.270386936571593850e-01
-7.781181166617644196e-02 -9.783447981455974107e-02 5.091904295207597686e-01
-1.119349785341307128e-02 -1.234602217655811907e-01 5.256878534820532689e-01
-4.629098496483129849e-02 -5.162396620336108521e-02 4.467898992505505151e-01
-1.107888944202237436e-01 -8.467078249845526317e-02 5.223107387447344374e-01
-2.011732489730969770e-02 -1.058482424834948366e-01 4.755631752858021088e-01
-8.653958515463751333e-02 -8.498944602445977770e-02 4.827409569997332395e-01
-7.678520641462282040e-03 -1.156828186896351890e-01 4.885035532101361100e-01
-3.085014846696727125e-02 -1.139538591111246141e-01 5.051454242872495115e-01
-1.028787900146615891e-01 -6.796878891903475328e-02 4.820986952269368797e-01
-5.664672827782004511e-02 -1.064864148682519995e-01 5.164501207932440385e-01
-5.482884537233074368e-02 -2.706710930286262973e-02 4.454372418507460685e-01
-8.616151415609704656e-02 -8.749380608258777725e-02 4.870125003663859364e-01
-2.688903371916889773e-02 -1.174056362320765740e-01 5.315712287021777671e-01
-9.475475734632192448e-02 -9.273143391811233816e-02 5.116582203579903565e-01
-6.110271535572058682e-02 -8.796847848844838169e-02 4.732478983037818887e-01
-4.121309240050956084e-04 -1.258118280321433025e-01 5.232516732952210425e-01
-8.145234662449699070e-02 -8.910821121999544514e-02 4.872729963949904430e-01
-8.544012221917451910e-02 -9.448819429952677595e-02 5.054417768508022712e-01
-7.125058341973393439e-02 -7.075426681866810175e-02 4.582188883678719460e-01
-1.204010187731352141e-02 -1.217685479356379746e-01 5.375105767664454248e-01
-1.023710244021580756e-01 -8.383754689036548857e-02 4.930285641400335983e-01
-6.687717268079236034e-03 -1.198273165562038917e-01 4.981850638191018810e-01
-9.930066113715045606e-02 -9.097636513471996089e-02 5.117744475400514137e-01
-4.739009592488784006e-02 -7.513144791066259098e-02 4.577615197154000781e-01
-2.000830313559043630e-02 -4.596308099978610451e-02 4.422027009755360449e-01
-5.196996749862393267e-02 -9.910784867147212629e-02 4.881375655177543349e-01
-2.538934019166828784e-03 -1.252897328796797050e-01 5.317071993702255917e-01
-3.720472754988343733e-02 -1.119661707444984111e-01 5.067058293794068913e-01
-7.001947937901634167e-02 -4.618421330919098011e-02 4.537372574106849910e-01
-7.547277476491322246e-02 -9.976993953305018925e-02 5.145924017889225155e-01
-2.810666649652349136e-02 -3.809761145708537994e-02 4.429175765731802605e-01
-9.910575326142025132e-02 -6.456777998466232960e-02 4.786956342809957632e-01
-5.663466626620933947e-02 -8.826663454715151513e-02 4.721557324366035813e-01
-5.988406317320776884e-02 -6.766673970676230498e-02 4.553126629003733661e-01
-9.247847990512311767e-02 -8.646522501247834447e-02 4.889800717633228655e-01
-6.883608820514736104e-02 -6.677672195628826801e-02 4.553369607077781822e-01
-1.122565533125253479e-01 -8.180813348016346964e-02 5.069838833404004541e-01
-5.008327501671947651e-02 -9.658289276165127335e-02 4.818011971422383466e-01
-7.563657584856985083e-02 -7.867809302836850649e-02 4.671511076383289551e-01
