-8.586139164879133534e-02 -9.531677558046970644e-02 5.173002506207623474e-01
-5.534213793256100022e-02 -9.154102778286424269e-02 4.778569472147543573e-01
-3.727471543653305963e-02 -1.133448732981446050e-01 5.382834077411849938e-01
-4.338795882539101673e-02 -3.883389590548792791e-02 4.440139784114084387e-01
-8.063113810292013572e-02 -5.346716190171948990e-02 4.544006877469092820e-01
-6.200272347853828109e-02 -1.047425040824765535e-01 5.213935121349055901e-01
-1.028754296432044246e-01 -8.869053237183900651e-02 5.241462929253500880e-01
-4.071435004483443809e-02 -9.722116125387336716e-02 4.789954762363737850e-01
4.677355531987309467e-03 -1.263509927974001412e-01 5.268569421750285420e-01
-3.830382148214187682e-02 -6.484242573345630478e-02 4.503874773324638148e-01
-7.243891446257713640e-02 -9.875687193187218660e-02 5.100139769004730095e-01
-5.778534200049356695e-02 -1.033664415606952020e-01 5.063938263149557750e-01
-8.149446044594091387e-02 -8.956400847044521107e-02 4.924041775740901628e-01
-1.818074149083162908e-02 -1.209898610282089254e-01 5.215923468234071603e-01
-9.342267003827328664e-03 -1.240545018144181971e-01 5.219138238229572568e-01
-5.725837289214413817e-02 -6.633161272242386886e-02 4.563734298183319549e-01
-6.443482256451465995e-02 -5.266711017814890150e-02 4.506029432872118434e-01
-9.117125097835046543e-02 -8.922195980021421780e-02 4.994513137455784957e-01
-9.382044026607271048e-02 -9.159216409249350266e-02 5.315398284867867140e-01
-3.762522754667636110e-02 -7.911824674298680027e-02 4.580767025709696072e-01
-4.231312443882266627e-02 -1.023595770687496104e-01 4.883756052279674131e-01
-4.462936159376021394e-02 -9.649909411163715145e-02 4.801857482479885975e-01
-5.755706680140375286e-02 -2.981682988205835994e-02 4.526307312880007427e-01
-5.371416313329121367e-02 -1.052646701785923816e-01 5.070401879997331607e-01
-3.840560373757029300e-02 -1.006147455384441697e-01 4.826133190482037039e-01
-1.075417750147632107e-01 -8.480589622547694828e-02 5.094890996315981635e-01
-1.113792143866765560e-01 -7.245512947096779954e-02 4.955620362440755211e-01
-3.826557290015331070e-02 -3.161284333211613479e-02 4.418685840402164500e-01
-4.336744963810897774e-02 -6.101549753787177677e-02 4.500293665701342039e-01
-5.673177625762121368e-02 -1.062767535368056154e-01 5.194125121110135801e-01
-9.629781099731003768e-02 -8.972362125338555205e-02 5.078032608702206518e-01
-1.354586551954741619e-02 -1.226509458677835507e-01 5.194311838182725793e-01
-5.807842462674769890e-02 -1.059849662094618922e-01 5.370759173061097069e-01
-4.665912506911359253e-02 -1.103887941692631991e-01 5.252763163247906597e-01
-4.974855535228787928e-02 -1.075077325695239228e-01 5.110315955553269562e-01
-6.663472265650924320e-02 -4.941834852769753927e-02 4.503540024525040097e-01
-9.483525013826712979e-02 -7.852395746379896291e-02 4.822196293736684125e-01
-6.166540739189880355e-02 -3.720336531522190626e-02 4.490842719060137433e-01
-5.546083685388916718e-02 -1.016932205378402454e-01 4.988191400985402812e-01
-6.359644471777801955e-02 -1.047563796643495998e-01 5.310529700990380686e-01
-1.058443594105261919e-02 -1.237217351380548169e-01 5.238879069969538671e-01
-4.330697760653427070e-02 -9.612251362072528338e-02 4.788903145044104415e-01
-8.183120676996641363e-02 -8.747603145501765820e-02 4.882233670543393855e-01
-9.621691596939779823e-02 -9.050402743237104253e-02 5.319557338158530380e-01
-4.056661692324443902e-02 -1.071357872944577461e-01 4.977395962535782203e-01
-4.232641444828008637e-02 -3.622866610245206731e-02 4.432738523111567908e-01
-8.151819088243913991e-02 -7.035644201456697777e-02 4.638633686210904550e-01
-8.461743280458158822e-02 -5.038270666146376503e-02 4.647079687335375908e-01
-8.927840973053162432e-02 -5.886810710794060375e-02 4.625615351010435305e-01
-8.551272175458972391e-02 -9.539799013972223574e-02 5.166550567482798284e-01
-8.490123443909686207e-02 -9.610828796846412891e-02 5.259880170398860688e-01
-8.524831538256863461e-02 -5.236336018390333469e-02 4.608201824298706617e-01
-5.852140286162025445e-02 -7.794248651156744645e-02 4.643936095661167496e-01
-4.665830003478865784e-02 -4.606057941932317074e-02 4.462723426042383701e-01
-1.019061431514866750e-01 -8.230923067266315840e-02 4.942262558749513923e-01
-9.230173824349802159e-02 -5.610348486669875651e-02 4.742212295597870164e-01
-2.099721545064001105e-02 -8.315821024809322282e-02 4.547960391008911141e-01
-1.585396089668055994e-02 -1.215458479823283283e-01 5.327853192836797813e-01
-4.589154470630237709e-02 -9.949112754270400538e-02 4.856811294262943779e-01
-8.150961654387017807e-02 -9.725967139641157611e-02 5.317664618035279345e-01
-4.815147934219841941e-02 -5.639264340840580148e-02 4.494048913686431446e-01
-1.581374359754758596e-02 -1.196848795285548328e-01 5.046523763762932324e-01
-1.472936082787499115e-02 -9.776609587546467028e-02 4.651150206513525731e-01
-4.780593492951740187e-02 -1.096246400303698271e-01 5.209419339829924889e-01
-2.297254387390659791e-02 -7.638142296245689633e-02 4.518102333188477870e-01
-5.612660774054265694e-02 -2.526607785180228286e-02 4.464815313016528009e-01
-1.025860947418193170e-01 -6.361386953278003187e-02 4.850521915104442638e-01
-6.656880100285603175e-02 -1.004543592409201380e-01 5.081541089129909539e-01
-1.042051173046385504e-01 -6.265321205339856314e-02 4.962216069691287035e-01
-2.780806821117743494e-02 -5.670739673319116075e-02 4.456586694705558238e-01
-3.782185726957964372e-02 -8.765670696895760949e-02 4.660332688521521827e-01
-8.453128883345663314e-02 -5.839806353071398670e-02 4.580764860553143691e-01
-2.274411561087093595e-02 -1.169865854021096274e-01 5.461345834463303683e-01
-2.221195945595290377e-02 -9.499143279099818427e-02 4.643615161454299756e-01
-5.556787724284555086e-02 -1.061355153739272222e-01 5.157352259459906385e-01
-9.173163658599789438e-02 -7.564478054657471084e-02 4.767787213619387732e-01
-7.449233993263837394e-02 -9.892574583136913569e-02 5.139878221590787888e-01
-1.420061141165497066e-02 -8.770848749179170623e-02 4.565867589516735547e-01
-9.604809128669067331e-03 -1.230356939833470720e-01 5.336310646072167652e-01
-6.349058073483869469e-02 -1.042498641632717271e-01 5.360221756072106603e-01
-4.405018620690279163e-02 -2.796951231758378065e-02 4.413063128492019649e-01
-8.347271367593603331e-02 -9.660748213665021344e-02 5.211214971566870968e-01
-5.910679128013719696e-02 -9.286428956150953595e-02 4.822182397054391445e-01
-7.292097712134854026e-02 -8.729709131911563003e-02 4.814575046787996637e-01
-5.247982349900090493e-02 -1.078775674087418396e-01 5.380211348122985182e-01
-6.365916836735746598e-02 -3.921567711191163014e-02 4.512721364695994053e-01
-6.331231859282228369e-02 -8.679408798832707883e-02 4.749980021499986549e-01
-2.269923421426190552e-02 -1.184425477968865381e-01 5.114671920953973716e-01
-4.935344868846126137e-02 -4.402121539618029239e-02 4.460919771992583049e-01
-2.968140526804647489e-02 -5.398314447091796114e-02 4.454922998454045602e-01
-9.697918839039333661e-02 -9.112903302120010929e-02 5.157813969687615741e-01
-4.373873628491030396e-02 -8.234790687937487697e-02 4.634816634094790500e-01
-3.113691987385163937e-02 -4.311507453784656219e-02 4.442672062187092430e-01
-4.774814986985553844e-02 -8.627487992952279083e-02 4.690383737134306563e-01
-6.078819635579302272e-02 -1.053169296557540241e-01 5.354238779796157699e-01
-7.284686045603382121e-02 -9.690175304287380886e-02 5.040644226618705703e-01
-5.963813784406295920e-02 -6.971285001926735836e-02 4.589268610130048942e-01
-3.121417993891119694e-02 -1.158556573973290316e-01 5.261281931040218129e-01
-5.799318210789879136e-02 -1.052083577374123419e-01 5.408674064158210948e-01
-5.037744956123806073e-02 -9.751161645056546923e-02 4.854465657962943048e-01
-8.719888526742065882e-02 -8.112744461869041135e-02 4.812061868745022286e-01
-3.971828379322914215e-02 -1.128446303821661889e-01 5.309687844165799087e-01
-2.408490758094800760e-02 -1.184593810931135333e-01 5.305208029255878976e-01
-3.076174234063169810e-02 -1.033087315939979489e-01 4.812798663384766917e-01
-2.673899733033665432e-02 -9.969492187472217548e-02 4.718858761854058947e-01
-1.875217443861379452e-02 -1.206571830677638096e-01 5.287496665446259625e-01
-1.105170267580651428e-01 -8.174039410682391871e-02 5.067843508128585528e-01
-3.009229991943354957e-02 -1.154249475430729199e-01 5.408905773357618463e-01
-1.114376381642258190e-01 -7.763143408606280882e-02 4.989288751992044246e-01
-6.271785723080505748e-02 -5.948066299697151588e-02 4.534126310884700750e-01
-1.693022542237185638e-02 -1.010958927551395409e-01 4.689644357678445230e-01
-2.796288339450707372e-02 -3.599457366833556937e-02 4.427076516488783753e-01
-6.662597571630415882e-02 -8.050546956992367387e-02 4.689964363088975907e-01
-5.933701614250624923e-02 -1.005523702912865941e-01 4.994538180183261677e-01
-1.047139278969201961e-02 -1.224913346611265358e-01 5.098883134996942124e-01
-5.816167277125332269e-02 -6.539214667634855871e-02 4.559633008025226752e-01
-8.686533598840417980e-02 -9.527178235357226799e-02 5.213926279338712000e-01
-2.747580191205056810e-02 -6.997214449835709171e-02 4.498571847374190358e-01
-1.018295703494242477e-01 -7.310838697848785761e-02 4.818416701038948924e-01
-7.636343957251309766e-02 -8.929613377547404585e-02 4.875784364762685286e-01
-6.211057933074387583e-02 -8.973788506392053888e-02 4.783560378350593667e-01
-2.857175890919027780e-02 -6.798701797589393192e-02 4.493323222121399785e-01
-1.095986485928294868e-01 -6.694693106932678162e-02 4.995863413864320424e-01
-3.255310591124665337e-02 -8.798859410030522576e-02 4.632260950732873250e-01
-3.775753575154084524e-02 -1.124185409228751348e-01 5.124461486754992023e-01
-2.118000652098623454e-02 -9.531417993779787989e-02 4.643427761422137534e-01
-6.155048920817374203e-02 -1.030604800220802225e-01 5.112012338986543503e-01
-1.611441645456979099e-02 -7.556892773016488096e-02 4.503170212190677479e-01
-2.280942519552407385e-02 -7.594940760242110955e-02 4.515764240659500550e-01
-5.483236987784576716e-02 -2.857216276423964890e-02 4.458027904030582578e-01
-3.307651780064721492e-02 -6.786762254254412319e-02 4.503572772542019931e-01
-9.807885976940794448e-02 -5.887577865581514192e-02 4.868735131377332492e-01
-1.918404257303987000e-03 -1.177811966690205936e-01 4.933039327265246743e-01
-5.267199849468386791e-02 -1.063947048702869047e-01 5.110249366226777834e-01
-5.992575143892792111e-02 -1.060080730406909033e-01 5.290323864725847702e-01
-9.972765055061727502e-02 -6.405070613146103542e-02 4.788052672855727665e-01
-7.650253485665417519e-02 -8.702923022068388692e-02 4.835500730945845871e-01
-6.379185514087140629e-02 -3.931866661426895032e-02 4.514473353987835669e-01
-1.072580703899750354e-01 -6.572799996836385661e-02 4.948437743191669291e-01
-9.671514913628652399e-02 -7.413929956792682241e-02 4.785952985753296751e-01
-7.466502549276100853e-02 -8.870113180938232755e-02 4.851296413898580906e-01
-8.288239663465795520e-03 -1.244481920814276693e-01 5.245679851047716502e-01
-1.058208995168776478e-01 -6.352073840736770227e-02 5.007183191750588236e-01
-3.020055346268700133e-02 -1.162282940350878591e-01 5.220875396289519355e-01
-5.284278850154454366e-02 -1.083539788399208587e-01 5.267700174367093702e-01
-8.884190920400043823e-02 -7.947894615552178466e-02 4.798550750161491574e-01
-8.999620403245170430e-02 -5.598271878107494853e-02 4.657723080207454847e-01
-3.631237930028063943e-02 -8.782552306138347031e-02 4.654075090786209401e-01
-5.558346892963789143e-02 -1.073347450036488265e-01 5.330420155870820853e-01
-1.013144122320480400e-01 -7.666511292366980090e-02 4.849946269540700849e-01
-1.746923654110114216e-02 -1.194933038564204575e-01 5.425211951736047533e-01
-8.450383590216953289e-02 -9.580526360007886322e-02 5.316348259851992886e-01
-9.382852139879371833e-02 -5.667836647248165882e-02 4.772857058004503772e-01
-5.552049535676660541e-02 -1.061311074222743289e-01 5.156103857852355477e-01
-4.415074144177923848e-02 -4.043676761183719742e-02 4.445632276674674754e-01
-7.870797872824374097e-02 -6.647050679758048641e-02 4.598572154248980470e-01
-8.433472284911983086e-02 -9.616482737173488726e-02 5.303153841450118922e-01
-5.115663859008282716e-02 -9.073631571310934729e-02 4.751911409171569733e-01
-4.855696998551215643e-02 -9.326244951779925907e-02 4.774498670060020600e-01
-7.974692578974018620e-02 -8.522363082245124066e-02 4.826928963014930352e-01
-6.622805726235811430e-02 -1.029986954943286348e-01 5.201405483107219840e-01
-9.430870880949654422e-02 -9.230209491941675226e-02 5.186826660312703341e-01
-4.511576696393353181e-02 -9.008531126895702457e-02 4.721475916814198981e-01
-1.907540038077594480e-02 -8.187976509362776545e-02 4.538366052770462789e-01
-8.779003502341414800e-02 -9.194192168610706983e-02 5.043040801242634208e-01
-1.125793056857633950e-01 -8.042380990336947533e-02 5.104855852040168784e-01
-1.004237431270153108e-01 -8.827847957527791556e-02 5.091223285275175980e-01
-4.073164744368066442e-02 -5.219265097286071575e-02 4.470223648360870938e-01
-8.301978898077215507e-02 -5.939338893744193493e-02 4.569766133059325330e-01
-4.177394293271834841e-02 -1.091001035405036734e-01 5.045001024787879595e-01
-1.061645822477425560e-01 -6.375404136066227523e-02 5.011102611745619217e-01
-9.080693138551070021e-02 -9.209867335801651123e-02 5.091205556491302797e-01
-9.623926769960326755e-02 -7.210584405855037515e-02 4.758873898852449269e-01
-7.157532333272688396e-02 -9.201697242882449224e-02 4.890781477396698995e-01
-3.800145612874206158e-02 -8.945685225322771994e-02 4.681754710235777051e-01
-7.179814866603209667e-02 -8.887943376490907432e-02 4.833698878522704745e-01
-3.596992309040785568e-02 -5.121990789568355018e-02 4.460413529871424254e-01
-5.530071881989483129e-02 -5.671168508879659287e-02 4.509867082211145295e-01
-9.682172043145934048e-02 -5.871409449771872180e-02 4.817812619466809720e-01
-4.702205101524930403e-02 -1.085956225321440816e-01 5.112552489870045846e-01
-8.639499811350420666e-02 -5.165204518517048371e-02 4.656388141226189825e-01
-2.206769850231026994e-02 -8.175391424517104710e-02 4.542058262091266951e-01
-8.344193018063257583e-02 -9.185440467092693961e-02 4.997799285686579385e-01
-1.104604046711023246e-01 -8.011961032018083406e-02 5.021074641326288557e-01
-2.707892305563931040e-02 -8.699168636811170641e-02 4.594337072843286962e-01
-4.868042664850577572e-02 -5.540067402828809801e-02 4.491337210148211301e-01
-5.770169163944965235e-02 -3.113408768507299612e-02 4.482157834327287760e-01
-5.334099532749624756e-02 -9.129227790376766294e-02 4.766113224005305571e-01
-5.747596775668033231e-02 -1.057263144721313913e-01 5.175244727759318319e-01
-6.583827499557108609e-02 -6.623870740720164130e-02 4.577289365298016222e-01
-2.680408712197394211e-02 -7.827611906246405293e-02 4.535558706503100557e-01
1.404942424147519794e-03 -1.256118332584428843e-01 5.342996802599728756e-01
-6.517151665228856916e-02 -6.813772890977515262e-02 4.588374600840955941e-01
-1.617384484427543401e-02 -1.119400994524288317e-01 4.839947338950014166e-01
-7.611368603931187304e-02 -8.467800468705463657e-02 4.793700206121062068e-01
-8.652657380903119866e-02 -7.715258205552824600e-02 4.753305151342967494e-01
-1.052255124173240575e-01 -7.722998495958452447e-02 4.893996787283418914e-01
-1.087490545864447933e-01 -8.427571480581061425e-02 5.101231012373809159e-01
-2.907678254749845176e-02 -1.164338426939522525e-01 5.330928082756516417e-01
-4.243594774109080842e-02 -3.875116411333041910e-02 4.439716549432388137e-01
-9.433356205735153599e-02 -5.837379819049813567e-02 4.750003167922616232e-01
-8.599592915140823191e-02 -9.413585620190170755e-02 5.108356446098134551e-01
-5.344375131753803521e-02 -7.356819145667259363e-02 4.599597976095976537e-01
-4.707947361407219949e-02 -1.096114884370554959e-01 5.182914898201606002e-01
1.117555216921893753e-03 -1.259533129179465361e-01 5.243513822511777223e-01
-8.722273272244739778e-03 -1.038298302828042918e-01 4.698060050635560203e-01
-6.499021157225622070e-02 -5.394930580412566484e-02 4.512387985694312209e-01
-1.028812308612922916e-01 -7.893023480492951383e-02 4.893049114058868332e-01
-1.951026502780273814e-02 -7.908138692517899249e-02 4.524282469322730149e-01
-2.720076991173654354e-02 -8.532748673567663866e-02 4.578967606636946130e-01
-1.054538192801142971e-01 -6.396960842980099760e-02 4.948458169780887150e-01
-5.403682352653908089e-02 -1.067469061909257499e-01 5.160124741443841145e-01
-8.490053436658023811e-02 -5.362433200365972208e-02 4.582628872628495276e-01
-8.209135479505952349e-02 -8.948066837734421075e-02 4.926827711920178654e-01
-3.828701175765835546e-02 -6.741797652821721054e-02 4.516581002139534728e-01
-9.533476554432850081e-02 -7.782650085035532073e-02 4.816454054049953415e-01
-7.847754636017917340e-02 -9.233065698517728404e-02 4.965519218143715219e-01
-5.532363450750549944e-02 -9.904772962969030092e-02 4.927291708537231418e-01
-5.535259860595170833e-02 -7.975331737338207938e-02 4.651683490458113357e-01
-2.768192484454438593e-02 -6.843346742855481446e-02 4.493063409143002174e-01
-2.508842552527015823e-02 -9.892825611493372140e-02 4.697037081323515162e-01
-3.697820161759969582e-02 -1.124084822204888673e-01 5.460530583976227481e-01
-5.727550817528653110e-02 -1.053901990883560902e-01 5.409628899185100481e-01
-1.133451478048840833e-01 -7.232407758652459329e-02 5.041431822193620516e-01
-1.117337376387271541e-02 -1.191095115014316058e-01 4.987411947598927031e-01
-4.867251097410055932e-02 -8.856520431514570968e-02 4.718021023361833599e-01
-8.931602142189139226e-02 -9.252655406045628972e-02 5.086744016302089388e-01
-1.075178467367559829e-02 -1.234567889253584128e-01 5.183116382537673594e-01
-1.893865883659704569e-02 -1.179974322477240073e-01 5.018573122544305321e-01
-3.758959546825481335e-02 -7.936848677965224752e-02 4.582549635599686977e-01
-3.066646270597234852e-02 -6.782691610257568504e-02 4.497203500025722667e-01
-3.364220448481763936e-02 -8.636453326046313050e-02 4.623337937444451096e-01
-8.899168929913590931e-02 -8.789097250907951242e-02 4.942862900394232595e-01
-3.711451224719516939e-02 -7.499338484904724544e-02 4.550939662272803776e-01
-1.584421847098532298e-03 -1.251952986841624871e-01 5.338891572315589418e-01
-9.905248276799112628e-02 -7.084938938250742724e-02 4.784732901480017175e-01
-1.865487762934752575e-02 -7.386205301966687620e-02 4.499546739354294833e-01
-1.721990688554711491e-02 -1.199357984402674715e-01 5.076992044175351326e-01
-9.608596966017249330e-03 -8.092340984379570168e-02 4.517430736831450355e-01
-3.915673242125145004e-02 -1.130063757530894164e-01 5.247535825990224945e-01
-1.489939899686122497e-02 -7.174137661108559438e-02 4.484923817973908156e-01
-4.588451342163003821e-02 -2.693769327186593468e-02 4.413549368998087585e-01
-3.300803617163587667e-02 -4.739791428096450793e-02 4.449181146393077491e-01
-3.992434434982630037e-02 -1.017096165796401580e-01 4.854856384947778269e-01
-9.736467660176691130e-02 -9.047363614213219107e-02 5.297664556260437418e-01
-3.219763635898806320e-02 -1.151553316328204346e-01 5.368479219617000586e-01
-1.016867830907166592e-01 -8.641364413246500897e-02 5.041701867240572232e-01
-5.896169941753007931e-02 -7.173692495585415330e-02 4.601097732940385709e-01
-4.988278819154052385e-02 -7.636664261527492670e-02 4.608630138611374272e-01
-2.057301376343802224e-02 -1.197640237714763245e-01 5.151949898087264668e-01
-8.404143933123232879e-02 -6.858549557495084714e-02 4.639223446045878663e-01
-1.556263368475446079e-02 -1.217186593711027665e-01 5.321879571855728797e-01
-4.425485722239734521e-02 -5.898837478560435554e-02 4.494877250428227500e-01
-1.765127211623911466e-02 -9.902739572360352849e-02 4.671272835463716744e-01
-5.933359337842072923e-02 -8.720284434873182278e-02 4.739792385156290644e-01
-2.804674745368293878e-02 -3.870121684548114699e-02 4.433015882925906981e-01
-2.616337201843321747e-02 -1.032040728986225037e-01 4.764516025658238063e-01
-3.164192979200122768e-02 -1.157265472810900669e-01 5.247182575043503050e-01
-4.835751046348257115e-02 -6.257854306721324922e-02 4.521959150724972343e-01
-2.734678228508100398e-02 -5.957038813072011024e-02 4.462636300195873540e-01
-3.216126649221211220e-02 -1.155199919892971744e-01 5.253065927976179328e-01
-6.299556736065525797e-02 -1.041363100463909008e-01 5.197871076278370861e-01
-3.438386130002278607e-02 -1.138392796601610107e-01 5.419667569103892024e-01
-1.116037158868431606e-01 -8.200191544271416555e-02 5.208672202272367491e-01
-8.512849021194955623e-02 -7.640595356223701951e-02 4.736017886252494868e-01
-3.464847100585630862e-02 -1.099684493099295918e-01 4.991680352334062487e-01
-6.713897720073340285e-03 -1.246337411763876191e-01 5.294949883320256845e-01
-8.709988822443161249e-02 -9.497501340824494875e-02 5.189615341865151388e-01
-4.709048601034328263e-02 -1.102565364720427404e-01 5.262765816624114246e-01
-5.497942392610361689e-02 -6.053942972402815564e-02 4.526805917835321491e-01
-7.944625800809007599e-02 -8.988869011749685278e-02 4.914608916432972041e-01
-5.658046525680243688e-02 -2.638620986065804905e-02 4.467545870016897958e-01
-5.971308129732860043e-02 -9.169834418792456587e-02 4.803202158573567915e-01
-2.042855915270504891e-02 -1.179291145932414159e-01 5.455548989793466141e-01
-8.281168948748144493e-03 -9.793571492109572063e-02 4.638600070763025385e-01
4.889214017884764216e-03 -1.250829157589135043e-01 5.170214560845511897e-01
-1.042257571238661973e-01 -8.295791697628332462e-02 4.979560785462673889e-01
-4.968420649172242826e-02 -6.964649469084620292e-02 4.563460213671206023e-01
-7.748846866970723890e-02 -9.765589341706396032e-02 5.129977032933454861e-01
-7.473601106368092661e-02 -5.896740583070544245e-02 4.543450399088468372e-01
-1.092272008195202954e-01 -8.495370737856605681e-02 5.251817096715347688e-01
-3.589803186919204858e-02 -9.184463712350836306e-02 4.692195044495633960e-01
-2.551688336192120543e-02 -1.178929048785166134e-01 5.160239829525136157e-01
-7.118602885614412623e-02 -4.459692840784742346e-02 4.555897043590284023e-01
-2.751252524125548035e-02 -8.810910893652720843e-02 4.605115150294269988e-01
-8.193661240059942064e-02 -9.552295781064024105e-02 5.105817082101308246e-01
-5.634704185492798306e-02 -9.381527945737093421e-02 4.824203254159595278e-01
-5.361971436380141842e-02 -9.768324587673998805e-02 4.884969081518689693e-01
-8.560259184238083741e-02 -9.569721925165156073e-02 5.206097445871935570e-01
-4.331982611691563567e-02 -3.280654803150716281e-02 4.423413878280338940e-01
-3.136313320391288795e-02 -8.920003115917721215e-02 4.636739450776129479e-01
-1.926242332201629284e-02 -5.464966756986853330e-02 4.432942975079232073e-01
-2.006475106837490169e-02 -8.098916546664480798e-02 4.534909380580225968e-01
-4.139290914705522073e-02 -1.044662833407776353e-01 4.919550122500389588e-01
-4.862438297956035022e-02 -1.079643330706075155e-01 5.112181196028212637e-01
-8.373102935014635484e-02 -9.631382173787994549e-02 5.189538084952199926e-01
-3.291612735259460965e-02 -9.878833893443506042e-02 4.756245940395576466e-01
-8.877672227057339938e-02 -6.441900752342265279e-02 4.635613288146891997e-01
-9.615066501803726240e-02 -8.242583416372831207e-02 4.891030271570919741e-01
-5.336580864851834388e-02 -1.080896234171346837e-01 5.246676476389060539e-01
-1.534836691386046344e-02 -1.197034977404186906e-01 5.041118840073626206e-01
-2.699240159906303449e-02 -1.019728039684862919e-01 4.753903654911193488e-01
-6.990035224574882300e-02 -7.016364243558532998e-02 4.607558232763667716e-01
-3.651040190475286773e-02 -1.138028452327982387e-01 5.340996249013731934e-01
-5.109273470598208605e-02 -1.011899131406070740e-01 4.938121701081473747e-01
-6.184790215305086686e-02 -9.990057487294491667e-02 5.002699672938274444e-01
-5.479193417624649010e-02 -1.069798290952399117e-01 5.193480463516485512e-01
-9.290297242238251471e-03 -9.161547559986490952e-02 4.586133443595493686e-01
-6.322931465081395308e-02 -1.042047334261557850e-01 5.207074900870074519e-01
-1.981961388956366213e-02 -1.038504767750146884e-01 4.732615197037948196e-01
-3.324841777154379646e-02 -6.729174208930899237e-02 4.501277290247131524e-01
-9.475595272370186672e-02 -8.344325162571922250e-02 4.895964495356463497e-01
-7.654499559595816238e-02 -5.562982737419104595e-02 4.535080512052396817e-01
-5.099062017965768495e-02 -1.085794128123966085e-01 5.366090256638748057e-01
-4.475130845113963612e-02 -8.571186720009889293e-02 4.672944554990758337e-01
-1.826716687851446738e-02 -5.700117109749596594e-02 4.435779032816471457e-01
-1.078417187631108831e-01 -7.975106276302332264e-02 4.964838006044364760e-01
-2.422940291794421688e-04 -1.256789443563071373e-01 5.316124253678586875e-01
4.632042707582224861e-03 -1.255175883626749866e-01 5.193374888406345757e-01
-2.851814441554750140e-02 -1.106033634567279711e-01 4.929024836942419996e-01
-9.202893065465084232e-02 -5.874695217725403595e-02 4.682752612871558529e-01
-4.796331866555314516e-02 -5.750150255017623391e-02 4.497835770556669610e-01
-6.976879066371571847e-02 -9.806502874843031625e-02 5.039864166667412659e-01
-7.315634818772227821e-02 -9.074686631300943329e-02 4.877795580246155338e-01
-1.377624652713266631e-02 -9.846489658907912890e-02 4.655722914962910353e-01
-3.485636398778755446e-02 -6.357735192119678969e-02 4.490591441852209709e-01
-2.543632593679542170e-02 -1.048877584484692732e-01 4.783556427632550956e-01
-9.236654641606882599e-02 -5.830241081354700650e-02 4.690629196676577295e-01
-3.690098393788571185e-02 -1.136696508827204077e-01 5.221786860510877482e-01
-8.666070571982442683e-02 -6.067006237581769323e-02 4.601886454304745522e-01
-7.003479632288094059e-02 -7.697988079070750000e-02 4.665231007048274980e-01
-1.105172102467524148e-02 -1.174915125197348587e-01 4.948072875825531014e-01
-2.784076158424715272e-02 -8.778142807970777672e-02 4.603807181101012280e-01
-7.763043904650109885e-03 -8.713799750536449507e-02 4.550101951744240925e-01
-1.955040157522100475e-02 -7.400149911297809746e-02 4.501382599122770167e-01
-8.970023783872271839e-02 -9.376601666878309205e-02 5.299914961991333273e-01
-1.025252279739957972e-01 -6.520289667326518990e-02 4.831612318573288989e-01
-9.583400993439834814e-02 -9.195479225146742375e-02 5.231978541018215134e-01
-2.910306652028719215e-02 -1.160478686029051965e-01 5.134681293976286476e-01
-4.558289677831860176e-02 -7.858089733658586706e-02 4.609311944391282778e-01
-4.667723136383471194e-02 -7.673318791087856139e-02 4.598715486434748478e-01
-1.075727526450275147e-02 -1.165294573988782667e-01 4.922354207601047915e-01
-1.042112882953243232e-02 -1.234944422760960170e-01 5.170787892740373870e-01
-4.237621318576506591e-02 -1.112201692836321115e-01 5.166101169977033170e-01
-1.018851875325515327e-01 -8.859056829361855456e-02 5.137903299719901451e-01
-8.347092130309227351e-03 -1.235481895818516668e-01 5.331126712895156716e-01
-9.619165499227752547e-02 -9.131556964839823709e-02 5.284572030850461788e-01
-9.993519779868346997e-02 -7.945195429082120564e-02 4.875271631367528169e-01
-6.999387436163444220e-02 -9.755691796603199739e-02 5.027234844664639768e-01
-5.586962927871387541e-02 -3.453763833856985516e-02 4.463349436706282591e-01
-3.709303972525938159e-02 -1.027111364341991434e-01 4.852291335224728774e-01
-7.836891372188535543e-02 -9.881518323817080340e-02 5.309609839554720878e-01
-2.225742849066080983e-02 -7.317179451898103704e-02 4.501966493165143191e-01
-3.962569547581137885e-02 -7.216778729017250815e-02 4.543813295116980733e-01
-9.021203035503781720e-02 -9.366324002383816238e-02 5.287396318125725525e-01
-2.326442336540822040e-02 -8.960273678496517846e-02 4.600909005870948421e-01
-9.275994547769886300e-02 -7.367375095709320643e-02 4.752584794792248379e-01
-1.504520664364373227e-02 -1.105095961725318515e-01 4.807247352176413635e-01
-1.347586535722824184e-02 -8.463453298914512535e-02 4.544940961997251394e-01
-8.348349434130988844e-02 -8.548597237893251766e-02 4.857108852671976895e-01
-1.746608221589971560e-02 -1.208130217621375263e-01 5.141613599777846710e-01
-6.961643717420515354e-02 -8.963431297744088588e-02 4.829796363736233444e-01
-4.405177079677501106e-02 -4.065611452572939766e-02 4.446061473578166723e-01
-9.529004446359622127e-02 -6.859098914723377183e-02 4.725323812610534580e-01
-1.615003772966029563e-03 -1.254976104932822578e-01 5.313050794074508643e-01
-3.336766717447422342e-02 -1.142391949191228634e-01 5.414475118986228352e-01
-6.051531767434817355e-02 -7.042719160403597412e-02 4.595404928026696201e-01
-4.183123963718478333e-02 -1.047222801388120461e-01 4.929577815193884605e-01
-2.076296100143918896e-02 -8.906800332314727953e-02 4.589079842472015280e-01
-8.505464072394275377e-02 -6.696126289111603569e-02 4.631647748535996922e-01
-2.129253358137957533e-02 -1.106940968951793530e-01 4.850226168638037683e-01
-3.541860307005205433e-02 -1.143207154454089769e-01 5.269494566570627203e-01
-1.946160507521060151e-02 -1.196970868564509738e-01 5.379323782424341172e-01
-2.091875897718548094e-02 -5.488244439859997492e-02 4.438123534362193312e-01
-7.390782485146933645e-02 -9.512070793690743931e-02 4.997699163226665964e-01
-7.025928565747822929e-02 -4.293494870283386111e-02 4.572899682489671158e-01
-5.590193578281359155e-02 -1.048392917343555220e-01 5.091152073390455834e-01
-5.657282217730195267e-02 -5.808928311284678597e-02 4.518319736912458917e-01
-9.481089606887628529e-02 -8.536708154389549552e-02 4.932515223375088520e-01
-1.039274433532348940e-01 -7.878266084873029873e-02 4.900180267970654646e-01
-5.810972148755762928e-02 -3.144935194895263908e-02 4.498341660537185094e-01
-3.201177858595297132e-02 -6.477353400598570565e-02 4.488883185630404560e-01
-5.915104812856453176e-02 -5.000312270424000366e-02 4.489573661337464827e-01
-4.168538822187110339e-03 -1.170815888458010406e-01 4.919216195005962078e-01
-4.887595577895637033e-02 -1.036057997090180510e-01 4.970950528899772958e-01
-8.204091226755126642e-02 -9.399136644548082564e-02 5.051955989614355103e-01
-4.629742810397367153e-02 -4.029203257834232388e-02 4.448793206692239766e-01
-4.139637610560167880e-02 -5.832442306051499603e-02 4.487059172221055103e-01
-9.991024977753332204e-02 -8.533047146020510121e-02 4.981461812622176022e-01
-8.109602784130479081e-02 -8.406972669228382489e-02 4.817446859414094007e-01
-1.068222226965060417e-01 -8.704747817318189695e-02 5.227325025028607408e-01
-1.546999772763300515e-02 -1.196397156065793776e-01 5.040109451447822853e-01
-1.908869656561697215e-02 -8.574503017425733065e-02 4.560763818288176008e-01
-5.414345352935502620e-02 -6.265419329308982710e-02 4.536092811030892347e-01
-3.652083534833066442e-02 -7.242669208860905150e-02 4.535240706333549809e-01
-4.331874572940716539e-02 -1.042747838083494666e-01 4.932809331268934727e-01
-3.401820690558030047e-02 -8.323771744390162652e-02 4.596771591020452630e-01
-1.018487410002314464e-01 -8.956819160994626550e-02 5.220480593173092432e-01
-9.675697921138225188e-02 -6.111931867023528281e-02 4.752499980755993669e-01
-4.318286353716551534e-02 -1.081099638109461747e-01 5.030279191223608892e-01
-8.271187944451614815e-02 -7.088310582221454825e-02 4.652815096087543623e-01
-9.944324356764187856e-02 -6.026948408101108490e-02 4.861320426940342609e-01
-2.014384734963081333e-02 -8.492996548563001846e-02 4.556389750760165835e-01
-8.024627679804642588e-03 -1.179359038406929544e-01 4.944840342789086907e-01
-1.065891540755709299e-01 -8.299484991547766144e-02 5.018146499211224576e-01
-1.066210938308327638e-01 -7.245436046238898364e-02 4.878384628368932496e-01
-6.719063257157865954e-02 -9.421953269637058093e-02 4.907676533614814818e-01
-6.837623182735022564e-02 -1.011032254967764998e-01 5.139165318651930381e-01
-4.070154664012892720e-02 -1.098694941936348007e-01 5.056298107860172086e-01
-5.697700728475620785e-02 -1.039984459089869639e-01 5.072394850292853974e-01
-8.528959870319506587e-02 -9.194074644518632211e-02 5.016786536040422906e-01
-5.563456486866600464e-02 -1.058505233750657998e-01 5.413169420278503008e-01
-3.889853325721783633e-02 -6.176499803225518614e-02 4.492497347817388520e-01
5.258294666786204538e-03 -1.263148292694124819e-01 5.255040123928712559e-01
-7.734935535467458989e-02 -5.327576773630648271e-02 4.532372655294858999e-01
-1.642913795918968939e-02 -1.071306703876509919e-01 4.763170038025895670e-01
-6.260491788623985532e-02 -7.760308626013591449e-02 4.650500324650803652e-01
-5.998979997815648973e-02 -1.057804716098284525e-01 5.243955231406262074e-01
-1.037287774806646898e-02 -9.887948414306166334e-02 4.652449311086430672e-01
-9.418176084785928603e-02 -7.223080648441433660e-02 4.746983000587553514e-01
-1.054302290610207721e-01 -6.439095594416566204e-02 4.924415459983370602e-01
-1.158334806595869536e-03 -1.256759062127535964e-01 5.278338288456847494e-01
-4.021356103571295526e-02 -1.108685298303253020e-01 5.088048706945343946e-01
-7.575142838456197514e-02 -9.447530789930894124e-02 4.998182635341186786e-01
-1.016537269037891544e-01 -7.726887924970685106e-02 4.860638616590465255e-01
-4.884664130924170483e-02 -5.592761700446374079e-02 4.493538649487154313e-01
-3.389815198322750772e-02 -4.080092530989542360e-02 4.441103690006225624e-01
-5.737350561009200295e-02 -1.000711387983101025e-01 4.966977023222155507e-01
-3.675047694013396787e-02 -1.011767688288914835e-01 4.824752918354980324e-01
-6.744310995625600602e-02 -6.730987975317315186e-02 4.585899527671216114e-01
-6.039323200509881528e-02 -9.274394148327619325e-02 4.827336866715749020e-01
-5.246049037979744895e-02 -8.574684161272481953e-02 4.700531114061887172e-01
-5.474725481806943378e-02 -1.078152242420900159e-01 5.299151797752781334e-01
-3.156251658720481135e-02 -8.847533238759806851e-02 4.631104980828665840e-01
-7.276021999515389083e-02 -1.010922292404937417e-01 5.239370956861429951e-01
-5.791449699080018082e-02 -1.014441502383600924e-01 5.004483830497148400e-01
-5.620885290813668056e-02 -2.323701982574141386e-02 4.517991614658097288e-01
-5.554684998389759765e-02 -1.073212361485340605e-01 5.243058731663060579e-01
-3.024230173894542836e-02 -1.161563655829616071e-01 5.289916952207164291e-01
-1.898855335625532909e-02 -5.133686335485696667e-02 4.427319008470629313e-01
-7.578934377166493541e-02 -9.425957538471660402e-02 4.992368679734824899e-01
-7.331536169748593956e-02 -6.720142871790731054e-02 4.593389367674026169e-01
-3.570997529512073138e-02 -5.060822203735134556e-02 4.458983626593109317e-01
-1.082886974057762353e-01 -7.955066352178644107e-02 4.966885609021891579e-01
-6.624308897096749249e-02 -1.037653891084523994e-01 5.283351532756327407e-01
-3.762081613649189554e-02 -1.056231897681841059e-01 4.913762693502929380e-01
-1.757132676187028383e-02 -6.458875704402827767e-02 4.459108178022642144e-01
-3.982675385788428390e-02 -1.115229468518773720e-01 5.117800324760117814e-01
-7.117536640538317527e-02 -9.628141962996582259e-02 5.002978708953363940e-01
-8.805139128936723125e-02 -5.467289291885081559e-02 4.623924087825910800e-01
-2.542512089916193485e-02 -1.119089042604655415e-01 4.915121594505888480e-01
-4.893332055300955719e-02 -1.097129307495070816e-01 5.289825104507581699e-01
-5.046479825310091344e-02 -1.056921266191914177e-01 5.043168877446987386e-01
-9.393062684370404036e-02 -7.984352323843729726e-02 4.835650703666026784e-01
-1.236169629986110657e-02 -9.522453871255107116e-02 4.623615962528035972e-01
-5.441134757479754863e-02 -8.188553143907922882e-02 4.667844304329374916e-01
-1.016207770436023672e-01 -8.964801606196722006e-02 5.231201846477531170e-01
-9.422160366154071209e-02 -6.227288020205216934e-02 4.714400220916759032e-01
-9.297603026418842231e-02 -9.256376023863439884e-02 5.273443356355411726e-01
-7.733060586539873896e-03 -7.904195877809508386e-02 4.503930831230958942e-01
-8.729232347102501566e-02 -7.785109730381432891e-02 4.766557234608754801e-01
-4.578962984043633694e-02 -8.631837445643815443e-02 4.683328011954115966e-01
-4.106643912128705998e-02 -1.123344012205978598e-01 5.243248862172276148e-01
-5.478132886655145278e-02 -1.899636607406457803e-02 4.447189815313097871e-01
-2.115079915553098183e-02 -1.163437312460472023e-01 5.506179899727269289e-01
-4.090928635372362981e-02 -1.091995570153997674e-01 5.036780972322721928e-01
-3.217290918146583495e-02 -8.162433967034865567e-02 4.572118483990101900e-01
-1.678970602444228646e-02 -7.278131289578314289e-02 4.492303131171490604e-01
-3.540338369506057774e-03 -1.203747431251870614e-01 4.997885190365825570e-01
-2.901872994546851256e-02 -1.160494818267363698e-01 5.132097430981398256e-01
-5.782119567182564257e-02 -5.501068414178392901e-02 4.506959916868977789e-01
-4.640007831718304110e-02 -7.949182468335880269e-02 4.619519145334756161e-01
-2.443590947423662091e-02 -1.127570819275213743e-01 4.926121744162977878e-01
-6.977993493876565034e-02 -9.611432305399016107e-02 4.981581666108699236e-01
-4.392816449444039706e-02 -3.495092907620984263e-02 4.429745182662001013e-01
-9.755331525690082162e-02 -5.960209451365900551e-02 4.811758474462017321e-01
-9.740409669979960272e-02 -8.252028650694552547e-02 4.902672524424310230e-01
-3.952373193925132200e-02 -8.115151310570348220e-02 4.606964616355754272e-01
-5.185775959204746988e-02 -1.085907627874695414e-01 5.242125391719477667e-01
-4.250442627261388079e-02 -6.900927651988875144e-02 4.536640889436805435e-01
-3.874929873325000385e-02 -1.016266684340017684e-01 4.845053384392847273e-01
-8.965952123629156167e-02 -6.101948346914838617e-02 4.634788985483538903e-01
-1.007614419372984960e-01 -7.784824164095395516e-02 4.861003926997866653e-01
-4.719836547259310261e-02 -1.099011228437579007e-01 5.367038094708860285e-01
-7.578957689835119638e-02 -9.949323781764202179e-02 5.202475488916040725e-01
-4.286502642758930476e-02 -1.106444095641032355e-01 5.139321482446063127e-01
-1.049509141275738466e-01 -8.497308647325957365e-02 5.046235910712091322e-01
-6.876995172367506015e-02 -4.860327684579810598e-02 4.510025608671070496e-01
-3.639458366528684763e-02 -9.283183328340288698e-02 4.707158938965423922e-01
-3.811928351674426924e-02 -1.126714679014177156e-01 5.153559841966185440e-01
-1.046118942811632702e-01 -8.712976719333132003e-02 5.263636962563084110e-01
-2.398586285820339045e-02 -9.196149281442683732e-02 4.623271951930895685e-01
-8.067721438634027631e-02 -7.835183186529123822e-02 4.734089326600823822e-01
-8.347674083703479631e-02 -6.556546939353015413e-02 4.609988519190427736e-01
-3.941579983647201108e-02 -8.547468512008735142e-02 4.647595101721160304e-01
-4.452543772091591828e-02 -1.072738217646269365e-01 5.020298649717245265e-01
-2.335025120631402731e-02 -1.188418315641768253e-01 5.281385562613917228e-01
-5.362126543839448867e-02 -1.075503842415322930e-01 5.203471848166406621e-01
-1.106887277382271467e-01 -6.890902038103652316e-02 4.960677600824797140e-01
-1.571971913967270054e-02 -1.219215440609139334e-01 5.210034910091005944e-01
