1.987956394439423236e-02 5.805749985714598466e-02 4.671035352789573714e-01
2.781541201570626037e-02 7.681066080879977477e-03 4.486350771226007561e-01
-2.699888558766779662e-02 5.010549295304184136e-02 4.529462682362000447e-01
7.954370628944374549e-03 5.675126437067273821e-02 5.080138233097823974e-01
3.259253631392804856e-02 1.391316943245412413e-02 5.219271532233940025e-01
-2.544784955536495002e-02 4.707772141533570626e-02 4.510546262831373610e-01
1.014938107538613903e-02 4.827226062150809932e-02 5.124911312037384592e-01
3.357624311396363581e-02 4.378866969517943714e-02 4.959644149673299030e-01
1.995825262752837920e-02 2.086208126776863472e-02 4.499450421662811173e-01
2.327210822863093678e-02 2.545088647679551869e-02 5.225282285605116206e-01
3.739036144277402274e-02 3.943595786026432570e-02 4.773704991376067075e-01
3.649259522564247266e-02 3.610502349972612851e-02 4.705577279169731453e-01
3.618290466578313186e-02 3.999871011172071583e-02 4.936439363730984464e-01
-1.891407601968319099e-02 3.025445697251770774e-02 4.443274046198152916e-01
3.791886348318197070e-02 3.858620101181602091e-02 4.887800177368387677e-01
6.527639394036399006e-03 6.665085300473541641e-02 4.992794324433853514e-01
2.742976217157720026e-03 6.142281579096391803e-02 4.589956071974962692e-01
1.276187734205235305e-02 2.973882399274634103e-02 5.226391745747677176e-01
-2.167876099403263923e-02 3.487576947210673656e-02 4.456632528691299999e-01
3.080903090489181539e-02 3.800123567214068465e-02 5.053015031248979660e-01
1.563135133927479048e-02 4.948584775460904139e-02 4.603539226099257475e-01
2.958058120038315961e-02 5.589557570343113568e-02 4.833764397066900864e-01
-2.917404640210210023e-02 4.343619030612291820e-02 4.490610088543445788e-01
3.062685780415870182e-02 2.550735098712868590e-02 4.581759039180462456e-01
6.875045385348683286e-03 1.336410808204567015e-02 4.435517521385267115e-01
2.163305451061317553e-03 4.272037472966291188e-02 5.181807991599443053e-01
3.768614064564448224e-02 3.930179573638561269e-02 4.850546727692231497e-01
-2.018472511109291670e-02 5.400879889488194308e-02 4.539942297991280684e-01
3.467313451993513790e-02 4.141102109792003938e-02 4.728268993369336148e-01
3.441566491556392882e-02 3.996659519160374735e-02 4.706186347440990403e-01
-4.066342265301919195e-02 3.659149757193419505e-02 4.466248793836802844e-01
2.781739692755744175e-02 9.558902562145487475e-03 4.493609349800868902e-01
7.670122372436053923e-03 7.333487973537727855e-02 4.716554312662064596e-01
-6.983174090301360118e-03 6.291930431708740203e-03 4.387484997429303979e-01
1.775190682307930742e-02 2.444134341751031878e-02 4.507862976893232121e-01
1.515718896861933127e-03 2.825473807448012839e-02 4.473404767591299680e-01
2.740540196121645997e-02 5.256683454715987969e-02 4.960348552315648751e-01
5.299848966899551976e-03 6.197357693248282950e-02 5.055603939224114773e-01
2.237622110040195234e-02 3.385992647552334145e-02 5.159640118162999167e-01
3.172771617709664246e-03 3.302697268383592705e-02 5.208572222625732495e-01
2.617087592697325132e-02 4.388551137487241294e-02 4.647390309327609770e-01
-6.183208128723676617e-03 3.167943287610925501e-02 4.469043523922399119e-01
2.702949033474718807e-02 5.035115870431480095e-02 4.700808682327222154e-01
3.462448954113013511e-02 4.369536423328336527e-02 4.925113759201815711e-01
-1.625039608710540651e-02 4.636461038916447029e-03 4.368675921222379688e-01
3.564464422879648486e-02 3.131517195641403406e-02 4.658554258595419273e-01
1.731367385165486633e-02 6.522595559792954134e-02 4.958685610447066128e-01
1.154075629487429089e-02 7.250381652350067208e-02 4.884212554674700058e-01
2.263820451603669806e-02 2.067894357727772733e-02 4.509711107142643227e-01
-6.334590491969120142e-03 4.697368321984246586e-02 5.158115017266283742e-01
-4.794934738750443459e-04 1.731223871938511114e-02 4.431499444729526949e-01
1.044941318204368336e-02 5.153441768983723498e-02 5.103139256394536583e-01
-2.067028164924565592e-03 9.755828466490307563e-03 4.404125447571413110e-01
-3.462766721268372653e-03 1.069285801164925401e-02 4.404860904722868176e-01
-2.466972432603884227e-02 4.422734730622400467e-02 4.492133577227177543e-01
8.042645748503152864e-03 4.950271893600023676e-02 5.122501507435317514e-01
1.900812691167751145e-02 7.043117657244668539e-02 4.822450880155532138e-01
2.252131956097513238e-02 6.191519254803334177e-02 4.922291185627259980e-01
1.989224897698995895e-02 6.635594984635043159e-02 4.905068602844879222e-01
7.329767481903349743e-03 7.106034071836977994e-02 4.911820565440158659e-01
2.171510056173885442e-02 2.131381610029040724e-02 4.509459853697546650e-01
1.329200281094818602e-02 5.131306254434128689e-03 4.421661938576236794e-01
2.346940175776014714e-02 6.241763050570137833e-02 4.903398367178101180e-01
-9.951719041929572157e-03 3.305101457028628009e-02 4.467872822747125383e-01
2.055574580049157607e-02 6.165338916762622135e-02 4.952065726813582591e-01
2.219374119289908159e-02 1.824026293467049739e-02 4.494794084693528036e-01
3.128947681467170172e-02 3.165563638941330804e-02 5.089554477233050322e-01
2.381146797143488154e-03 1.273013227344295568e-02 4.422594537385877156e-01
2.511226431631267617e-02 6.094018265498592907e-02 4.881467418560586635e-01
2.616226368924176506e-03 5.842270344657155695e-02 5.059598291300804185e-01
2.257175440693967583e-02 6.540667157044309857e-03 4.457367089874408328e-01
3.484406615720874595e-02 2.704025656119380880e-02 5.065775348396429623e-01
7.039317920298736320e-04 6.112385499137071299e-02 4.582101293589511681e-01
8.425048611451395678e-03 4.760358998085827131e-02 4.563104798494792558e-01
1.954483950669052422e-02 6.901749556665415231e-02 4.762188608628643016e-01
3.655670153276800033e-02 2.106776506841271865e-02 4.609961705964459311e-01
3.162317501101762768e-02 2.803419843264052386e-02 4.603246171228806416e-01
4.231169196138778732e-03 4.137434186474558961e-02 5.184125363463909508e-01
3.572082240953439181e-02 2.890207896014873948e-02 5.034390599941707123e-01
4.973703117890793807e-03 6.659694735548842004e-02 4.963311578804821544e-01
1.348273168761403816e-02 7.140999593839220116e-02 4.919519249962137075e-01
3.969497215164032727e-02 1.826348616745019499e-02 4.626347658206593216e-01
1.590767683400906227e-02 7.238615531367187383e-02 4.755607604811898370e-01
1.664521452162265325e-02 2.807607399743185933e-02 4.518815980400101018e-01
1.984714623024249475e-02 3.107941003511558581e-02 4.544739148551783514e-01
3.758668973841264999e-02 1.745953333495972246e-02 4.600346012663718009e-01
2.302496231857953726e-02 1.523366878689497335e-02 4.488971192815161548e-01
3.378649203658506961e-02 3.672478135234618496e-02 4.672944362562929665e-01
2.912992839747257506e-02 1.672603815480294687e-02 4.530681166390143066e-01
-2.071479623191148020e-02 1.893710778524880164e-02 4.408006155772692947e-01
-1.155915516436859490e-02 -8.189398090705056824e-03 4.361268736713577732e-01
-9.376967959370463221e-04 5.692550121873661551e-03 4.393087376202618466e-01
4.002473585658656435e-03 3.797581612445146554e-02 4.518347799571257317e-01
4.025503651376945852e-02 2.963616201261844510e-02 4.938554757120816041e-01
-3.564774469662464196e-02 2.783101406645741710e-02 4.435912976485725245e-01
1.855176659491134319e-02 3.867144607468589457e-02 5.150370530926210444e-01
8.414018844932636548e-03 6.656415255195791136e-02 5.006131748188492603e-01
3.299990514856667584e-02 4.856496511735958893e-02 4.872540875795023929e-01
-2.699104872627680965e-02 2.587926986242962413e-02 4.427345591241913514e-01
2.143352441345613632e-02 5.272322691471492684e-02 4.654417465000329490e-01
1.958919517148949990e-02 4.359473994898378779e-02 5.118751811102547622e-01
6.378533261440846001e-03 5.997869817761948552e-02 4.592710797185026728e-01
3.550966861914583994e-02 3.231721947718910887e-02 5.016002793438493201e-01
3.648478307929416825e-02 3.209892463092573617e-02 4.670678529099482890e-01
2.360922465956057439e-02 4.349745886849712417e-02 4.626178756542486670e-01
9.376554948927237620e-03 6.665913569919210135e-02 5.003896535436519466e-01
2.566606732961810439e-02 3.908899726476829095e-02 5.103961312218359136e-01
1.023366831041870942e-02 1.992385731251600581e-02 4.467013641525823808e-01
1.660055037929968752e-02 6.171912721449431677e-02 5.005868233463274253e-01
-1.977267904724739137e-02 2.335415766276237662e-02 4.420986630623254254e-01
1.312156487306652582e-02 6.748703178229911726e-02 4.674089796427356447e-01
1.361087361816411441e-02 5.851250296334360029e-02 4.628318745418459890e-01
7.516055295181817142e-04 4.130702506994732987e-02 5.185587069504568047e-01
5.119247955454523172e-03 3.246526138935641043e-02 4.500412211956436037e-01
1.015675122115807655e-02 5.127453868070776244e-02 4.580490809253536799e-01
1.222543281274750260e-02 7.001190629480082139e-02 4.968574400028660243e-01
-4.580075992841942632e-03 5.006781288868118740e-02 4.533298258588428498e-01
-1.102201803044947602e-02 4.437763040505372097e-02 5.141971998728076532e-01
3.879990265204612959e-02 3.333107736033497775e-02 4.728296097183136704e-01
5.721535986085773615e-04 3.801243469967754279e-02 4.507264697823240018e-01
2.202616230449679080e-02 3.004669448896432615e-02 4.548266415283080399e-01
4.089524508353174423e-03 5.545494428489507882e-02 4.567221689330790424e-01
-1.978794674594582317e-02 5.091805096708781897e-02 4.524967428264574654e-01
1.965233452674870415e-02 4.411196788451780815e-02 5.115590306361249562e-01
3.921598029657345774e-02 3.216426900879696543e-02 4.944750120460812970e-01
2.542134886896894180e-02 5.541816820702420709e-02 4.718724533629850559e-01
3.122621157899703112e-02 4.390524182321007413e-02 5.009620414107976982e-01
8.233560784995971882e-03 6.923934880857593455e-02 4.969765272951631729e-01
-1.384117584985630409e-02 5.348194776538793549e-02 4.534682653612926995e-01
1.936314069064887233e-02 1.082825769976279023e-02 4.460298628036490909e-01
6.467652059059077890e-03 6.995493493461946155e-02 4.681880699406225088e-01
2.093332513488652818e-02 4.104232578769335948e-02 4.596620075980347719e-01
1.530160842927844565e-02 7.074597145868288806e-02 4.918810955327886925e-01
-2.889326541072266205e-03 2.163237253180244277e-02 4.440375478204698356e-01
6.345497209526725253e-03 4.274362762727128284e-02 4.542583384988295170e-01
3.869427893945593527e-02 2.263420084913882885e-02 4.639742451501150389e-01
3.815040942009729347e-02 3.588664083252827985e-02 4.936241502669741488e-01
3.757175630599803723e-02 2.301544235738118074e-02 4.630519136476026754e-01
3.013234263984370179e-02 5.069596168539159536e-02 4.922189876550262522e-01
3.528342232231929804e-02 1.778744293893956205e-02 4.582480164806319589e-01
2.109886383997225737e-02 4.023632458092597092e-02 5.128192185791752289e-01
2.504768847317098007e-02 2.388411473391037487e-02 5.218280414800980926e-01
2.900666363897384803e-02 5.275100797074121911e-02 4.912358756322514619e-01
-2.752563702297199100e-04 4.681391202394492163e-02 5.166712105054742654e-01
1.894346477596744321e-02 6.867289614369831430e-02 4.741159731390180432e-01
-2.476656509902500081e-02 3.173641517678806728e-02 4.444141124162358514e-01
2.777022665424535783e-02 4.228582076751118829e-02 5.066687146553995325e-01
-4.796578019441496282e-03 5.161603039523386671e-02 5.095805723889634820e-01
1.241429190497690335e-02 5.341997911870284554e-02 4.601468448036175052e-01
-1.619479412296029319e-02 1.786765870448794868e-02 4.406892718619713212e-01
-3.685495272033809111e-04 3.608727310010145795e-02 5.199343939726062125e-01
3.386805366790108379e-02 3.053529079101964527e-02 5.053314789297919107e-01
4.159369299915909729e-02 2.183413610625456816e-02 4.685578127676516269e-01
-9.491604740493077286e-04 -1.763955276855307987e-03 4.369292781668734360e-01
2.506836024193513299e-02 6.243263746582818768e-02 4.845972734388386272e-01
-1.443287777348800302e-02 4.213222013263818316e-02 4.493390444934770578e-01
-1.171572016340020027e-02 4.313806316856811512e-02 5.164886879311842982e-01
4.450055353519664914e-02 2.131339504909677759e-02 4.784849786522649695e-01
5.038882855397067151e-03 7.304866941060322860e-02 4.785461140087335918e-01
9.339938593942841843e-03 2.738672992393676505e-03 4.404160096241926392e-01
-3.727906025582950617e-02 1.942595074528821351e-03 4.400169561784358918e-01
6.350226138013207247e-03 3.129319944599017606e-02 5.218202137555513209e-01
3.013103807865982406e-02 4.269224383996982064e-02 5.039896311681653085e-01
1.681790216414697208e-03 3.251522421457683082e-02 5.211995571400742655e-01
-8.500544046088600453e-03 2.445369805901117383e-02 4.439290336179958496e-01
1.673297143845104556e-02 2.092341331991960998e-02 4.490163624410474230e-01
3.606569352468991935e-02 3.169102670593706983e-02 5.009949463464877795e-01
2.674151498796287219e-02 1.122498562449825155e-02 4.493111532572330868e-01
1.910621787086971834e-02 7.002660236513577607e-02 4.777741612338779476e-01
-9.689084623562639609e-03 4.874216306165916890e-02 4.520402832420853945e-01
-2.134625755793811887e-03 -5.669466483670688312e-05 4.373244306011004889e-01
2.343904195511090083e-02 5.552644361586841354e-02 4.693710823178489089e-01
2.694987094573348535e-02 1.392237444172079487e-03 5.323670480123698923e-01
3.141312997620540615e-02 1.739092345364708775e-02 5.206631147800466763e-01
3.358060198214349312e-02 4.188727504348098429e-02 4.988020196397006667e-01
2.781300722111236697e-03 4.229404879232215309e-02 4.529632729741291386e-01
3.273254661320337822e-02 2.936202070015754215e-02 5.083650977869085263e-01
7.196324429609509896e-03 7.160851187270757257e-02 4.891185979313898979e-01
-3.173325602541404201e-03 5.208563525708408831e-02 4.539853432484219908e-01
-7.728590284421094775e-03 4.771955424347268382e-02 5.134791900111016494e-01
1.116659505363637450e-02 5.226857353815517193e-02 4.589948514452574790e-01
1.750139342866738681e-02 2.050552740583092351e-02 4.490804188019255072e-01
7.624486245496998361e-03 7.021827829364439555e-02 4.686040583867846498e-01
-3.001828271349633870e-02 3.152654388900834673e-04 4.380914662412101479e-01
-2.783504502868419661e-02 3.531784705332338681e-02 4.454436957830584243e-01
3.851737783303140622e-02 2.459389494068256118e-02 4.649526447386354011e-01
2.833171554758396465e-02 4.378121810383892726e-02 5.055288728596460945e-01
1.062315452808890864e-02 4.426003904311003739e-02 4.561589631616715379e-01
4.062435673381614015e-02 2.583863708906899287e-02 4.965466556556223376e-01
2.694554124522125296e-03 3.119412544419726541e-03 4.391188043973833777e-01
1.344890134775746440e-02 4.319230572868407864e-02 5.151410742594685344e-01
3.752358328122117059e-02 2.207608994823577822e-02 5.057712640373713819e-01
4.330114160921623434e-02 2.437341150061083858e-02 4.771027920720825599e-01
2.650362635179602175e-02 2.031642012437379075e-02 5.227268471450654541e-01
2.581695909646393970e-03 4.770251759377932416e-02 4.541335962874170074e-01
-1.049439431463136153e-02 3.018381395177364632e-02 4.454739482783914295e-01
3.010175629862090613e-02 4.919874008552659050e-02 4.736379379992091132e-01
3.341804268687926377e-02 2.281852051691699371e-02 5.141632221239700318e-01
-5.819042014486093713e-03 5.218238085694278106e-02 4.537155501517403655e-01
1.490190244697311636e-02 3.162099863072911216e-02 4.528053563094558975e-01
3.052573377210131278e-02 4.598020793525107314e-02 4.995350792498227666e-01
-3.228955002808713698e-03 3.028892755245367677e-02 4.469617870920655767e-01
-1.158319896154528378e-02 4.366279197707122195e-02 4.501972097260555916e-01
-1.703217023290067716e-02 3.937568364441926955e-02 5.139199142140580268e-01
2.977835845925826813e-02 5.529822868660810159e-02 4.838643125458755856e-01
-1.488269496707592988e-02 3.466384454870981291e-02 4.465319521393214530e-01
3.297606674092640015e-03 4.746988531645813386e-02 5.156330713669285970e-01
-3.644277747390404359e-02 3.719212058334568638e-02 4.460725167477390674e-01
-2.570213680036910042e-03 5.017485423584538279e-02 4.536019374789158065e-01
1.361218188433194719e-02 6.242944785285090697e-02 5.033449473202409319e-01
5.622888213897119999e-03 6.497609252310389272e-02 5.016367930084479898e-01
1.222990599258447914e-02 4.464090717304448896e-02 4.568758485716746809e-01
-5.371229056674041262e-03 4.766394950495470711e-02 5.153718683149849378e-01
3.480866426703700667e-02 4.588089349409432693e-02 4.830823449165999040e-01
1.819556236861922388e-02 6.915626122314429136e-02 4.898001792924845943e-01
1.418237578635835744e-02 5.605316228980686266e-02 5.069325502335899625e-01
9.816409677917008886e-03 2.872621842136008699e-02 4.499499778247768034e-01
-1.912484523125707048e-02 9.330571751756479293e-03 4.378435238283206465e-01
1.832568572694283013e-02 2.517859910066820583e-02 4.513173161727279670e-01
-1.997077330451246455e-02 5.705487149303433564e-02 4.564604227750808652e-01
-1.070472876165473423e-02 3.094138190961788146e-02 4.457635957966820661e-01
1.685342841521951865e-02 4.462892208686582152e-02 4.589746270344744472e-01
1.632225796752712413e-02 2.017203624525034864e-02 4.486109507634876703e-01
1.573711079551807016e-02 6.386579734187208812e-02 4.994818816641980463e-01
-1.416670002410687357e-02 5.923890707506097864e-02 4.573516579131346460e-01
2.214207562965531118e-03 9.093106935621212555e-03 4.409859499020032936e-01
1.591400536092584667e-02 3.797515795356497248e-02 5.173328789773633529e-01
-1.366935794843363028e-02 3.672827036256570699e-02 4.474916279906434036e-01
3.828068846592024704e-02 3.809646427823043524e-02 4.818194332265053337e-01
-2.628585575196914527e-03 4.758402104071982053e-02 4.529019640794971768e-01
4.442941779925089346e-02 2.193954182494447722e-02 4.832706392324626066e-01
2.235674334636144137e-02 5.947907442813910733e-02 4.953399746941689608e-01
4.218785220819602257e-03 6.649880995913579063e-02 4.955161162727300672e-01
-1.979649532478115759e-02 5.144330523860565774e-02 4.526844841843698508e-01
-2.875070059119321994e-02 4.082187407132228940e-02 4.475021984444382817e-01
-2.440695134858756471e-02 -1.000461066341133340e-03 4.367942858089395308e-01
9.757450285962461153e-03 8.035598417427102999e-03 4.423662753672974457e-01
-2.114495669622445256e-02 3.265441594898691510e-03 4.366477790942779325e-01
3.636668444629858471e-02 4.268122782056017056e-02 4.827712884874448274e-01
6.008157944901600621e-03 5.318661160988628900e-02 4.568176325767779322e-01
-4.011860171556123379e-03 5.296758595072154768e-02 5.091425520417146577e-01
-3.015729262348270864e-02 4.365092431917909355e-02 4.493632520657071527e-01
1.160582909116249749e-02 7.304352434065625177e-02 4.865524769101030045e-01
-1.164293435174992147e-02 2.533283853413121137e-02 4.436590423316406073e-01
2.609309744911691639e-02 3.183242191910972546e-02 5.138530933727141203e-01
4.207498911376430367e-02 2.537566656492699912e-02 4.917765850638691760e-01
3.497990691843175931e-02 4.088393247440587353e-02 4.963765459797280788e-01
1.587932249564170256e-02 6.493646998869515019e-02 4.981620143841770099e-01
4.155191242536177693e-02 1.977795770549839113e-02 4.667909797056656873e-01
2.301496714572671271e-02 3.862374914264904424e-02 4.598579415221762945e-01
3.728102838251971807e-02 3.905940859574248691e-02 4.914120266517424951e-01
3.866201365338471641e-02 3.613270141723359807e-02 4.914754346366956295e-01
3.294033372119722219e-02 4.091174934697029697e-02 5.005081336014669535e-01
-1.608097624254853711e-02 2.861902470641052715e-02 4.440707243145504690e-01
1.746472739447785770e-03 5.213749115304126130e-02 4.550606554014190452e-01
-2.493220677518227790e-02 1.069000668590608209e-02 4.386777100295718435e-01
1.579446740153774356e-02 2.678338113755808145e-02 5.241488222067244296e-01
-3.298692506313493505e-02 4.349108602087092823e-02 4.500304631840996716e-01
1.204690585572410454e-02 7.354827625184552631e-02 4.858270186247362621e-01
1.835246074538411307e-02 7.030772411766997299e-02 4.755969043144451236e-01
1.554709460023772152e-03 3.843744607725954610e-02 4.512121901620774200e-01
3.698088020160097966e-02 3.612054620165965763e-02 4.975143097936861047e-01
1.426345410922785946e-02 6.938938442495298786e-02 4.954456227086990183e-01
7.705984599812747138e-03 6.773553468648021991e-02 4.989420349974273416e-01
3.384298533671384335e-02 2.430442465630686111e-02 5.105357199169041627e-01
1.327460443736109587e-02 2.680372580426196652e-02 4.502519074657105880e-01
-1.528057896050553617e-03 5.418888756083747871e-04 4.375854624017165295e-01
-9.965056516810096368e-03 4.226687681023508225e-02 4.500515130592955826e-01
-1.984205602922559444e-02 5.413315505808521076e-03 4.368863022205830560e-01
2.316963296786896456e-02 5.126376333813956881e-02 5.050676645972249634e-01
1.953227273123694582e-02 1.750803153366598669e-02 4.484546833368417973e-01
3.144611681870693176e-02 3.079735936611760483e-02 5.094170078609548957e-01
9.265379721821530301e-03 2.785582852295880735e-02 4.494009850414644180e-01
3.115125960781120473e-02 4.752651071332673893e-02 4.950788115142520929e-01
7.755173408064657339e-03 5.405096456052886633e-02 4.579282571070160124e-01
1.298639086786713276e-02 7.084642320604263299e-02 4.700859508415381471e-01
2.042097735746730910e-02 6.402150145537167936e-02 4.925695294924595791e-01
-1.567332358831454928e-02 6.760380407625059436e-03 4.372759393010185458e-01
-7.455598060105131722e-03 4.781761005485952315e-02 5.136412382704603763e-01
2.448100856378263718e-02 2.280484166553878658e-02 5.226808262426454466e-01
1.406891916644637669e-02 4.845701686990527834e-02 4.590319486902085244e-01
-2.700394571201567354e-02 8.817259873791276348e-03 4.385744517692913846e-01
2.001151236830804939e-02 1.877993317950289731e-02 4.490669855865594973e-01
1.790307643016760333e-02 5.946915131549308786e-02 4.662385610245551870e-01
1.026708253758683645e-02 5.228732305519515761e-02 4.584969432678589474e-01
8.144190604931924801e-03 2.859997502546549400e-02 4.493590452912082922e-01
2.617305032620153432e-02 5.830832764565733323e-02 4.754170104079139536e-01
-1.280996531561904694e-03 4.903112233735976155e-02 4.535782023684469255e-01
2.779030385251699681e-02 3.206186363608592299e-02 5.120093181592908493e-01
3.483362562685708187e-03 4.422677753570332382e-02 4.536091092640601175e-01
-3.662193475263926523e-02 3.573915555769761193e-02 4.456113046451055659e-01
1.059725540615479196e-02 3.240987122842703405e-02 4.517877554536720019e-01
-1.036225908396810891e-02 4.424092399229732908e-02 5.162186449311001457e-01
2.423473360473082580e-02 6.208650847597771416e-02 4.764113551498130317e-01
2.053278461495845059e-02 2.757893844260475569e-02 4.531773564530839904e-01
-2.869103478600316601e-02 3.197638646842890231e-02 4.443396175694740990e-01
1.895666301630799522e-02 5.113086745250584875e-02 5.080731661121405951e-01
4.300986345719151616e-02 2.589518629903335423e-02 4.860184522106952842e-01
1.734804887558919623e-02 4.955289762280603444e-02 5.097295897586541225e-01
2.970345867827075409e-02 3.335119744872672848e-02 5.101762299891041685e-01
1.439697778609260945e-02 3.279704158865713592e-02 4.531480720775857285e-01
-1.378995342389748545e-03 3.453376299916520453e-02 4.490241075031591311e-01
1.618866080402869834e-02 5.511741020983836753e-02 4.630842743665753436e-01
4.608884937483454305e-03 1.378930056506999860e-02 4.431044338740777189e-01
1.691128898864333735e-02 6.608038688166475993e-02 4.954752100636443668e-01
3.396944536507302131e-02 3.671704233785254984e-02 5.019001293043220402e-01
1.166926080217273176e-02 5.895484766527987752e-02 5.060258714493759413e-01
1.088475363551907188e-02 7.714538770783858912e-02 4.767766564335074730e-01
2.731703027464955219e-02 4.350564709434905086e-02 4.655145779695064601e-01
-1.474861632041571044e-02 2.931796226681141621e-02 4.445116880851288088e-01
3.152966895848792472e-02 4.354646860468070618e-02 5.009167095027249328e-01
1.559092378838078038e-02 6.531076670664985595e-03 4.434122322212445400e-01
2.873198920303732598e-02 4.759240110312697863e-02 4.701617010774576388e-01
3.065529228116516819e-02 5.240262120600238521e-02 4.853354047134047500e-01
-2.003302178434759537e-02 4.531236559824931842e-02 4.499258956307291557e-01
4.434765253192151507e-03 4.200115380221314254e-02 5.182547817412113123e-01
2.356968679858984644e-02 6.283617403950761404e-02 4.758207818292999880e-01
4.250040989954769616e-02 2.795872824381251398e-02 4.817236554153353500e-01
3.281426098954853127e-02 2.378494301637773534e-02 5.142659168398427960e-01
-2.849687128335145689e-02 2.089825689157695510e-02 4.414638602822182345e-01
2.593442155682939686e-03 5.841599235384307975e-02 5.059031683769876775e-01
-1.411302179338028845e-02 4.118031272651316577e-02 5.131527692919366501e-01
3.946125086893655098e-02 3.321695988358802643e-02 4.922587809244425849e-01
3.012083375844351596e-02 1.777178839536708993e-02 5.214708096416469374e-01
3.170462518030753990e-02 2.105646521578340147e-02 4.569128671765035343e-01
-1.561239114550388128e-03 5.454958432268528640e-02 5.063203485474458976e-01
7.841084106782436960e-03 3.201883586621462330e-02 4.507510981712711251e-01
3.190775957448987316e-02 4.422411683199488353e-02 4.710546486935088262e-01
1.102547141804633042e-02 7.468364495172749584e-02 4.747147894268468615e-01
2.105997171499621873e-02 2.912739359545017323e-02 5.216622708156546384e-01
2.343324432033980220e-02 6.490194533830166701e-02 4.847451951378377588e-01
1.285429288807416089e-02 1.507982830929255336e-02 4.457841273988986663e-01
2.186745773080414276e-02 4.765726257092848389e-02 4.633307336538114996e-01
-4.307650103411720700e-03 5.767467558334440220e-02 4.553079175420257085e-01
-1.703507883143977678e-02 4.555391899299218034e-02 4.502504658037647656e-01
-1.537225375504141373e-02 2.512935073575784523e-02 4.431058016265223554e-01
2.590582625788147297e-02 7.111526859915019358e-03 5.294312528217730573e-01
1.235129979514345069e-02 7.579478562171208800e-02 4.769217216089668421e-01
4.113569896953721966e-02 2.285030858719248187e-02 4.980947114547598642e-01
-5.024144874367218738e-03 5.154730817110354801e-02 4.536368150105895003e-01
5.102669541855406679e-03 6.602990751759166277e-02 4.978425622293517483e-01
2.379219943750154539e-02 1.179883031900565149e-02 4.480665806754449143e-01
4.442856724820217623e-02 2.196831984682664704e-02 4.831275842854631519e-01
3.080628199471467307e-03 5.990956605310159000e-02 5.044185026282180795e-01
3.206049987925670142e-02 4.000731839390967576e-02 4.676261521833090518e-01
3.026994596042266450e-02 1.904567217342890278e-02 5.205350972571468615e-01
-1.333729717967906125e-02 -1.125378024690821231e-03 4.363965296300952867e-01
1.219565798886974861e-02 7.302254876214556156e-02 4.733194767088164112e-01
3.714169298199748032e-02 3.483747621992288462e-02 4.704287928789610551e-01
1.335739381710011019e-02 5.706636815556245801e-02 4.621137127943349410e-01
-2.902747610279235099e-02 2.809686660281763421e-02 4.434344189454691998e-01
1.644370536167937338e-02 4.909577344227307460e-02 5.103411301746676454e-01
-3.407376902189838616e-03 4.466189480594447841e-02 4.519266817107274181e-01
6.080274171863171359e-03 4.353838605003249734e-02 4.543672555407501923e-01
2.877171021526689701e-02 9.066822156936240468e-03 4.498565428880474948e-01
-1.724885108875539100e-02 2.458171217624560007e-02 4.426996345354962115e-01
-1.417575335643203246e-02 2.131143744372766824e-02 4.420720915646895732e-01
-8.163550146543283037e-03 3.467153552207305478e-02 4.477361127626315884e-01
1.391782312105313557e-02 2.742511815496297828e-02 4.506991409940773741e-01
2.931618858517921408e-02 3.815768112224195152e-02 5.066083526826479222e-01
9.588411838532151510e-03 7.708779051903878743e-02 4.794337906653318160e-01
7.748104631626506755e-03 4.467638929091828637e-02 4.552951740172486161e-01
1.545545286698356627e-02 7.356122196095814247e-02 4.808122361568040737e-01
-1.392257443938595476e-02 3.074196944234008563e-02 4.451959147607004175e-01
-9.704629284956779733e-03 5.892235698039588465e-02 4.563555485496602060e-01
-1.563218789206658257e-02 3.426796422116157315e-02 4.462738513792698369e-01
1.461518314274709313e-03 5.343631994865542106e-02 4.553084967703345809e-01
2.099187720378557775e-02 6.508802985888777204e-02 4.734811278794255340e-01
-2.007187685398106013e-03 4.391884003868121167e-02 5.179025492799061992e-01
2.676631670429546056e-02 2.960959956144918609e-02 4.576152215669142542e-01
-2.971211078810304107e-02 2.410910427597135613e-02 4.423129932450745594e-01
-1.347768963952019651e-02 4.913047576931715149e-02 4.519588448045813167e-01
-2.673325128436094059e-03 3.983682821005787855e-02 4.506139958684871050e-01
-2.687395594219267950e-02 2.242728639136068805e-02 4.417227788450787673e-01
2.396982175040083748e-02 2.461278507710174673e-02 4.535331243088603914e-01
1.515490803927912848e-02 7.012765002977644491e-02 4.709896192795142156e-01
2.518039146196661415e-02 6.279990007379648853e-02 4.821638415862783411e-01
-2.191913022443389703e-02 1.599350868372911849e-02 4.398973360466155169e-01
3.962332954166416371e-02 3.178885795368232431e-02 4.733989634080110753e-01
1.396089542635980951e-02 3.099701774022683640e-02 5.209287298959468515e-01
-1.990034400258258729e-03 2.957175405785535116e-02 4.469656467001836275e-01
8.296329438592724495e-03 7.057392729996610214e-02 4.939704976253628810e-01
4.107392604683479664e-02 2.854515170783560388e-02 4.920867187814522148e-01
3.446517317626884847e-02 4.619821023933869120e-02 4.816375193621919570e-01
3.910978393038736650e-02 3.595369263414464195e-02 4.871929655343297805e-01
5.117723195734423698e-03 5.181726961189735137e-02 5.114560803331701377e-01
2.339296394348064009e-02 5.439754087528165388e-02 5.009493338435383469e-01
-1.161150940178757793e-02 4.683264384077753806e-02 4.511899141511830358e-01
-2.949218231995175479e-02 1.571501860098565781e-02 4.406263762901500014e-01
1.774810121553777736e-02 6.257189128432365244e-02 4.678586084327476247e-01
4.185413625491779532e-02 2.898741594652133255e-02 4.781348891489536901e-01
3.050848236847870584e-02 3.520463438455184724e-02 5.077520674071386297e-01
1.674170999230241430e-02 4.562620843779235241e-02 5.120976964824542899e-01
-2.706612464201303865e-03 4.271797827337964204e-02 5.182423314664044156e-01
1.332464152423860730e-02 7.088742927812054229e-02 4.937487477271649272e-01
1.658655112489915498e-02 5.508816644006205021e-02 5.067248775329051824e-01
3.080948664375966414e-02 3.143385068861834913e-02 4.616324164988591661e-01
-2.221599689769401115e-02 2.733544308686772922e-02 4.432729624067847651e-01
3.276946715075561289e-02 4.808451634726634838e-02 4.892768389561331643e-01
-3.298361308426855237e-02 3.193352557128364706e-03 4.388921678977792395e-01
7.398553440379758254e-03 7.088457437072817613e-02 4.918365140121411794e-01
6.956957775589840340e-03 6.661763686724524181e-02 5.001861110564620461e-01
3.961339353229331728e-02 2.301478564302722116e-02 5.014747120647479184e-01
3.715834514012392176e-02 3.618432423134486375e-02 4.968162755360684413e-01
-6.031031806301177800e-03 1.297996067765145103e-02 4.408251002211442948e-01
-2.336846899952215589e-02 1.654253159200375425e-02 4.400602378280533689e-01
3.089594842100195846e-02 5.121414628738957947e-02 4.872414032136400674e-01
-1.647898332963214016e-02 2.344297616011534538e-02 4.424360762021169458e-01
-9.402068779937501272e-03 4.211818830954085213e-02 5.182876957949341667e-01
2.115901338813110447e-02 4.080408811408860886e-02 4.596951720330701430e-01
1.919347142184935420e-02 3.787327587570749055e-02 5.153198424530901489e-01
3.007301122202057572e-02 4.382720228150187997e-02 4.682147626192304513e-01
2.184808079728248198e-02 9.700111905100420803e-03 4.465906941627361681e-01
1.514508780487978587e-02 7.364206129587556882e-02 4.827352991291220530e-01
2.511096534240759084e-02 4.801872288506562475e-02 4.661413256863113919e-01
2.375392232451127572e-02 6.309191857930768199e-02 4.880301858428808259e-01
-2.097472226843778709e-02 5.378550745717381593e-02 4.539656372951773600e-01
4.131041059313628888e-02 3.044300508262642174e-02 4.880764865184935575e-01
2.904770089372296638e-02 5.397874118082211098e-02 4.882780349532074293e-01
2.868095158045813609e-02 4.320687636943534166e-02 4.664823318333868873e-01
-2.968383275759369638e-02 1.288212530933581339e-02 4.402950307245667716e-01
7.645305731101989521e-03 3.013376487098601980e-02 5.226890045047758449e-01
7.496966915216402537e-03 5.430998309893973058e-02 5.095276397888189868e-01
-2.310988374291486971e-02 3.452626345259583035e-02 4.454425762118736642e-01
1.826636984119872631e-02 6.974985138561229370e-02 4.883958827173002781e-01
3.975159549636368347e-03 6.928440884539256717e-02 4.665197021567047964e-01
-4.979879189469129178e-03 4.575625018287118873e-02 5.171690465548166582e-01
3.129697262347735931e-02 2.446870191219074897e-02 5.157165965996408641e-01
-2.463503415075316699e-02 3.963299265017920098e-02 4.472373657362427868e-01
2.903444516482473273e-02 2.666871149227442034e-02 4.576493780052125482e-01
2.664875152088065635e-02 4.311457315685146563e-02 5.072672194304598259e-01
-1.955645625970989232e-02 3.070858656153607064e-02 4.443915020370868829e-01
3.479675081718074103e-02 2.183188028193496985e-02 5.122235165926229961e-01
1.644253563946656074e-02 6.590696938157523943e-02 4.963828045471801453e-01
1.231599711521470103e-02 6.389337670156654270e-02 4.646089712965386087e-01
1.961124564807340681e-02 4.294001417157120720e-02 4.597173406347305202e-01
3.913470026690557546e-02 3.602556644499860933e-02 4.815000130758538277e-01
-2.791041326485689533e-02 4.185580563489826877e-02 4.479339642469563065e-01
3.544018863911514716e-02 2.651234547407889039e-02 4.629253785868823745e-01
1.925593075769914397e-02 6.653325988420327741e-02 4.912515736407263578e-01
1.517535383477869662e-02 3.785233084678120419e-02 5.174673794799090620e-01
9.554321806557223087e-03 5.139619700444417183e-02 4.578115412892914127e-01
-7.575833847637637730e-03 4.651360986091963856e-02 5.157119061307811059e-01
4.174539203192712683e-02 2.570373477009392851e-02 4.728034153101137727e-01
1.326579646817703517e-02 3.193153913698890817e-02 4.524180659883597078e-01
4.071170597124018631e-02 2.178783226742125184e-02 4.663396456294925385e-01
1.243550068748813797e-02 5.347172432610669546e-02 4.601790334545457495e-01
-9.593879466246305054e-03 -1.785247323850235480e-03 4.363439079434888734e-01
2.245987675769849784e-02 6.289378404399785516e-02 4.911471950763847127e-01
-5.920776977257288104e-03 4.304015734539437532e-02 4.509858200495445169e-01
1.222509349088776037e-02 5.557703022767009407e-03 4.420620828020995208e-01
-4.354015523589256295e-03 2.957065381743283899e-02 4.464470993244255559e-01
-2.502501691644455975e-02 2.713605003606775479e-02 4.432062193386641091e-01
3.722173436250485884e-03 6.346594437870019256e-02 5.016600612318398156e-01
3.531489213711326049e-03 5.614183422730119333e-02 5.088049088858335178e-01
2.474456165683157176e-03 4.092354810554003908e-02 4.523843413260178470e-01
2.974767585692939323e-02 5.351976064173662173e-02 4.766992759028630955e-01
1.925734233412335072e-02 7.000589103569299088e-02 4.830782955864565409e-01
3.285001789228313845e-02 2.562084688814617733e-02 5.112944696402937916e-01
-1.466171483273541465e-03 7.112848049575961132e-03 4.396909736612052422e-01
5.307454377098958474e-03 1.199639485016150420e-02 4.426586012549362237e-01
3.919943888015613685e-03 7.019061814828592150e-02 4.695366275337530815e-01
3.497203774318070196e-02 4.529759010884330805e-02 4.810045477440857420e-01
6.750657839553617784e-03 5.953523877575223749e-02 4.593169828321859161e-01
2.467774658888320302e-02 6.030159430489052952e-02 4.908411973045254117e-01
3.289717757741407456e-02 4.839991019205127504e-02 4.809816497154428272e-01
2.696173406515346357e-02 4.490208153275249137e-02 5.058550837667245004e-01
-2.039392845644001293e-02 3.093053401451514167e-02 4.443795378658499939e-01
2.165354458994596734e-02 4.571054886463978700e-02 4.623611780208116140e-01
2.152094477500688524e-02 5.629656461016980390e-02 5.016717812480412375e-01
-1.296083055468541176e-02 3.959133109510576398e-02 4.486242267260522887e-01
-4.607161666715008097e-03 5.188233757347221475e-02 5.098873615980088481e-01
4.097443684724230012e-02 2.764530204826567278e-02 4.934372648882559553e-01
2.773417434907409808e-03 2.836259811561642197e-02 4.477017166149152017e-01
1.028093044849168712e-02 3.141434982598806380e-02 5.211838219602044076e-01
4.296828220993843123e-02 2.663475598308800291e-02 4.811691188490206939e-01
-4.341523497542036994e-03 4.854877360645545176e-02 5.147183836324161765e-01
1.426853186335108083e-02 4.857333085320603150e-02 5.111923240761718779e-01
-3.663406939752443092e-03 2.480131816416051432e-02 4.448959237217148810e-01
-3.242562156921645344e-02 4.451632407514567735e-02 4.505992976800212158e-01
3.671879668522869122e-02 3.158408729589283481e-02 4.670250965009218325e-01
1.466789950495527711e-02 3.335202955744560188e-02 4.534998604375472531e-01
6.116493196656724515e-03 6.735946634888083373e-02 4.970003452873431038e-01
-4.056540726173261946e-02 3.052742835704692903e-02 4.448197678685291145e-01
3.278596691310619454e-02 4.404321016022436780e-02 4.722273183677556108e-01
4.039786028773079823e-02 3.222016877560403975e-02 4.899971701678175751e-01
-8.676791068303268961e-03 -6.457953162164436177e-03 4.360353666660188310e-01
4.174537458362613529e-02 2.734591848259623412e-02 4.748615547661487746e-01
1.750701297486490296e-02 2.654271962885221964e-02 4.515723329705353950e-01
-2.574560423604129941e-02 3.598604889398913931e-02 4.457816299011218009e-01
2.682230908543353429e-02 4.863701886763835414e-02 4.684371481076773924e-01
2.480009437175789960e-03 4.702663093909847936e-02 5.166062245324816171e-01
5.941130672588596992e-03 1.002264392237013114e-02 4.421121040918269962e-01
-1.671470293687352116e-02 2.012650616471057738e-02 4.413376520149345228e-01
-7.807786531938139089e-03 3.620133226632518686e-02 4.483985586966739434e-01
4.393972616229027336e-03 6.505022643836705365e-02 4.988051404973233849e-01
-7.923051985023812915e-03 1.301703434523757662e-03 4.372080219777177978e-01
3.355819539882389652e-02 4.784059806771583795e-02 4.831694653175354071e-01
-1.412360807454558602e-02 2.501710588444957389e-02 4.432435030315962088e-01
-9.768261046795108024e-03 6.076257138847914602e-02 4.582819583888282922e-01
