3.892573401656201915e-02 2.572985588708289958e-02 4.669567227096972917e-01
2.313731361404197315e-02 1.145912224247699202e-02 4.481016379579671471e-01
1.296688235581406126e-02 2.171022019092447644e-02 4.486329948476354135e-01
5.892535230527618656e-03 4.775447612271000591e-02 5.154340084044038983e-01
-1.288155954575221154e-02 3.442013548698971692e-02 4.471749237577855030e-01
4.339313356518191556e-02 2.222298452084539577e-02 4.886028075556860806e-01
5.095796367060869206e-03 7.548630213759580099e-02 4.777882458603250337e-01
1.868843553733465918e-02 6.955121389333088211e-02 4.839554631253876193e-01
8.437393248019748465e-03 4.529868605434904383e-02 5.165755714162295620e-01
-9.003562650196981001e-03 -6.680938938982269523e-04 4.366051052570626423e-01
-1.779946339464020741e-02 4.082348911869160962e-02 5.174417430996147704e-01
-9.379369660909679662e-03 4.746134318152576970e-02 5.157921285551512192e-01
1.053229659154247995e-02 7.049628142603264758e-02 4.970827974955654427e-01
-8.358980159485504893e-03 -6.027190216727500507e-03 4.361436362370912367e-01
2.254594526400056226e-02 3.312811045615033506e-02 5.168593276997052177e-01
2.847319722686418586e-02 4.921465279141350180e-02 4.977744100579686859e-01
1.951075727361555739e-02 1.074147589989963604e-02 4.464345793688100916e-01
2.933462707417320084e-02 2.518680902667308485e-02 4.577662075223771776e-01
-1.141030985349905137e-02 5.825848713504961501e-03 4.379946046550560745e-01
2.131390577011653062e-02 1.776147932474039792e-02 4.494806539435909909e-01
2.341282573363581351e-02 2.768485007919444310e-02 4.553080129056758518e-01
2.801620346002783174e-02 5.712763985436792452e-02 4.815966356399649650e-01
-2.559661262169418694e-02 4.080697435452899924e-02 4.479123661183048721e-01
-5.711177997986869800e-03 5.544801084260982810e-02 4.550803857885693526e-01
-1.352172406224209228e-02 4.424796598284402860e-02 4.505473491586604040e-01
3.633642222781685582e-02 2.510160407314854930e-02 5.049895805423381123e-01
4.244725760299215486e-03 7.314035706368984813e-02 4.775595835121186350e-01
3.165409350576443154e-02 2.507803554477061603e-02 5.140406718469301417e-01
2.338424446856374878e-02 6.300629082415891424e-02 4.786057081042377481e-01
-2.643582396663242406e-02 4.753576302627453287e-02 4.517748890453255894e-01
1.221166882445904635e-02 6.287742215118234668e-02 4.652010579027569537e-01
-2.172323498519607848e-02 5.789962948750310145e-02 4.583363271211095546e-01
-1.914770212023545609e-02 6.317583042407160995e-03 4.372261896338974774e-01
2.630363511080585290e-02 2.824636908385275494e-02 4.574109226818319773e-01
1.347253371948785305e-02 6.147979299331571279e-02 5.044607734730530701e-01
-2.296741249349305500e-02 2.806833206899566474e-02 4.436875786305544134e-01
1.623539586495658521e-02 4.808820141444617585e-02 5.111249863294348161e-01
3.592563086322046045e-02 4.173096799174326466e-02 4.853458633326567795e-01
2.141425851955817625e-02 3.038522254260700439e-02 4.553817132866094242e-01
6.548905739832902237e-03 1.094092132415245590e-02 4.428973041676571576e-01
2.421743366911852796e-02 1.005947402649296808e-02 5.265618878926779933e-01
1.882668251029648646e-02 5.264633699186218457e-02 4.647113800293622421e-01
-2.479572704557439500e-02 2.673147598358450311e-02 4.432876311594645680e-01
-2.117736070093045181e-02 5.283979168130170656e-02 4.538490941082838348e-01
-2.429506007973241538e-03 4.752659819327431645e-02 4.535532699328843620e-01
3.289740143534215094e-03 6.913296593800220824e-02 4.655196250719142448e-01
3.337213066639069248e-02 2.597848454264566065e-02 5.092498807620333690e-01
3.361857797236117440e-02 3.987903294739026522e-02 4.995875368059914390e-01
-3.982884101609986821e-02 2.871521259103157822e-02 4.444395219663382912e-01
1.146592898951302383e-02 4.484586742790011571e-02 4.574237746307544539e-01
9.194210506819310014e-03 7.279007585402427760e-02 4.878772488224250026e-01
2.995616772467622757e-02 2.177291914047226398e-02 4.565241261133877737e-01
1.826345461418241861e-02 6.359131895396874512e-02 4.955202389507274985e-01
1.098157663977674878e-02 4.339754614425855167e-02 4.567801310675084769e-01
-5.400283874637454989e-03 -1.355580336666391706e-03 4.368068373143948468e-01
-2.939405171960116081e-02 2.581294187026031417e-02 4.429453604554878243e-01
-1.210378283418579205e-02 4.420548370492106277e-02 5.115039955877551670e-01
2.108524509679324949e-02 6.698377401783781049e-02 4.802089839645456437e-01
3.740770534049569357e-02 3.879532462217585853e-02 4.818457050301356293e-01
4.914175839882197437e-03 2.836927007751589846e-02 4.487965512964574022e-01
-3.155639654020301471e-02 2.621856271766894939e-02 4.431513791647230804e-01
-4.066561308254244833e-02 1.650813608744615586e-03 4.414939951619754055e-01
4.900389984417120523e-03 3.376876584584703050e-02 5.211972411092302693e-01
2.930566584809624411e-02 4.773949115606962446e-02 4.986048943390956611e-01
5.356774414256512684e-03 7.162922178145710375e-03 4.411868094631126724e-01
3.490846569819411327e-02 3.500530043669770885e-02 4.683878003635846277e-01
9.818408794710842963e-03 6.346464014288887012e-02 4.641577081141692873e-01
2.799203331729990113e-02 3.654436436904837104e-02 5.099438363504464888e-01
1.889914542641711256e-02 6.933926701501834378e-02 4.788125524463960336e-01
1.732263472770797716e-02 7.096100107808776813e-02 4.852315240527824147e-01
3.108113287287259802e-02 5.063997385125122708e-02 4.843832768302701597e-01
1.052025930834437142e-02 7.012592108182127970e-02 4.689300932466171079e-01
-2.857712639555059012e-02 3.091931149235981665e-03 4.379359769651325895e-01
2.690643303948941217e-02 5.900153546771354923e-02 4.806583222099575226e-01
-1.911044203750045939e-02 3.778184038056293936e-02 4.474290831257489720e-01
2.424041655519309710e-02 3.870937034132409388e-02 4.616432747429918826e-01
-2.083209584230985914e-02 2.778486659380638782e-03 4.366834659420771869e-01
6.865172588591424846e-03 3.359918952478704868e-02 4.516830464377621923e-01
3.716842251214842741e-02 3.340105047816182421e-02 4.705594801667975502e-01
1.327116686993389319e-02 6.806056814734794125e-02 4.973211726498608098e-01
2.392300782456156100e-02 2.443903308551724843e-02 5.223544564011376456e-01
-2.004986102167523321e-02 1.397146818623245558e-02 4.394439268644836361e-01
-3.548843324615597733e-02 3.199981201180338020e-02 4.445293200334793915e-01
4.080892238793208671e-02 2.232073928091952986e-02 4.988013576759163792e-01
-2.172335404740407400e-02 3.361908178437299916e-02 4.455042076090964809e-01
2.812175364125591576e-02 5.089840640616743322e-02 4.957524539213921666e-01
2.119159700521727752e-02 2.653900619695760688e-02 5.234512547671734684e-01
-3.707296232606130393e-02 3.766042849119613511e-02 4.467960370401292125e-01
3.498914518078655167e-02 4.300030841910430085e-02 4.894795770195922713e-01
-2.122291729414113419e-03 2.384110360792299557e-02 4.453127470417171940e-01
2.659020812514996390e-02 4.386652719448803223e-02 5.068678130312694874e-01
1.748938808811418069e-02 7.143037735829368962e-02 4.808429556397136873e-01
3.499915371131621239e-03 2.348903959712799264e-02 4.466300387936549265e-01
2.075000469009515708e-02 5.940339568147800370e-02 4.972208738382488669e-01
-8.340684773073531524e-03 5.248126810161474198e-02 4.541171585705842118e-01
3.339903331133550757e-02 4.183584216556678059e-02 4.981109248634154052e-01
1.839100214627442664e-02 4.264803759282873030e-02 5.133768520618492426e-01
6.477922400990184307e-03 3.062848316423637945e-02 4.502177734110412444e-01
9.587680931604988799e-03 7.711160777731908278e-02 4.805904420842977975e-01
5.866569260433741710e-03 3.681093059958847474e-02 5.197733292431306884e-01
3.114168785505296022e-02 3.983551131777664234e-02 5.034665177732331465e-01
-1.663976338619726353e-02 5.144976153951881515e-02 4.530970843415810245e-01
2.111643799024398929e-02 2.661244551861908364e-02 4.536001274352086110e-01
1.244721043210850371e-02 5.673701998457306855e-02 5.076569844661724673e-01
1.780064523685020994e-02 5.328405300659370264e-02 4.643997700318669986e-01
2.687892141824670469e-02 1.957812067817106191e-02 4.534579270210071233e-01
1.278694622129430969e-02 3.131388210000886352e-02 4.525725224193078433e-01
1.104709531035236690e-02 6.886904466996968122e-02 4.987996327073794256e-01
7.040208760426464041e-03 3.384340081215009982e-02 4.518521397698991304e-01
-7.953934039815886009e-03 3.457119488346353103e-02 5.212879938840132565e-01
2.852827725486612245e-02 5.403924534134386254e-02 4.772459708627689867e-01
4.040123006563542396e-02 3.063434256073900921e-02 4.901287699250914121e-01
-3.032355718695755285e-03 3.746505885306195688e-02 4.502538014864087001e-01
3.482807106948353215e-02 2.998478463457132301e-02 5.034418539106687573e-01
2.180077937385571651e-02 6.613074893277848254e-02 4.835611381082788873e-01
2.897306436003407176e-02 2.325354877718403823e-02 4.565549183609111661e-01
7.869509627770603089e-03 3.353037666708584552e-02 5.208021546257082246e-01
4.369947688896558616e-03 1.557183030181288202e-02 4.439837873489426157e-01
1.981764155065224992e-02 5.598496493826467940e-02 4.672615577178717006e-01
3.225286088645461235e-02 2.992902384225962567e-02 5.079737676746014508e-01
1.890335742706674219e-02 6.796871634733758771e-02 4.887939169421789964e-01
2.744585090952768661e-02 2.659344142230182090e-02 5.186677355659736754e-01
-2.237524920675811740e-02 1.068689892743877184e-02 4.383511535249878244e-01
1.082607951600968697e-02 4.924073578572362581e-02 5.123764744279246663e-01
3.095237632257525143e-02 4.086664716137757697e-02 4.682630162688148912e-01
3.151763302933199146e-02 2.866231545066009329e-02 5.103971891162016883e-01
1.111302692281202105e-02 4.038918448196680833e-02 5.181840962607847656e-01
6.327616865158345455e-03 5.430662287839235769e-02 4.582730721078700498e-01
-2.341455552054888187e-02 -9.829674752724519918e-04 4.366111947317748987e-01
1.033072932857268152e-02 2.730704510743978825e-02 4.500247198705243368e-01
-1.423090979237690359e-02 4.199599736578916304e-02 4.497803792577981796e-01
2.260529156453284713e-02 6.423794102475340051e-02 4.784594674292014793e-01
1.177075241083987839e-02 7.097824820771878040e-02 4.952215335736074864e-01
2.892200236138084760e-02 3.106910144682701463e-02 5.112308908421269171e-01
-8.325285191048310829e-04 2.182848587031943621e-02 4.449445159316014475e-01
2.298319585829610573e-02 6.438823975468865868e-02 4.813211664378078680e-01
1.536109189572438388e-04 4.778943163187771709e-02 5.172133230920757940e-01
1.816499287490592335e-02 4.735000069433230319e-02 4.618054857489959364e-01
2.457038294788021007e-02 5.365658752245719421e-02 4.991888166850929620e-01
2.294385886061006685e-02 4.764234825176110605e-02 5.072213195290611321e-01
-3.613578829083827909e-02 2.626187266923795012e-05 4.396447417392543855e-01
-7.019303891993428079e-03 5.016610101841714048e-02 5.107541573944424096e-01
2.253819511875476689e-02 2.027977275685827890e-02 4.511908855610192171e-01
-7.522799635630916110e-03 4.605770063080479731e-02 4.521023533918479553e-01
4.373396239632613980e-03 6.963800274339460028e-02 4.670469533455045563e-01
1.948507268321541738e-02 4.646116048843598051e-02 4.622571091782048947e-01
-2.833003557903512534e-02 3.846971661782253721e-02 4.468195271328435636e-01
1.148793183459968434e-02 3.334871764212771206e-02 4.530604700924092954e-01
2.265216458785757059e-02 5.728299865893698301e-02 4.973813229090418009e-01
9.437759360469350975e-03 1.724605947302790265e-02 4.459463692060100515e-01
3.488342406028104026e-02 2.753160639684350264e-02 4.639064654780524766e-01
2.208446016287471739e-02 3.353982436414623680e-02 5.167790288749949390e-01
3.499814900867690565e-02 4.048936267244648141e-02 4.949111196945627511e-01
1.781941046119356158e-03 3.258964498848540559e-02 4.495086265329341080e-01
9.754455437902345011e-03 4.402775196007753522e-02 5.167995921584080943e-01
1.466985445862188306e-02 6.157361617482121768e-02 5.026389194482787648e-01
2.398001164414493083e-02 1.765897177344498414e-02 4.507664019427980451e-01
2.307574346894913225e-02 5.651693058565731426e-02 4.713239471660622959e-01
2.734570854891289760e-02 5.030461719215920113e-02 4.721134841151927164e-01
-2.210343343610713263e-03 5.369501357981203843e-02 5.111666006123427586e-01
4.137173652144568448e-03 6.355147322986443026e-02 5.054258280856636087e-01
2.439920751852023978e-02 4.972954136586683199e-02 4.677704107573959491e-01
3.237375811794777902e-02 4.230711509932209152e-02 4.711195343380200073e-01
2.531677615745676208e-02 5.545686156309777987e-02 4.945920896267322897e-01
8.001309015014505116e-03 1.408449714234449000e-02 4.444370275393302316e-01
-1.184861865625489417e-02 5.653714193748985567e-02 4.552062980315628171e-01
8.788343515510898835e-04 3.026479752581023863e-02 4.483735932176221572e-01
1.589304146595021602e-02 4.671462527633016282e-02 4.601956744674003397e-01
-2.232022282820058517e-02 2.597911918801855055e-02 4.431042682091211327e-01
-4.046611432111598544e-03 5.920159930855199010e-02 4.564350390877759400e-01
8.833434825443913993e-03 1.513998226496797266e-02 4.450375421203933146e-01
1.017806066446221794e-03 3.537645104416620861e-02 5.211577997320440137e-01
1.480876519800400099e-03 3.458469906467308980e-02 5.213684961872044887e-01
1.372753616256356876e-02 5.899696283931172430e-02 4.641985955607117464e-01
2.534678268611216534e-02 3.588008652302231843e-02 4.608443714274713665e-01
3.814823682097924495e-02 3.669654917423426782e-02 4.854872627480076308e-01
-8.185040400048557846e-03 4.923643821101326978e-02 5.132434974809650940e-01
7.202753092318575634e-03 4.841887960718146977e-02 4.568339131834793232e-01
9.491071977667759479e-03 7.753439216777578691e-02 4.789999425194563787e-01
1.802466754408452165e-02 4.249921411958842987e-02 5.136678827831426819e-01
3.061455782185246166e-02 2.052217162877547837e-02 5.189492602491364570e-01
2.553929423752012914e-02 3.749262689823108091e-02 4.619129672292530131e-01
-2.859402446383120175e-02 1.144561702291885946e-02 4.399372103736529094e-01
2.556080662491649891e-02 6.058972075154680365e-02 4.847437087975313141e-01
-2.004166661221777612e-02 3.473548254644529681e-02 4.461230472515559375e-01
2.326271734376200370e-02 5.649836099286442009e-02 4.973532779660229663e-01
1.497100287771224378e-02 6.207215035480726298e-03 4.433513145459365701e-01
4.043320244709257966e-02 2.352180884015139112e-02 4.982577884705731708e-01
1.796186450782421423e-02 4.240539308839331306e-02 5.137658238517720521e-01
1.771133841976112872e-02 4.587541041318973778e-02 4.608372975636906288e-01
1.787588158228959473e-02 4.591432183726388422e-02 5.114925458640584566e-01
5.141210221624743087e-03 6.487951550329254524e-02 4.628641579498247727e-01
7.218453679822151373e-03 5.834275953737864256e-02 4.601970691568719740e-01
2.332594624771221897e-02 5.487931455452684654e-02 4.996820416891297190e-01
3.346023959348374405e-02 4.275452823224575039e-02 4.963261212066173433e-01
-6.107427563690087137e-03 9.870367916563517474e-03 4.400683812667504635e-01
-2.620833713066156312e-02 1.566155364296614727e-02 4.401853738603169197e-01
-9.246887454466204762e-03 3.959416630994643665e-02 5.200304270874044343e-01
4.596835673289867939e-03 6.524202511658878934e-02 5.029689788900352232e-01
1.907219111758816366e-02 6.106810281865507339e-02 4.973845449475245983e-01
-3.065483807219229750e-02 1.034613360623568533e-03 4.382861257934072552e-01
1.637963714597254206e-02 6.697583321027378300e-02 4.943494046387750251e-01
3.084513442731246294e-02 4.516919176125324537e-02 4.994190107430352965e-01
2.400429907676937882e-02 2.491127507302683813e-02 4.543632785265900309e-01
3.537117712827559518e-02 2.118627308468710307e-02 5.105348231605375542e-01
-3.097356082007419673e-02 2.457701354688306139e-02 4.426344907821658792e-01
1.711528586293936671e-02 7.160882774992598232e-02 4.798839292474529894e-01
-1.170246727686989792e-02 4.150517420771748095e-02 5.194797139364105698e-01
1.030796174840965286e-02 9.576320218421887492e-03 4.433784501716855342e-01
-1.913598714580091661e-02 8.327435068109994426e-03 4.377278114445681267e-01
-2.029355386438483344e-02 3.487844163052232493e-02 4.461405525271241457e-01
1.456921133537696263e-02 1.607088034540300053e-02 4.470356493481810745e-01
1.632501922508935999e-02 3.516776793531109502e-02 5.184446991491594714e-01
9.221821044563980815e-04 2.518319689955671528e-02 4.465211489550533486e-01
2.091247286266720989e-02 4.882626720731336051e-02 5.079144738138752224e-01
2.223018460015524847e-02 6.550011346204566431e-02 4.828145951910144951e-01
-5.404678470505306156e-04 4.385261974759668141e-02 4.529004029686062305e-01
2.612563685277869557e-02 5.386049541899642912e-02 4.954957591484310253e-01
4.049634217371591953e-03 6.480592645457658452e-02 5.030377105524992398e-01
2.638701720713095694e-02 9.686489717534801924e-03 5.264910233332551481e-01
7.438918382582620191e-03 2.181404209286253240e-02 4.470912086853637279e-01
9.664166749618311944e-03 1.393662820679216277e-02 4.448405561475609615e-01
7.589543954622132889e-03 4.046276669822383015e-02 5.187469223386492745e-01
4.017631433320592582e-02 2.165175252242650117e-02 4.664750585117493631e-01
-4.366301906920555531e-03 5.712062199900136417e-02 4.557793378292377406e-01
-1.958272823199107629e-02 4.440576428042938839e-02 4.498635689010865857e-01
2.785185690258261751e-02 5.573598149818142361e-02 4.873081059988312869e-01
4.289544616852808412e-02 2.038984735607499155e-02 4.721047464987590536e-01
-2.431561597781773179e-02 1.694167800294979487e-02 4.403145713997859145e-01
-1.396383359063042839e-02 4.728804563436456859e-02 4.516482333334498334e-01
3.401753274450922127e-02 4.206427719331586740e-02 4.956017494806514434e-01
4.058879790526946640e-02 3.084400306328773447e-02 4.872811000975044715e-01
-3.697909222547215990e-03 3.429400017293190994e-02 4.489115709943781729e-01
-3.113574680876190007e-02 4.403334390316637065e-02 4.501120826299618849e-01
2.642581247725002760e-02 5.412512189107307470e-02 4.943916194886616711e-01
2.394514241936732471e-02 5.637379630668288427e-02 4.960663960841205089e-01
2.344994336467230364e-02 5.354455483170535157e-02 5.010816412624000682e-01
3.639258387513873150e-02 3.282048469013639641e-02 4.684342422510068826e-01
-3.702957686554317340e-02 2.531965129454863406e-02 4.433956289103427317e-01
-1.569959817983014594e-02 1.906202814893595901e-02 4.413766529586125587e-01
3.516998344562642653e-02 3.767496277836045182e-02 4.988132030397259276e-01
1.014470043176349603e-02 1.136737685172975985e-02 4.440307424431125805e-01
-2.198163128879546818e-02 2.126038921381304125e-02 4.415605923022440926e-01
6.537582788826169430e-03 4.850323727744774299e-02 5.140527147875616487e-01
2.781237824912589571e-02 3.570934102343454458e-02 5.106314332106568488e-01
1.195923443242993649e-02 6.910202403012659367e-02 4.691445451287368229e-01
-8.326109186094141773e-03 1.028047363254830371e-02 4.398190363610582909e-01
-1.412127726226940910e-02 2.214978145017254107e-03 4.367765079446209175e-01
-1.443089642048302201e-02 2.569008396274460870e-02 4.436685753357473283e-01
3.346166451064232217e-02 4.694589826318510545e-02 4.858996591120685604e-01
1.841493409755601274e-02 3.313237261780087317e-02 5.194191472113175445e-01
5.627879643671498608e-03 7.004179466281611199e-02 4.681850247054633041e-01
2.556479926596967600e-02 5.167519545337433129e-02 4.708266500983521174e-01
9.687711880773516512e-03 4.267071792065259966e-02 4.561092541931327515e-01
2.586062970912306538e-02 3.084677632697266011e-02 4.584276098771028485e-01
-1.206666211599238293e-02 3.669373529228741465e-02 4.482171652542042417e-01
1.334821303179384647e-02 2.268338108539925957e-02 4.491145029952977041e-01
-1.743183014763401584e-03 2.010543747272178564e-02 4.441406975803584012e-01
-1.152754776777280103e-02 5.871998262835050747e-02 4.567788726433504864e-01
3.069363995483826921e-02 5.138488739528784821e-02 4.822774516384089050e-01
1.548192392045313198e-03 6.463483591365078162e-02 4.619397369479391058e-01
7.188619417745696800e-04 5.134754078843642433e-02 4.553277089260118760e-01
1.341281818364588665e-02 7.035722111151093694e-02 4.948230380370688963e-01
2.360106632068161361e-02 4.725301849118380276e-02 4.655383990063203248e-01
-2.739363475611214863e-02 9.536356062581363008e-03 4.389770609383027433e-01
1.874873693265868488e-02 4.477816697508406329e-02 5.118236728766272225e-01
2.012642606865433503e-02 5.223145492154767505e-02 5.069715749614657208e-01
-4.110730418985549667e-02 1.749013441094035863e-03 4.416735268276474335e-01
2.477677114537045130e-02 4.942618687010248701e-02 5.039212589974539913e-01
7.731739987769429244e-03 4.653864072419467562e-02 4.565916029916370911e-01
-1.764213160919735762e-02 6.813436729174349345e-03 4.373876681167723768e-01
-8.174279087824875417e-03 4.165663211017954504e-02 4.506704339002770010e-01
6.387997449620702074e-03 1.022285123888965787e-02 4.425860999408522956e-01
-2.603225417363455585e-02 2.974324965038623383e-02 4.440470564410814447e-01
2.646091743850854591e-02 4.538781127799629278e-02 4.669461037315202900e-01
-9.281591620890861788e-03 1.606136250295252949e-02 4.415341414724889280e-01
2.401602629109515080e-02 3.667336210901785132e-02 5.132979813768440147e-01
-1.349554724505671981e-02 3.266443802844805344e-02 4.463749521585558266e-01
2.265518048826371464e-02 8.802461155676698235e-03 4.469425537141379356e-01
3.521496884720785869e-02 1.752646363416367897e-02 5.160140778290460695e-01
1.980185177147238476e-02 1.819653485459553702e-02 4.492135631769583193e-01
1.893060823676173676e-02 5.488037304177934006e-02 4.659776206813720512e-01
-9.354978716565501284e-03 -2.899722635628793933e-03 4.363693523151133680e-01
1.251518137464529071e-02 7.790345777729240119e-03 4.432587037816527187e-01
3.194854572798241921e-02 2.760647111888205052e-02 4.612182074781233654e-01
3.066310795486830790e-02 2.866173133237764903e-02 5.120128935132123305e-01
3.423356266654839497e-02 1.816320558758821591e-02 4.582670897768672535e-01
1.292251989069662446e-02 2.278531028815541232e-02 4.490188006667090170e-01
2.906271966540291407e-02 5.177252749425487188e-02 4.761319612555887648e-01
3.167062935325491713e-02 3.066323174399822327e-02 4.627689692562331203e-01
3.294943325005118134e-02 4.046951817674900725e-02 4.701693379391904681e-01
3.052517835464363741e-02 2.470313447240028715e-02 4.584359480009808641e-01
1.090276289216434401e-02 3.845069400678706451e-02 5.185801328428553125e-01
1.293624575036973409e-02 4.170528919834309151e-02 4.570246856636012156e-01
8.076571206051347263e-03 7.673438337953934762e-02 4.807227345708842137e-01
1.689093657036367865e-02 3.680511343741157265e-02 4.565923166484978646e-01
1.175768817628723359e-02 1.352019294753901632e-02 4.452808735935100404e-01
-2.337684011760516462e-02 9.964731823274657757e-03 4.381819493939968502e-01
3.037645825648954342e-02 5.246560863428681443e-02 4.838424196416020728e-01
4.372514550010813544e-02 2.180503345656294514e-02 4.872281535414229592e-01
2.813581848916141964e-02 3.265044752297385083e-02 5.114429206955948271e-01
7.578686496479108102e-03 3.965686995095474981e-02 4.543083114727209382e-01
-3.679944922140037517e-02 2.451145759498704613e-02 4.432089636921848208e-01
1.595629138365870642e-02 3.391247541975167534e-02 4.549053205305875758e-01
3.558324363774806320e-02 3.227001784255469075e-02 5.007317368536148283e-01
3.980644649006345737e-02 2.143106252199146466e-02 4.657478416285891765e-01
3.095301340654923322e-02 3.416189130931469170e-02 5.069167843409965180e-01
-3.293145458197024866e-02 3.618960639059685264e-02 4.459211650259536919e-01
-4.735413602514853930e-03 5.523935081938267239e-02 4.551732489700130446e-01
-1.755739574799572086e-02 1.509428763786520473e-02 4.398009565724343983e-01
9.214625585734303667e-03 7.731321323998187334e-02 4.771925472789613765e-01
-1.725881235827770449e-02 3.668438509651168744e-02 4.472825486388337102e-01
6.494641435857984035e-03 4.650194056563176914e-02 5.168091111148834793e-01
3.692110858929776446e-02 3.942363826366706431e-02 4.870382620583577626e-01
1.278014492933909375e-02 7.445249607334307462e-02 4.807210406897130528e-01
3.840973470345328267e-02 2.247584228352136199e-02 4.644277798231390975e-01
-4.822369650554861678e-03 3.762056238585853585e-02 4.499916346970177505e-01
-2.266582988386105571e-02 5.680932046417905279e-02 4.575242381017613491e-01
3.416032343387549741e-02 1.736138765618808200e-02 4.578078007843678354e-01
3.443723682971837341e-02 2.169715208397366216e-02 5.126271071473614827e-01
2.033129548605310671e-02 5.926158139881815973e-02 4.984292500227857636e-01
-3.824336353285681320e-04 6.122041943374470496e-02 4.587434197608185049e-01
3.566275496860738664e-02 3.881054153410539581e-02 4.955958147013113657e-01
5.747244080646906998e-03 7.259864631431986112e-03 4.413125066354489645e-01
2.744693449107385441e-02 4.630689959942425882e-02 5.034835531054137059e-01
1.947758418255481072e-02 6.693019422848764388e-02 4.895093540179081271e-01
8.402595144949783629e-03 1.570709828904331279e-02 4.451195983157388847e-01
3.365305523237786811e-02 2.424135332475731500e-02 4.609118067105365535e-01
2.433966674068842664e-02 4.005145652908436577e-02 5.105942446910112231e-01
2.007986329764852376e-02 3.204949260604961908e-02 4.556541809544665811e-01
-2.061305928567892798e-02 1.451937624614510654e-02 4.396036108834803224e-01
-4.025091876248048511e-02 3.404720187343637794e-02 4.456642033194392893e-01
-8.942895636578821958e-03 6.014147255501105932e-02 4.577157795196718504e-01
9.027809069900480723e-03 5.987721625588915408e-02 5.065481891919535462e-01
2.097528453986324815e-02 3.869802624333174706e-02 5.137002516783437667e-01
3.289692993368398960e-02 4.335233109819323916e-02 4.972202124469596862e-01
2.013632842764676370e-02 6.255305339094496819e-02 4.942225150822470714e-01
-1.581222647059243175e-02 4.105633949000257743e-02 4.491700594300726546e-01
-1.903879120207379802e-02 1.514816870258534759e-02 4.397916157024677752e-01
2.457236852274294683e-02 2.012999964330279210e-02 4.523408534034749628e-01
1.644946367868562603e-02 6.572264291751624132e-02 4.957374150807724034e-01
9.821604930424757476e-03 1.172217426668363364e-02 4.440815013257219390e-01
2.986697351185392188e-02 3.745011676860426214e-02 4.652787478713051872e-01
3.123332305753478977e-02 4.515040527098746620e-02 4.986266077099826277e-01
1.394231573851304785e-02 6.875142971749234611e-02 4.703429803117835095e-01
3.630373790717017490e-02 2.593456928975261533e-02 5.043361664745752426e-01
1.995669457239247421e-02 6.611290830016111619e-02 4.900098224656794232e-01
-4.081468523973805738e-03 2.810480754649510859e-02 4.463357773333035405e-01
5.651915289720145855e-03 6.707645425365026115e-02 5.005863872955206295e-01
3.644093014667530803e-03 5.686262610877906160e-02 4.579298615838856557e-01
1.544974342799241250e-02 3.207734661752949593e-03 4.422561887042255613e-01
3.313833475519166981e-04 5.768058330656922195e-02 5.062098151714218286e-01
2.113004103520588206e-02 1.559421331454740808e-02 4.487431103412561906e-01
-6.312422303480991898e-03 5.109029974231932975e-02 4.539731324497751630e-01
1.883109867327879480e-02 6.921097498296083228e-02 4.854235739138810790e-01
7.194413070737534083e-03 6.499290776112727486e-02 5.038172119984677400e-01
8.679016679567158957e-03 6.626906022643792860e-02 4.654017737138306243e-01
-9.935659139153611707e-03 4.645502554763721037e-02 5.102396740731108826e-01
1.396642048178961190e-02 7.390227715153591115e-02 4.804500955613134616e-01
-1.205045695384781082e-02 4.445623104002166537e-02 5.123744899645235051e-01
-1.446991172311915853e-02 3.396678058012467943e-02 4.467061036126871998e-01
3.736892109002071943e-02 3.363840234351385405e-02 4.713791292076113804e-01
4.339107550111634404e-02 2.361045304312377191e-02 4.801295276058515360e-01
-3.631434757649050493e-02 3.128223220465427973e-02 4.444631901364343163e-01
2.400547520639889978e-03 1.675488767288760283e-02 4.439386925143347651e-01
2.462194227921838882e-02 5.952533362868027422e-02 4.762313228760653994e-01
-3.189472523904869627e-02 -7.208014262520092471e-04 4.385248753244636588e-01
1.697767611493359793e-02 1.587888192920648006e-02 4.475790648846568187e-01
2.962373100416196281e-02 4.884547534750843106e-02 4.743966836925321839e-01
2.467467981825842080e-02 4.054016931823392622e-02 5.095592372383024315e-01
-3.856573501810291182e-02 -8.888150913491270951e-04 4.403686467662172310e-01
1.891884834769107238e-02 6.890109836984227576e-02 4.867876935539972583e-01
8.376069269306146703e-03 7.679346955901167338e-02 4.809120295638362741e-01
-4.310306345792729033e-02 3.102079538833819872e-02 4.453846009482264057e-01
-1.592597712596948573e-02 1.231667812512528097e-02 4.389178851870924603e-01
1.545893177102403496e-02 7.086245890097658817e-02 4.911286574600777222e-01
1.654628664246917541e-02 3.689051171638169785e-02 4.564949834007706597e-01
3.110790949771615604e-02 3.690084098236688648e-02 5.054759685145701065e-01
3.442255355859617089e-02 4.215827378040000462e-02 4.941099903982940633e-01
1.290227737619470752e-02 7.079438801273114923e-02 4.946793283672618613e-01
2.764623152817389379e-02 4.479359081975328727e-02 5.051189531770154950e-01
9.698892032928996959e-03 5.231525420668040743e-02 4.591699774260789568e-01
3.440568956709094510e-03 5.676024794439524929e-02 4.577996982296905215e-01
-3.678447297725420326e-03 4.753878831099818403e-02 4.532868605731793510e-01
2.855625610500775458e-02 5.577768542600854834e-02 4.804668674557452390e-01
1.137022109014089802e-02 1.743943668643284026e-02 4.465636357309926696e-01
2.466660299232086018e-02 6.039866954770087976e-02 4.770486068798485135e-01
3.674106945534542923e-03 -4.191056034916719117e-04 4.384974159766886204e-01
-5.740938024995904769e-03 1.432369797751868040e-02 4.415174285834410628e-01
3.813072123192797619e-02 3.659266937155186694e-02 4.899426739394521224e-01
2.823353668988805645e-02 5.531665389717672215e-02 4.867548955606820771e-01
-2.845340295965186408e-03 4.739740786618908824e-02 5.174352932627086510e-01
3.787274830044334243e-03 1.876244508840069561e-02 4.449739430805852436e-01
3.084263993842603635e-02 3.181419939092663268e-02 5.087744058690248927e-01
2.962264109290636133e-02 4.974397908360401327e-02 4.752112259305838471e-01
-2.545044453134267387e-02 2.018123485119081503e-02 4.412248189846850743e-01
-2.281806918288217974e-04 1.004300353375339738e-02 4.410180493150639425e-01
1.415322898970532497e-02 2.486459704346814445e-02 4.502568285384291880e-01
1.826377402635127531e-02 6.128066403087476660e-02 4.688397714547362649e-01
-2.595076676897778087e-02 2.416412093610556186e-02 4.422542818643764306e-01
2.789106873953120513e-02 4.624522862493865571e-02 4.691861294501999402e-01
3.243331441099247398e-02 2.449715323442606257e-02 4.599722890717234947e-01
2.581073124778375180e-02 4.307089193971731095e-02 4.651495865175455102e-01
-2.723928097904760801e-02 4.004014888782141818e-02 4.475773131846276787e-01
4.018587787176290671e-02 2.220950051648015733e-02 4.668680240627981481e-01
-1.332429743998727809e-02 4.754701191940249178e-02 4.518044422378898473e-01
3.452898817477394189e-02 3.799119163694412299e-02 4.701402697313479817e-01
2.738989588851017606e-02 2.423240338085741116e-02 4.560834585241846928e-01
-2.381086739529455695e-02 2.286505786590016520e-02 4.419553180261191483e-01
1.997292852313920647e-02 6.090955924865921328e-02 4.963811935596402769e-01
-1.743017706336179567e-03 3.685213487239484553e-02 4.502662586696897229e-01
1.733786147467367492e-02 4.584510863573961620e-02 4.606082857982616297e-01
-4.941596224300031162e-03 4.134483919964978410e-02 4.512168613845626841e-01
-5.655888797114078277e-03 3.602499602947502322e-02 4.492124490056053077e-01
1.793058131124677587e-02 1.206122749888570260e-02 4.463647854933705528e-01
-4.247046578529037331e-02 3.388180466662887858e-02 4.459469617125649821e-01
-1.207863067460756418e-02 2.813124114462397726e-02 4.446754562000240774e-01
1.209414225186214269e-02 7.174879289675407945e-02 4.721268856189472785e-01
1.585177978793262527e-02 2.287720961944428311e-02 4.499722957367273679e-01
2.708688180343317431e-02 5.820876399822168257e-02 4.848485690222198441e-01
-2.783897484738864087e-03 4.275511527903905207e-02 5.191909695231137212e-01
3.412634498041015180e-02 4.082859745720449768e-02 4.728054694129182334e-01
2.470705855676715024e-02 5.159272231595832259e-02 4.696195192281665820e-01
3.297979467472481052e-02 2.072693756854209618e-02 5.158087007622493836e-01
4.335805375702348613e-02 2.323363055823406478e-02 4.857970749701850388e-01
6.685845094341088916e-03 3.361136240831841954e-02 5.209979506987675313e-01
3.157768591095054533e-02 2.639259701043418505e-02 5.122778367664474475e-01
9.113670705447912690e-03 6.493004164416214807e-02 5.032988358118335448e-01
2.720752038848293225e-02 5.119849648316175672e-02 4.975972377464030205e-01
9.659709247376337127e-03 6.069204840450340838e-02 4.626445971461132234e-01
3.818967198312035738e-02 2.554161780039091584e-02 5.010771594375300619e-01
5.755738471949749940e-04 3.836768837244170643e-02 5.202417824151956971e-01
-2.804847636558196328e-02 5.582329388336517914e-03 4.380307608748288395e-01
1.442174144539892441e-02 6.563273722338813787e-02 4.986718672923060036e-01
-1.008170208566751269e-02 3.085378705574068001e-02 4.461962409694817389e-01
1.002776067785251558e-02 2.491920526877625455e-02 4.489638010465127893e-01
3.244884955437252194e-02 1.976958574505540550e-02 4.576623653616876397e-01
2.448998161295285261e-02 3.338965355890172182e-02 4.588027280470397540e-01
2.001443187163112758e-02 4.672681283565319199e-02 5.094434528216947866e-01
4.251233824975558101e-02 2.247038246027265040e-02 4.734621299570898056e-01
-3.853839095307147120e-03 4.171773846781364620e-02 4.515472901278663742e-01
-7.523826787086739486e-03 1.812214198528840775e-02 4.424537873359271067e-01
2.883194415904737073e-02 2.704783940672894973e-02 4.584591473243861404e-01
1.709161858088325409e-02 5.814780740809413762e-02 4.662674923833838858e-01
3.436110278196912587e-02 3.491065743035272340e-02 4.678150942135401724e-01
4.301543474869742173e-02 2.347604337611564410e-02 4.886172541795013036e-01
-9.956493823938419516e-03 -6.636448424311575112e-03 4.360882540491983761e-01
2.314124266558510723e-02 2.611764844606238173e-02 5.224729127633910286e-01
2.620559381055269019e-02 5.837175792700468463e-02 4.876082261025324605e-01
3.541258974971910056e-02 1.889661130850371282e-02 4.595753692516725830e-01
8.228707610959177382e-03 4.247045344148810131e-02 5.182189549428007913e-01
-3.072907688210849836e-02 3.267525175174972041e-03 4.384109766580831513e-01
-1.725210937213480372e-02 2.163553558776775895e-02 4.419735670218577495e-01
-1.415742030739775177e-02 5.962775703577003622e-02 4.581000736453278988e-01
1.169011514695979248e-02 9.942346677948073891e-04 4.406979515764374300e-01
8.692520700908014809e-04 2.629504043000068739e-03 4.388382445912563656e-01
3.663734791876094993e-02 4.085911029066979089e-02 4.812097733113626652e-01
-2.520692213349616517e-02 1.520788399403513388e-02 4.399499759792227516e-01
-1.390031618487676431e-02 4.577593917548446883e-02 4.510787463884113335e-01
1.791020204355167275e-02 4.655423018380059480e-02 4.612769506333433966e-01
3.289310562001061117e-02 3.449927357878444095e-02 4.661080288678229877e-01
1.317803327428140533e-02 6.347365701453153153e-02 4.661035432354395658e-01
3.007233914979944717e-02 2.738442557935183777e-02 4.595701928433766903e-01
-9.247741827502474823e-03 4.780674208858443769e-02 5.127818625023380372e-01
1.718349657901729888e-02 3.080904387041069267e-02 5.213184041835078331e-01
-4.741703909510399176e-03 3.705603787044852576e-02 4.498071386273729266e-01
5.718717084962085875e-03 5.152797548189015642e-02 4.570758780186529591e-01
-2.342281494232716088e-02 3.756880344029063512e-02 4.468177443381271541e-01
-1.123027882863113572e-02 4.261091874081263109e-02 5.192183141149533387e-01
3.363538759564108343e-03 5.583019888403952663e-02 5.099291949664433998e-01
2.057927600626952361e-02 3.008843239777019701e-02 4.549182713706865777e-01
-1.450501027255806687e-02 4.473750373235234334e-02 4.506446953823853296e-01
1.378847872897868802e-02 5.041767045058591357e-02 4.607179560459307432e-01
3.097922642724139017e-02 5.105946633338680901e-02 4.836365197389839721e-01
3.184929993380618274e-02 1.968834778036219341e-02 4.571170472607258839e-01
3.300528277790175380e-02 4.477902821140183204e-02 4.935637304833456196e-01
-9.032004671185416000e-03 2.721219916088471122e-02 4.450143912474682217e-01
7.064049080976096684e-03 5.367785416058577092e-02 4.583882876903639936e-01
6.830896547939117186e-03 3.127344409340631487e-02 4.506272259381026712e-01
1.849644933495891291e-02 4.384544568662041703e-02 4.603776126445738859e-01
-1.622935419984011460e-02 9.064055539790250374e-03 4.379231751773949854e-01
2.240490085262951750e-02 3.153041292965060721e-02 5.198068938031761288e-01
3.781648316675756231e-03 6.508595298123893980e-02 5.019418562045956378e-01
4.061436569229469329e-02 3.117699332487591096e-02 4.815583623017864467e-01
3.096578042338130748e-02 2.181128851411405847e-02 4.573864252535584929e-01
-3.588458224973822136e-02 2.451610248699162900e-02 4.430966101754595377e-01
-8.927061627342193842e-03 4.074893117578525653e-02 5.198899516689529099e-01
-1.208949448775825924e-03 2.830591272946653483e-02 4.471250007062218534e-01
3.149886148152390014e-02 4.921068647892441750e-02 4.805529834553504132e-01
2.637754719856205340e-02 3.038616682719113421e-02 4.585519582402450833e-01
4.448943994409244526e-03 6.688970935898622128e-02 4.640743057704621588e-01
7.793863569674860069e-03 6.415125448052974577e-02 4.635015253702298166e-01
-1.667802530424015994e-02 3.880229173260701242e-02 4.481803716342113164e-01
2.578364710510906363e-02 5.486991986480561911e-02 4.737970753955951797e-01
3.490473937744816707e-02 2.183970390772845341e-02 5.105465009709274637e-01
-9.030655561895523445e-03 3.207122088543835903e-02 4.469202446892105995e-01
3.608280239439397297e-02 1.928791708875125452e-02 4.603829683805495399e-01
3.541672062786447445e-02 3.598268586297043853e-02 4.695419290264259415e-01
-1.475529132526496451e-02 5.068887783990863594e-02 4.529165428923264680e-01
3.168368721193143972e-02 2.779883840099714107e-02 5.108419641037409420e-01
