2.714488953684207617e-02 1.738179324656061869e-02 4.526263983761117937e-01
3.093561944427425034e-04 -6.762707488136591658e-04 4.376934527446262324e-01
1.670609194381432461e-02 7.086821280079319552e-02 4.876606331979969622e-01
-1.436006130649511089e-02 -4.593592978380737612e-04 4.365478617318592214e-01
2.977482747849654644e-03 6.985344589806793958e-02 4.693373594164270135e-01
4.357334487199496925e-02 2.269920655780138796e-02 4.845013967054142001e-01
2.563529317826003170e-02 5.973701482047701766e-02 4.780208639713395824e-01
4.195535868135150115e-02 2.366911610517874465e-02 4.939063836972875099e-01
2.123514016013868660e-02 6.456324979276288623e-02 4.898228406233928744e-01
2.962751210482541392e-02 2.484432110362870538e-02 4.578683222877404924e-01
1.381514770809234675e-02 5.024866909863278525e-02 4.607680342715509969e-01
1.316815510546900589e-02 1.925581662476740646e-02 4.478118370376684698e-01
-5.043436647075757659e-03 1.275367620429559284e-02 4.411345025848141810e-01
2.578261291998226040e-02 5.025948620357158225e-02 4.701247330935102164e-01
6.672128484548429418e-03 3.662807405338211475e-02 4.529154370131929230e-01
-3.012617572875256333e-03 4.770757718101624467e-02 5.173871299676093827e-01
1.012415775028999848e-02 4.946734566208197542e-02 4.584066421181450246e-01
-1.031346966763101169e-02 4.331838942832438172e-02 5.193288556380418752e-01
2.959896576412318278e-02 1.627910710521435905e-02 4.538220244363981859e-01
-1.866104404797623573e-02 1.513480997870647084e-02 4.398110944902319241e-01
2.517686050339086254e-02 6.102411296340830293e-02 4.790114635831734247e-01
-2.230170445128037277e-02 2.692494439170457082e-02 4.434046474620226830e-01
-3.094737684116679460e-02 1.521444526850772999e-02 4.409213531013066456e-01
-1.479278977553095259e-02 5.638288518478640904e-02 4.553274427652107548e-01
2.113626640658534603e-02 6.452945284738967335e-02 4.901538432324614170e-01
1.585431701331015131e-02 7.024418040969923616e-02 4.738946306247936446e-01
2.356050762894654552e-02 5.193669794699092013e-02 5.027599629339863929e-01
7.407113698652673800e-03 6.653505828989725313e-02 4.651554173749833376e-01
9.421482240502283140e-03 6.649694466058680975e-02 4.660116708388972184e-01
2.112817424825593621e-02 1.215528724684952072e-02 4.476341602629842487e-01
4.603768882202208257e-03 4.964748328346488965e-02 5.139012371043125693e-01
5.113818005211241170e-03 2.780811477632066930e-02 4.486960584878032510e-01
2.152206936020395825e-02 6.641072635395693646e-02 4.846322446543358531e-01
-2.494824746013301481e-02 3.240278602088469267e-02 4.449151634045934722e-01
-2.567436425269613558e-03 3.417571922341421792e-02 4.491602389276712071e-01
2.221984719989214541e-02 5.698111930567333061e-02 4.986307900910786350e-01
-2.692245427652608866e-03 4.548829682251211148e-02 4.529572532185692224e-01
5.580565809575791826e-03 7.643321956367505818e-03 4.414377127410191726e-01
4.292411168516210851e-02 2.485093484818094722e-02 4.833214294153425072e-01
7.666094973800937490e-03 6.187188246837077577e-02 5.058366726546178471e-01
4.242525797625119194e-03 6.179552363340951038e-02 4.604297545037591144e-01
-1.597219447593270503e-02 1.743393090368977952e-02 4.407889761229240588e-01
-6.716238057343200743e-03 5.172339432153751082e-02 5.078775328035890491e-01
4.306817510251991811e-03 1.279449791154207983e-02 4.430248410290248962e-01
1.796279060410107403e-02 6.970926707817970414e-02 4.768254165509949738e-01
2.904034306095016477e-02 2.059442135840375970e-02 5.205973985765588452e-01
-1.486775745643279488e-02 4.304334087215683224e-02 5.152584719635142640e-01
1.814605288816758394e-02 5.304351267099043782e-02 5.078903882746864662e-01
-8.803293306642801658e-03 4.770263375147393986e-02 5.164688580515585103e-01
3.480672683438530007e-02 4.050323842378913963e-02 4.740762248574805771e-01
3.250796745540145138e-02 2.905234684622874652e-02 5.082235711988056792e-01
5.112103543584380419e-03 7.192825918116706185e-02 4.888575888560875993e-01
2.443059665167287599e-03 1.653969691335930095e-02 4.439121813894090218e-01
-1.460702231846059199e-02 5.309133969823464326e-03 4.372642395634204759e-01
1.416274906259467128e-02 5.580672640785039329e-02 4.633149478888257122e-01
3.155875444902170313e-02 2.814327959968477080e-02 4.612729885613331415e-01
3.852757423370953976e-02 3.528138735504407486e-02 4.908426900510647894e-01
8.533790252071488114e-03 4.236484996751516130e-02 4.556990128118563743e-01
2.645980566160400713e-03 3.397946414328537751e-02 4.504861797168357440e-01
2.546722435973659826e-02 2.088870108890666238e-02 5.231735271463255899e-01
-3.228954405706394720e-02 3.673033481349854967e-02 4.461387490365478770e-01
2.338803357379514933e-02 5.013271719175613206e-02 4.672050949302026246e-01
2.743384361405741198e-02 5.686088492633472463e-02 4.863876376020020986e-01
4.053741210656262861e-02 2.658033925859202076e-02 4.950861699165169383e-01
1.331488114889653115e-02 7.417143977334259008e-02 4.806462310618090372e-01
-3.584066758029411798e-02 3.221841076292607242e-02 4.446552841878080864e-01
3.680074658634645973e-02 3.682630647742245189e-02 4.949934624938488459e-01
-6.515601136121712197e-03 -1.542762612856076040e-03 4.366749719991578349e-01
-9.472752871243560885e-03 3.538938675894296587e-02 4.482653907430914630e-01
3.956070457873783058e-02 2.359363265029845377e-02 5.001222918014416319e-01
-6.571186187742918995e-03 2.774241428803866927e-02 4.456957516831868693e-01
2.696155132054339071e-02 3.116576300478726691e-02 5.135018840888425640e-01
1.192154835215048295e-02 5.458495686517447071e-02 4.614846053495890166e-01
1.369038164772349089e-02 6.355982953758380904e-02 4.667047291944258491e-01
7.944436831107175301e-03 7.695427864625373204e-02 4.805210075725835361e-01
9.717207725212544805e-03 4.999696286475113771e-02 5.122631300337363580e-01
4.544430587763002675e-03 7.052797625362759726e-02 4.932202377959157835e-01
2.508444747988082361e-03 6.139400452709883882e-02 4.597187443212742419e-01
-1.661221433082572113e-02 3.891831147945913616e-02 5.190978729751207776e-01
-1.722749778617500144e-02 5.046034822347094523e-02 4.527332367478451580e-01
1.012398497559149554e-02 4.565900533862691374e-02 5.156073159896630287e-01
1.050444161680613719e-02 6.597578442634538520e-02 4.660962220538922840e-01
4.276344896368329540e-02 2.256229136779451180e-02 4.915738975142190381e-01
2.381914211176897750e-02 3.026992688939609752e-02 5.199300128127292142e-01
-1.764922845316103592e-02 4.457972735360059974e-02 4.502959903676853615e-01
1.692472322187409117e-02 6.258714092505794635e-02 4.985547040992845402e-01
-3.490235616057488395e-03 2.140929478802958488e-02 4.442044655518708196e-01
-6.705953361367990827e-03 4.687444772759216671e-02 4.525731574686784886e-01
-1.117467785545143977e-02 7.078201377466934556e-03 4.383906064347924403e-01
-7.959249305496348542e-03 4.583020012344770494e-02 5.185330156027525561e-01
3.303381212559954733e-02 3.223646369016701374e-02 5.048493307689176923e-01
-1.385357320213455312e-02 5.058790793339117998e-03 4.373381348440646410e-01
-8.511670002601253240e-03 3.445752513297459241e-02 4.480618958673326935e-01
1.938463060086034750e-02 6.027227461189902519e-02 4.980330697183837363e-01
2.159954360100719770e-02 5.182613662964240253e-02 5.059710071443127566e-01
-2.106633471188217727e-02 5.866327422526774332e-02 4.607685636221132142e-01
-4.127135751544782662e-03 2.793631837408400501e-02 4.463117763448791186e-01
-1.010435758599293257e-02 4.173068558525201699e-02 5.197942038563094780e-01
1.456717498981804915e-02 6.297932212902557225e-02 5.012291303135486542e-01
1.322179356886660391e-02 5.471379404502670768e-02 4.622955961487535403e-01
-4.046490669394953860e-02 2.683469157281995199e-02 4.441583146083390443e-01
2.304101925851215205e-02 5.048723178562265768e-02 5.053139907655551655e-01
5.423797647284085005e-03 6.487559699321630846e-02 4.630386630748699606e-01
-2.633178292076053875e-02 1.405799710715053413e-02 4.398734505395659466e-01
9.300235059586676317e-03 2.142123228761504822e-02 4.474744601227881868e-01
6.687530243401282326e-03 6.815372132474556421e-02 4.996230462919236115e-01
-8.933727390291567108e-03 1.469543265904978829e-02 4.411891057231325242e-01
2.035665322378515246e-02 2.903873020612021683e-02 5.226762597135073962e-01
-1.821311378802084602e-02 4.090916554006734235e-02 5.171534138040714268e-01
1.363572975875872520e-02 4.558484234432916282e-02 4.587704151347224979e-01
1.361246805550292774e-02 6.732807149961585191e-02 4.977145979979796797e-01
2.322541582784685976e-02 2.698380500442085911e-02 4.549311747878339585e-01
3.773250351508554423e-02 3.744084809002402175e-02 4.865916607890368173e-01
9.368754870307216889e-03 2.161365495350807409e-02 4.475610866634309737e-01
2.347876309219919244e-05 4.644894216845093377e-02 5.181784431035049154e-01
8.972147396313079337e-03 4.945738687264004951e-02 4.579559501334344307e-01
2.331029811592427031e-02 4.538188687230355206e-02 5.080772725288049685e-01
2.328700452914843691e-02 6.227407339942560988e-02 4.775870749800976700e-01
1.560164721323593039e-02 7.203112824650471924e-02 4.871192011508583830e-01
1.281534036975997756e-02 5.203484064732592090e-02 4.609864973854869152e-01
2.722907169425441490e-02 4.393473493952431211e-03 5.311415777494289392e-01
-3.402308717861798198e-02 2.568306169167376002e-02 4.431051621913875138e-01
2.471113876573933707e-02 3.838346111801983762e-02 4.618998193777644756e-01
1.055576384957276903e-04 4.132448876840280616e-02 5.195948703462304197e-01
2.486467486382572603e-02 4.562029148859667732e-02 5.070130351053663276e-01
4.046310801963272363e-02 2.470394841229598543e-02 4.969934789168808931e-01
3.309391013571919005e-02 4.642123141929039437e-02 4.789066495051247929e-01
-1.821646055354657692e-02 4.107276596153476567e-02 4.488676678844495394e-01
-2.853373613570486106e-02 3.014553290141911215e-02 4.441358617061317293e-01
2.165791390799319538e-02 6.612500868628823358e-02 4.814083983455308968e-01
-2.306410736932087979e-02 2.218190603440579542e-02 4.418069930012828439e-01
4.174498752817383529e-02 2.300638302853878769e-02 4.958436320086384574e-01
-2.258537890963396161e-02 3.975809412868330089e-02 4.476958223163963746e-01
4.477071042543910237e-03 4.054353941891029878e-02 4.536319600408852404e-01
-1.039845138847394698e-02 3.895828326658044849e-02 5.202182122437781775e-01
-2.470044816729585237e-03 5.271739285987253609e-02 4.550435428367459179e-01
3.264800318892877029e-02 3.288497865125890318e-02 5.050908494645645064e-01
6.462844419507406818e-03 4.463184187647130374e-02 4.556609615445032513e-01
9.528306673466947416e-03 4.338584484635104460e-02 5.174221822230185008e-01
1.001372055738085180e-02 7.232574215162931863e-02 4.915731954323881991e-01
2.424933064792245130e-03 6.542812893740483637e-02 4.981412221134612905e-01
-1.554259038613659038e-03 3.570076333326395457e-02 4.499543532331576334e-01
3.460460858321343786e-02 1.891818027280886549e-02 5.152552870389081052e-01
4.172161873312496549e-02 2.516532648817121354e-02 4.744343968957977498e-01
2.499874543271425609e-02 5.556818077547936996e-02 4.734587735516829210e-01
-9.890937537172708044e-03 1.912250909638572166e-02 4.424298442901249961e-01
-1.885597262801019455e-02 3.399152394419315687e-02 4.460592120122838788e-01
-2.676538857023562715e-02 4.557037563058397717e-02 4.505849522061172174e-01
-1.486846309877063463e-03 -1.123695675540850765e-03 4.372367939525041436e-01
3.282878054911043952e-02 3.978436134120193202e-02 4.696554753376268598e-01
3.573832614631599486e-02 2.244581691979220459e-02 5.079167218771127867e-01
3.113554437671393199e-02 4.984412115891967421e-02 4.884927247797849481e-01
2.820743547322571501e-02 5.268289890664405034e-02 4.918436247611084888e-01
-2.157771660035207040e-02 1.177485517329281486e-02 4.387411681960577958e-01
2.642598187148949979e-02 1.844694727740797680e-02 4.526824627029641945e-01
2.186005588165774657e-02 6.431465658478224823e-02 4.887230771671692287e-01
2.820054650426099055e-02 5.018886366647940661e-02 4.966524399569874348e-01
2.583710751663077093e-02 5.252133082995986274e-02 4.982610872124580981e-01
3.882581636664158425e-02 3.522719181016769480e-02 4.808908931362620987e-01
-3.725225530290562741e-03 5.468966387367778237e-02 4.553196573177428208e-01
1.965491904470688042e-02 1.831454495008359024e-02 4.492740285927872002e-01
1.716803550414085916e-02 7.011595792480229683e-02 4.885000762663234131e-01
3.393984197099135514e-02 3.634545025784623185e-02 4.684931737796150242e-01
2.790329611219348818e-02 5.056496569456316037e-02 4.967650471997315798e-01
2.855335788339879999e-02 3.021298132031891709e-02 5.128087286237265063e-01
1.703591058018386062e-02 1.589718532073131768e-02 4.476483043561733099e-01
2.396229202724080298e-02 4.720676453003035122e-02 5.068258593909916732e-01
-1.328753853739850915e-02 4.938512511612098976e-02 4.525932465615537525e-01
-2.979508657975438873e-02 4.809337514789357310e-02 4.526243428580843942e-01
2.247307895979393580e-04 4.187979962386684935e-02 4.527058896126723297e-01
1.683791470688079592e-02 5.872828804245661116e-02 5.043669552442109349e-01
2.051962738996788646e-02 6.759273735012358286e-02 4.833728135282781557e-01
2.475275449378195464e-02 5.621209695339288159e-02 4.944679448442909075e-01
4.301944327142168123e-02 2.465783365956449383e-02 4.808057402410833014e-01
2.646388894293050936e-02 4.679267835247518520e-02 5.044075360757823701e-01
-1.884622737133256204e-02 4.795523544500769619e-02 4.517818775772149409e-01
7.947568449279931307e-03 7.290592125697878401e-02 4.876994559756430703e-01
2.292031782626416034e-02 2.674647496664603157e-03 5.318760788839299591e-01
4.000290865563326664e-02 3.135167724148667234e-02 4.904796285282965185e-01
1.617510973766264626e-03 -1.560542678696602223e-03 4.377453615629929851e-01
-2.368348509429408361e-02 4.737183450300494481e-02 4.513843052954678026e-01
8.963565236175353307e-03 6.973752301207673809e-02 4.680035208083546672e-01
-1.339037476494240979e-02 4.856276003221134813e-02 4.522710899985166177e-01
5.164895982011436654e-03 6.631755280064108304e-02 4.640072167090688593e-01
3.371656645731539725e-02 4.567310456936594931e-02 4.797238307574029914e-01
2.294936381855181701e-02 5.615696982940215215e-02 4.710972813773582346e-01
2.124924768780538618e-03 6.246715097642723674e-02 5.037710835145988719e-01
-2.079020741933186762e-03 5.010578307894354710e-02 5.153983722705748338e-01
2.557196762344967136e-02 1.211027904515061746e-02 4.494109491197254003e-01
2.954807596534805847e-02 5.128319325043047272e-02 4.904548541099156278e-01
-1.608701478710554064e-02 3.068430689485356425e-02 4.452723798443422587e-01
2.392879432808767137e-02 3.289920020209877866e-02 5.149934859334007742e-01
1.159972036031332865e-03 5.359276241826664566e-02 4.560953614480647289e-01
-3.879221162047773175e-04 3.318793552612538111e-02 4.492186629785747676e-01
2.637845227731964309e-02 7.859068674932015094e-03 4.481431555968583558e-01
3.384249092025019140e-02 4.179736615773899100e-02 4.736287266410631469e-01
-3.957404409318920901e-02 1.389026996948472363e-03 4.410290794236725320e-01
2.570368897260260407e-03 1.003817864439536349e-02 4.416704550083789260e-01
-3.160098440619788646e-02 1.660081854520353666e-03 4.385309617915545966e-01
-7.576931894479924448e-03 3.382285084115469430e-03 4.379645481719295352e-01
1.780135147413047444e-02 3.701013074384780499e-02 5.173201185028639681e-01
2.440246064272188348e-02 5.311770005587743843e-02 5.000288206808813918e-01
-2.931414950794443072e-02 -1.251453150578715756e-03 4.378786991170403042e-01
1.821900701601101777e-02 2.855517079057153310e-02 5.235356222214707644e-01
4.748267949648314439e-03 6.464353513782830629e-02 4.627195379715323131e-01
-7.140340963185167270e-03 5.829572185769343190e-02 4.560008966042011780e-01
-2.290432026436261398e-03 4.502293153043061130e-02 5.186767672396679352e-01
-1.223255198717680334e-02 -1.350528396935794274e-03 4.364833529619263630e-01
2.276899504423901544e-02 4.450029339551506841e-02 4.636754551316665807e-01
1.380317782417914661e-02 2.641346381623057779e-02 4.508532780690140407e-01
9.572948392048905020e-03 7.212246431967699045e-02 4.922430508424761042e-01
-2.475179780046577252e-02 7.009077271140216892e-03 4.377114281442613386e-01
1.903197285223510657e-02 5.179098093098032790e-02 4.645412664277565051e-01
-3.012577776990476783e-02 2.963394663554165878e-04 4.381354085829166634e-01
2.513682887613467691e-03 -1.691530547386839098e-03 4.379111792066455733e-01
2.654464173187660175e-02 4.643295778773999516e-02 5.047416137772141598e-01
-3.983388970263189444e-02 6.641565997280135091e-04 4.410982882415724893e-01
3.095463002508176686e-02 3.652971032702397036e-02 5.057934099935106342e-01
-7.206432203420379962e-04 5.006091475858242407e-02 5.150847128480509074e-01
-1.545058467453698514e-02 4.091859503624711153e-02 4.492277833293972789e-01
2.816607208704123566e-02 5.639422120456077242e-02 4.805726210915083341e-01
-3.048472470366327819e-02 3.464661097513638266e-02 4.454600520462115854e-01
2.864474164944653956e-02 3.083003894327531261e-02 4.605179311719795887e-01
-3.089808546232078457e-02 4.129448036992174748e-02 4.481140999741222708e-01
1.120442103159731591e-02 7.203568715276743861e-02 4.721835668977235057e-01
-6.743233754836680527e-03 5.148879720338919719e-02 5.097954364243707515e-01
2.424083196337952634e-02 1.059903983466123703e-03 5.326574562258356016e-01
9.753372112698267121e-03 2.366343955221083140e-03 4.406840027297234119e-01
1.510732251840986654e-02 6.519674371566656912e-02 4.981741712937591826e-01
1.958018209060638851e-02 6.379846536063513152e-02 4.725971647410296406e-01
8.663898825302766837e-04 4.536935184411679256e-02 5.185106748675046839e-01
-2.055794390527530824e-02 1.085799090878813294e-02 4.384219480679616976e-01
3.485851998297163218e-02 3.822688006434712960e-02 4.988423018965448819e-01
1.107056333998905628e-02 6.709640980736590599e-02 4.671076271455973927e-01
-9.284363563968237032e-03 3.692435084095689601e-02 5.207195089559463197e-01
-1.513532494860712549e-02 9.496545214108059740e-03 4.381819071986218228e-01
-1.963543507529309437e-02 5.082023854684666192e-02 4.528737396362524925e-01
2.420350386608024346e-02 2.027714225801852121e-02 4.522564834780621323e-01
1.149777281340934321e-02 1.425449562541400081e-02 4.455084844369245900e-01
1.080119927865339294e-02 3.992355587185193733e-02 5.183909560715698195e-01
-8.935987706381839576e-03 -8.326710752154015474e-03 4.360191815492828193e-01
-1.725182418727661503e-03 5.036682737386877912e-02 4.545542019205615625e-01
2.277474959006486194e-02 4.024553144095566193e-02 5.121181587608970576e-01
2.832323565934082021e-03 5.375945186749216120e-02 5.112367587614417008e-01
2.516899613444609218e-02 2.082910445333506153e-02 4.531161560165882229e-01
3.669921132422296339e-02 1.927370623558792920e-02 4.610032820044550061e-01
3.829019929460695387e-02 3.607382713158305276e-02 4.895730103683672008e-01
8.066584382895368097e-03 3.140861049693756402e-02 5.228968045052174718e-01
1.817452167598006263e-02 5.487250366709469501e-02 5.071144279255959120e-01
2.925997328901049771e-02 3.835467971418726058e-02 4.654546872531606372e-01
1.225828717244749344e-02 1.680216932574246994e-02 4.466542818237624335e-01
-1.561959027857059458e-03 2.088715284174279610e-02 4.444935133912162328e-01
-1.980268347329999790e-02 2.302918581333825848e-02 4.422325632113089378e-01
9.685014595089873682e-03 4.257799974950189636e-02 4.561664006918228487e-01
2.693689864219499935e-02 5.317220748298322197e-02 4.946698396804323772e-01
3.634841607960083952e-03 3.274663945972676460e-02 5.219613898126510554e-01
-9.091380444924624521e-03 2.338056032224091960e-02 4.438687837276079073e-01
3.709157712994227973e-02 2.338421841555601496e-02 5.049969077870667400e-01
-7.902097409771907666e-03 5.516124782190096054e-02 4.548944272503483433e-01
3.025590100006178215e-02 2.986720947735882481e-02 5.106605400642250103e-01
-1.904399368698949865e-02 1.515844164426803468e-02 4.398146721449933683e-01
2.262617940220241694e-02 6.479340831142532675e-02 4.824250827951777620e-01
1.491204785926311671e-02 3.552869173036488082e-02 5.186410048292093844e-01
8.774539519121755601e-03 6.333159457310946761e-02 4.636797714418406935e-01
1.024867111336880132e-02 1.160529330527793924e-02 4.441881327790742073e-01
3.937697428776710390e-02 2.741031242958913081e-02 4.699366216084752135e-01
1.047011943400484590e-02 3.082404579660046745e-02 5.229977605355796699e-01
-1.462419472450631613e-02 1.552459475616416694e-02 4.403234671449119397e-01
-1.304816677142325160e-02 4.460882809580117569e-02 5.147862309937618619e-01
-7.324461426534657413e-04 3.013307279381184645e-02 4.479792785264455901e-01
-2.708758916731199631e-02 -2.988216493202038374e-04 4.374637422077644611e-01
-1.750982410867501018e-02 5.955708138983049904e-02 4.604585478403548371e-01
2.389756168532302175e-02 6.330884372080473887e-02 4.836769987401514093e-01
-2.902404684131844326e-02 2.299380087530687386e-02 4.421528415089225339e-01
3.408341569478797600e-02 3.773749645241348399e-02 5.003691752719097163e-01
2.339032611791587446e-02 4.830919112295380818e-02 4.661142432631335542e-01
1.090925202498666674e-02 7.278076602921774996e-02 4.899734583608392757e-01
3.475639637420063766e-02 4.261461920797380426e-02 4.772265140922554716e-01
3.386758898343430330e-02 2.624549647528261198e-02 5.081495944434989420e-01
2.761072117883492036e-02 3.701282974671259857e-02 4.633593791219510760e-01
2.320929372023397552e-04 6.408179761169686961e-02 4.613394915630155135e-01
2.442278326582093470e-02 3.487556694247248568e-02 4.596864767999473411e-01
3.394822860163564104e-02 3.292838992044235663e-02 5.031205174681105952e-01
1.594058625873330873e-02 5.433249908253948157e-02 5.080219391919655880e-01
5.022077101811236316e-03 7.343887875802898590e-02 4.759187827434102069e-01
2.776776978638460444e-02 1.145266640832190083e-02 4.506237922792218353e-01
-1.922744904589869866e-02 5.926380600499485396e-02 4.616243902933650500e-01
6.052095335681064066e-03 6.938352621203712489e-02 4.666048377749241749e-01
-1.701744791306948959e-02 -1.427245690216609290e-03 4.364155419557287363e-01
1.793964613522582713e-02 2.892882637411593391e-02 4.534228056297115450e-01
-6.229913468066346216e-03 2.895418601447351942e-02 4.462542091829967417e-01
-3.027157538549219221e-02 4.460079338601014715e-02 4.503756059773598719e-01
-8.873611167805986119e-03 7.001747518828333600e-04 4.370377994836299185e-01
3.652540729470597769e-02 3.958566839583817221e-02 4.910013410390310362e-01
1.512562563502627827e-02 6.919372825622364942e-02 4.717625868978924109e-01
3.488406630282191341e-03 6.430730610316637286e-02 5.036314541323340110e-01
1.228366299803327136e-02 4.264069660293597075e-02 4.571819050157500119e-01
-2.681669491890197737e-02 3.429444191578569223e-02 4.454564861122647379e-01
-2.705989506723293844e-02 2.779286629833285088e-02 4.435860961400651115e-01
2.996925835456527507e-02 4.280817809735303070e-02 4.687684612960273944e-01
1.659040760928067251e-02 6.499102486926429390e-02 4.699678931364604795e-01
3.273942910494519187e-02 2.197206730288806670e-02 4.590528352319190319e-01
2.236844275396821305e-02 2.205326787067908925e-02 4.521929561203175685e-01
1.601444990053261033e-02 6.289811385782349828e-02 4.681484492626767357e-01
-1.275151861406760914e-02 4.785640723096779015e-02 4.520353996887248038e-01
-1.552623579587084947e-02 4.273824485316164018e-02 5.175853083739003768e-01
7.893371079486790134e-03 6.727695373681660818e-02 4.659258589489855273e-01
-2.936098216610645920e-02 3.656725186470229788e-02 4.461067235986156954e-01
-1.054253426850950423e-03 3.079358629866237734e-02 4.481459205129049717e-01
5.319937193415432385e-03 6.556878708057363447e-02 5.033685058927304112e-01
-4.148207428328425095e-02 3.290603748280562096e-02 4.455987960766968903e-01
2.928625264895846902e-02 5.413792937609797351e-02 4.849478223815756883e-01
-2.059349285149713119e-02 1.933928538160210181e-02 4.410999031430692940e-01
3.097520684092545246e-02 3.008244671966475367e-02 5.098593388211533073e-01
1.861660698769238356e-02 6.222269317612180023e-02 4.965752186311241934e-01
-5.187377877617538498e-03 3.711342715036881901e-02 4.498079567746757768e-01
-1.075364472192487549e-02 6.090021969326572110e-02 4.599787625552587134e-01
1.069899990739847651e-02 4.432055592041737879e-02 5.161685760840702963e-01
3.428003468220665317e-02 2.708030034989420548e-02 5.068246680331468523e-01
1.108969877731899763e-02 6.964082309507541035e-02 4.690982676044327393e-01
1.448913998306212460e-02 8.294835785170182746e-03 4.440407500046470446e-01
2.877423864168411269e-02 5.542865624158720833e-02 4.820283718607819012e-01
4.379702482746739012e-02 2.195734448114947460e-02 4.847851025330481844e-01
2.792777660820093891e-02 3.044071438028700047e-02 4.597906108217552634e-01
1.189371366141633857e-02 6.194890599080890570e-02 5.049799245726226404e-01
1.375359944726652940e-02 7.392864443867679103e-02 4.839050824978134990e-01
1.590922055329987636e-02 2.633474106630467534e-02 4.514915072874183810e-01
7.655356327208541825e-03 3.337062501962256844e-02 4.519109870066468915e-01
3.544699626883030669e-02 4.041032038198794779e-02 4.933644063585022055e-01
2.568745792855168034e-02 4.927340598795141441e-02 5.026057427071750627e-01
8.411401814490543360e-03 6.520149865568800052e-02 4.645956512620619261e-01
-2.341511904196904789e-02 2.920541910697425220e-02 4.439875520680077181e-01
-7.964274944127040790e-03 4.906426485332700954e-02 5.107205934884114784e-01
-1.078387473362629571e-03 1.375026698608975036e-02 4.421366697595296991e-01
4.293842139943942343e-02 2.126546451286895345e-02 4.736037339029555704e-01
1.582990698602153995e-02 6.314878641355135824e-02 4.681541402786169037e-01
2.388627506078808832e-02 5.804024547204666290e-02 4.740468359151658317e-01
3.459351660010028667e-02 4.466382660867281029e-02 4.843479005015671746e-01
6.144258404508296315e-03 6.726037800318886151e-02 5.009234194873222190e-01
3.561576248653931104e-04 5.763377385983783907e-02 5.072389378025057294e-01
2.699036004508738665e-02 3.859077574697943047e-02 5.088432623197129967e-01
9.206394555856544509e-03 7.346210677615885865e-02 4.870015126420065288e-01
3.136985171487265134e-02 1.507805609517665416e-02 5.222183720845646748e-01
2.748599340781615608e-02 5.096048389857538163e-02 4.971586576878146424e-01
-4.598577677886045434e-04 4.141025468848705954e-02 4.523083635143729242e-01
-2.131200458281705748e-02 5.857614747173619379e-02 4.606580947934484360e-01
-7.802221295119062677e-03 3.763404026413795511e-02 5.204401195725484319e-01
1.968616649335985791e-02 6.143938984701743933e-02 4.960969627729128195e-01
4.091147466880133698e-02 2.950510171673853196e-02 4.774241383743609290e-01
3.298175231701695048e-02 4.340769712518655066e-02 4.739071771051569515e-01
-1.158484557473704948e-02 1.358116237170035705e-02 4.403069738039584458e-01
-2.295747199567836974e-02 6.905520809339130497e-03 4.373359866008676988e-01
1.528107587587403116e-02 1.538439968213541065e-02 4.469898145679032653e-01
1.022023444530169127e-02 6.533677595079213918e-02 5.026332230430559100e-01
1.497539231499854170e-02 5.191328260246400733e-02 5.097581018070630465e-01
-9.439559452464730107e-04 5.361630514108806089e-02 5.115804898665695655e-01
-1.024936593671969820e-02 2.490708622429620503e-02 4.441362483835206154e-01
-4.232225747910026148e-02 -1.524757432571775990e-05 4.412937128794420794e-01
-1.869606819644251475e-02 3.292798687024552085e-02 4.456861157425089925e-01
3.408449074419291937e-03 1.740883488993757305e-02 4.444482728129748317e-01
1.421825135781442685e-02 6.420801167804593423e-02 5.003858452345663066e-01
1.464939532423997770e-02 3.948230930760084079e-02 5.172596443077206452e-01
3.091702888801788757e-02 3.961744170402410614e-02 5.039123308844651872e-01
9.900387832590699586e-03 7.290701804271358666e-02 4.881452476366964777e-01
2.295925683482029963e-03 3.993907108117790428e-02 5.197606882790215543e-01
2.345297256280767101e-02 5.938005175103990702e-02 4.746236916521201499e-01
-6.295188628632267941e-03 5.233880588289106101e-02 5.107998878917401342e-01
3.814934117051249629e-02 2.615764421803088921e-02 4.665305272579861051e-01
-3.697836531972446134e-02 4.081290955681108473e-02 4.493428727232495201e-01
8.094121369840199393e-03 3.035654838579124326e-02 4.507080470300499631e-01
1.385477974656506087e-02 6.131366301084205384e-02 5.042211221133435783e-01
-1.776611202519385105e-02 4.150368168575438443e-02 5.163972324320302842e-01
3.677116806954348893e-02 3.915951946904210751e-02 4.906495047150071231e-01
-2.529210645342837988e-02 1.082273467619828192e-02 4.388957246091185205e-01
2.791187035011956710e-02 4.509680357791139016e-02 4.682086177412307371e-01
-2.074165952373245581e-02 1.873532135181075683e-02 4.409335056868249336e-01
-3.105567291317452849e-02 2.479938439268469796e-02 4.427131254703497443e-01
2.445400754485159422e-02 3.215733110562211949e-02 5.156580244791761913e-01
1.520597525198871466e-02 6.221364347110261428e-02 5.012024462487753018e-01
-5.403494313114239403e-03 3.285174585720122831e-02 5.216587497195326328e-01
-2.583042202041480745e-02 3.281309595166749526e-02 4.450038509572077916e-01
-1.463238906147342443e-02 4.457561431499882515e-02 4.506299460932905454e-01
2.722360008697502498e-02 5.036606172801507547e-02 4.988458306638732243e-01
-1.371371468378487606e-03 6.500339591533391137e-02 4.616548590042397482e-01
-1.282467370072691917e-02 1.380497227487559493e-02 4.401224176149323153e-01
2.800520461380438114e-02 7.854499413648050737e-03 5.282937357624812869e-01
2.950662912688245543e-02 4.120803847059473918e-02 4.672720782790510397e-01
1.022743105453661344e-02 1.190290721932304487e-02 4.442984776536910707e-01
-7.968991153891494088e-04 5.770695389621843113e-02 4.568058264197446539e-01
-6.620571858339044380e-06 4.438412718413507069e-02 5.187959133134245615e-01
6.102398999427059538e-03 1.857728870591419251e-02 4.455651895058484468e-01
-3.488474639380972214e-02 -6.045506206135446356e-04 4.393210797886817898e-01
-3.491321381311809739e-03 2.166293964371345925e-03 4.380469972489223762e-01
3.235922133936284389e-04 4.792313012882169071e-02 5.172405628533471855e-01
3.978132059116248204e-02 3.082141097291656029e-02 4.752521475352672886e-01
4.424781427010932716e-03 7.102767436960129299e-02 4.913545379177013950e-01
3.774103948546045362e-02 2.978801026599876833e-02 4.984629303008205059e-01
-3.213689207923946939e-02 4.407179564967121654e-02 4.504451634880564104e-01
2.909070698203439567e-02 5.516719380637621212e-02 4.840358021645561060e-01
-3.531322858355591399e-04 3.202552461381372867e-02 5.224432949213385635e-01
2.940653900736793849e-02 2.517557370788565604e-02 5.172509888043167470e-01
1.425226394922559509e-02 2.803640810122456223e-02 4.516670023564984260e-01
-1.820619515303378844e-02 9.751549825642318384e-03 4.380842802112570600e-01
2.600905008108323271e-02 8.938652310886616853e-03 4.483531309648615681e-01
6.433649449779201349e-03 3.406505475540438921e-02 4.518138229630503933e-01
1.534775087735457469e-02 6.810506088114773315e-02 4.710615893012751743e-01
9.928536170028571042e-03 7.054135407300689276e-02 4.689865839856243723e-01
1.382202142946860335e-02 6.430282802296791167e-02 5.008047391234916601e-01
2.191777256118040192e-04 2.955529662373743496e-02 4.480005976666884826e-01
-2.658527237030406526e-02 1.547188373397130265e-02 4.401916524086153526e-01
1.056128066282859164e-02 3.957796897852616791e-02 4.554183583114229106e-01
2.716634279546935316e-02 3.318421315684667167e-02 4.607509470121428641e-01
2.538904963940786380e-02 2.764848613724881637e-02 4.566432468094460129e-01
1.553520698258885682e-02 2.185090516967681806e-02 4.495382816227001532e-01
8.998142475568350965e-03 7.426760471327215063e-02 4.857665677740696797e-01
4.057010651991824202e-02 2.149441282343267368e-02 4.673786574561180629e-01
2.390761753486400631e-02 5.476706563877803413e-02 4.987119548843458317e-01
-3.397827710142742319e-02 3.121436505387965160e-02 4.443132316063782561e-01
1.487751610572402711e-02 5.293703855074115283e-02 5.091478559716936525e-01
-2.148824301239220334e-03 2.575405342863090058e-02 4.460174443575289915e-01
-1.706446752170899528e-02 3.912416335170898138e-03 4.368977568686627233e-01
-1.232418759535005778e-02 6.070244098906200925e-02 4.608233630080036947e-01
6.201510344768903019e-03 3.233805707334286295e-02 4.509570495523076428e-01
-1.251805826878884739e-02 4.498006625395310071e-02 5.169823743462609311e-01
2.913607272731598766e-02 8.051205673333082513e-03 4.502281507389866433e-01
1.895302264262797853e-02 3.490186771841560787e-02 4.566321194505164049e-01
3.458137360721707382e-02 3.941838418104422898e-02 4.981218978934401354e-01
-3.425149775554706816e-02 3.751143984506992608e-05 4.391440624572106044e-01
3.092152750210832093e-02 5.081913370473735425e-02 4.829920140364503123e-01
4.836060942066341267e-03 5.173718345875192443e-02 5.124336079872577887e-01
2.589871438352333091e-02 3.996978737898786160e-02 5.086807015604370985e-01
3.054802715075104202e-02 3.916148248414588751e-02 4.669470372867765007e-01
1.908225168412809244e-04 2.775333504806858434e-02 4.473200079254168737e-01
7.228501398982436522e-03 6.751397121944892332e-02 5.004758542581788650e-01
1.207388656699501933e-02 6.694005029248287220e-02 4.993421532193303980e-01
3.469048811014703582e-02 3.835512818535200680e-02 4.990048275839181757e-01
-2.537399387139627899e-02 8.428125449747391959e-03 4.381815419546532531e-01
-3.761691422023250020e-02 2.484503866404721636e-02 4.433910029329700686e-01
1.481439679231126051e-02 3.502278192264308282e-02 5.188788586741709397e-01
7.977146265280898874e-03 5.018972550771549912e-03 4.411057544511518547e-01
3.238027095483436701e-02 4.803573281724353439e-02 4.817494544312984073e-01
1.323691792358028252e-02 6.638896374639687015e-02 4.680607881283176397e-01
-1.809349484370396249e-02 -1.040159787883468238e-03 4.364277259735430681e-01
3.114722133133413905e-03 6.195289664569021693e-02 5.064855358949336139e-01
3.991208898975198704e-02 3.262467053984099280e-02 4.823640608418696685e-01
-1.756381585023338368e-02 4.233271673576362304e-02 4.494369689479407737e-01
3.643817325126105094e-02 2.506891341512013788e-02 5.047878774773900679e-01
6.513294002056192224e-03 5.760969400029134629e-02 5.085746151814038996e-01
2.819341813504018870e-02 4.908032062217205366e-02 4.987578949646985782e-01
5.045986042357447979e-03 7.531301685879537855e-02 4.775230981818217035e-01
3.435559291121240144e-02 2.437496085380247771e-02 5.087450406973743622e-01
-1.344254591973695866e-02 3.529040965346716408e-02 4.474474980037447258e-01
2.038814819561022770e-02 6.298623833699797114e-02 4.933408402495420009e-01
-2.957692925779316709e-02 3.772728635799752622e-02 4.464905318566899095e-01
6.499328713140406499e-03 7.379228572063081804e-02 4.726778165235590579e-01
4.783941385656570802e-03 1.986885207123168309e-04 4.389408441418538587e-01
-2.494334446876325662e-02 3.983158127258459164e-02 4.476487461601500462e-01
1.117857006759930385e-03 3.075808570570311151e-02 4.486742382175447630e-01
1.621421146811960479e-02 7.201713718962278465e-02 4.847797946311108719e-01
2.529337218963798040e-02 6.114727975894322654e-02 4.796249796456426018e-01
3.860355210988734853e-02 2.872090985373658423e-02 4.976386397093924274e-01
2.309963684107451884e-02 2.032525361965571015e-02 4.516154727749787656e-01
-3.019448728237358187e-02 2.710987691881737438e-02 4.434296345269411188e-01
1.093994481536297858e-02 1.463134867074163820e-02 4.454791767805963976e-01
4.761582189588824121e-03 2.581787057837594407e-02 4.478505289944724188e-01
3.274605515772717468e-02 1.937582235911415943e-02 5.173043271126517295e-01
2.873281430925167870e-02 5.037683458313234330e-02 4.745832237224009154e-01
-3.490085371571306772e-02 3.216257534711437077e-02 4.445914048883067293e-01
1.563810977564136784e-02 3.015323008315607192e-02 4.530998784785113531e-01
2.368076691478317522e-02 3.921261139402027612e-02 5.120568321093265096e-01
2.234477959162325250e-02 6.265299020483869330e-02 4.910234420878898942e-01
2.189214854523541254e-02 4.926299246728248205e-02 4.652760741322697347e-01
2.685186538053301129e-04 5.243136160248566130e-02 4.555769802023028059e-01
2.375673456629501246e-02 4.977785986203034363e-02 4.673408811020036135e-01
3.011351668625861580e-02 3.881031293944033761e-02 5.055289566202711971e-01
1.403627485024814756e-02 3.290933970310286338e-02 4.537512725203542430e-01
-1.106809100338008132e-03 4.472889501828603703e-02 4.531025843198637215e-01
1.053398129481913567e-02 2.457603634751509558e-02 4.490487541225028356e-01
2.180189298316747432e-02 3.990581702824912147e-02 4.607075899501192340e-01
-2.348897082350366941e-02 9.860513877612504807e-03 4.381861657999540083e-01
-8.184306334326593019e-03 4.450702423212795494e-02 4.515812080288492680e-01
7.983364954475899097e-03 6.482410758779109938e-02 4.641243689233987002e-01
2.833157491507438952e-02 3.319797939569588130e-02 4.616459403456787403e-01
5.132909681250014469e-03 4.788374946764616114e-02 5.156405240100544463e-01
4.057193570901976298e-02 3.097561826337544288e-02 4.852196453864306425e-01
2.373636450679360646e-02 1.014465352581752494e-02 4.479025364667979514e-01
-1.400841759591155665e-02 1.860131535071486361e-02 4.415501856967810057e-01
-1.892397658656262346e-02 1.834476905633127680e-02 4.408619913750337349e-01
1.142727679602613053e-02 7.193995700951556771e-02 4.927859557493713405e-01
3.643112889376850377e-02 3.301201810923207192e-02 4.686981036715279214e-01
-1.053119111753569696e-02 4.439513026186112099e-02 4.511265782022595983e-01
2.392907669307920565e-02 3.380840647452404424e-02 5.144537613038293600e-01
-2.097034768509175098e-02 3.811608914783053831e-02 4.473288282401590155e-01
-1.773739256897612776e-02 9.644513030608441520e-03 4.380634108425345286e-01
3.286256581757765471e-02 4.780773671688998139e-02 4.872707085600650467e-01
1.539964239492670577e-02 5.649483379970383912e-02 5.070656161838237308e-01
2.832188932398174361e-02 5.187181629626705370e-02 4.752958895022225128e-01
4.003979141471147862e-02 2.683164252386097473e-02 4.711439560709395069e-01
-1.520190296058134341e-02 5.861043264446780948e-02 4.572871348926595414e-01
-3.288850211823596964e-02 2.349248126687464994e-02 4.424999838402800534e-01
