-3.084034668354572462e-02 2.976777281427429867e-03 4.384472811098823475e-01
1.811347525404592013e-02 6.875058717024810917e-02 4.883466585538847604e-01
3.226316973492947965e-02 3.314911852381025731e-02 5.053050573613609986e-01
1.206265082054694751e-02 7.450718660723681941e-02 4.861029672303978644e-01
1.663183187092478338e-02 4.217254495887558241e-02 4.592686043216357428e-01
-1.763259431879135239e-02 4.183841430480314538e-02 5.191482209712345863e-01
3.649691422794371781e-02 3.736299051883952560e-02 4.943534065037916703e-01
-7.176685408396749066e-03 1.437258955671731923e-03 4.375271637796832036e-01
2.849151475713776818e-02 4.853740948972862235e-02 4.983067865609721037e-01
-8.960659934982144817e-03 5.748358431506335464e-02 4.559178933611026108e-01
5.854870825774022812e-03 3.443016044783057950e-02 4.520682557793838652e-01
-9.170307218083074974e-03 7.914793941234676833e-03 4.390900334056626053e-01
2.934181704470570015e-02 4.730598370522009349e-02 4.731930696453227614e-01
-4.819655075295550990e-03 2.522511905291469417e-02 4.453951889744725001e-01
2.551853618354530881e-02 5.330163790487263409e-02 4.972168130012147302e-01
-9.285096741227792314e-03 5.395866330083484014e-02 4.547538791923847468e-01
1.662776796382824801e-02 4.011933754410845765e-02 4.583647297191987269e-01
-7.514513646701692640e-05 1.524387383727492107e-02 4.430251815500876877e-01
-2.600587823004210999e-02 2.612424519094548245e-02 4.431484002726986393e-01
2.896065455015671072e-02 2.954182151301710038e-02 4.604252366562887056e-01
-2.328079584118146472e-02 3.935605078008160007e-02 4.477278171224306491e-01
1.578343919033274589e-02 6.538214803611726300e-02 4.967935404074784178e-01
2.767454160116547893e-02 3.799623776178710777e-02 5.085895387370579224e-01
-1.251929289054726051e-02 -1.237474016046896143e-03 4.365441351717939122e-01
-8.651220485350634079e-03 5.107566411163984819e-03 4.384283604478980134e-01
7.402207227155510605e-03 7.769255177693343284e-02 4.778263716663107563e-01
3.474433024959455024e-02 4.303826583786531795e-02 4.879110327311425022e-01
-1.971856533678576287e-03 5.146702582680806604e-02 5.145957734617679913e-01
2.418087141259641151e-02 2.081674258312290332e-03 5.323608511919620812e-01
-9.425789625376611996e-03 -8.045233641931428745e-03 4.360837316397846997e-01
-2.020837807505530478e-02 2.269703350363005620e-02 4.422281132217153465e-01
2.325949308598869794e-02 6.085200552931957496e-02 4.765847566459157636e-01
2.527219551127012076e-02 5.055683175583888800e-02 5.015028212772865146e-01
3.011966148975989827e-02 4.670551620201385951e-02 4.974865393810594671e-01
1.110257929634725013e-02 3.782721531869679549e-02 5.190360567234129086e-01
-1.550751160054976083e-02 3.222804412040675137e-02 4.461260072394946929e-01
1.247037132545382454e-02 4.108572563342870881e-02 4.570291563774788179e-01
-2.414456207255147660e-03 3.114562886854793655e-02 5.229968293390675482e-01
1.563323685835990226e-02 2.885638526992434505e-02 5.240905950979477534e-01
1.918322222607735106e-02 6.300581341474578712e-02 4.722274606765318739e-01
5.078997705286299874e-03 1.330600530933604732e-03 4.394296417500501151e-01
2.708124134579349696e-02 1.432080076234846372e-02 4.515851466183359308e-01
4.047633240061428161e-02 2.610313479435517198e-02 4.955104971383806345e-01
-2.556643243382801869e-02 8.217696040442434152e-03 4.382133029536334767e-01
1.604527174264768277e-02 1.451929202636791441e-02 4.470258831018600887e-01
3.129680637030966828e-02 4.764990172626773490e-02 4.767198762451722027e-01
-1.932415001717931874e-02 3.963649639629678728e-02 4.483756416394619193e-01
1.803686804964294010e-02 6.003198148385002070e-02 5.008241919422595778e-01
1.518205884194400411e-02 6.361891434260232014e-02 4.995569646771425010e-01
-1.225656007517326659e-02 4.399594392603463355e-02 5.195057476379328909e-01
-2.689942591486150711e-03 1.481113362542280966e-03 4.380130536819555331e-01
1.152982673776913394e-02 7.212887117722674435e-02 4.924297318269468260e-01
3.926097490475331103e-02 3.102893573034769953e-02 4.748124061109646465e-01
8.267661086231222617e-03 2.268031837223007802e-02 4.478898771562277448e-01
2.288834652761257207e-02 5.279615844087835047e-02 4.691555071638127128e-01
-2.022362700578700292e-03 3.116684207538866075e-02 4.482826304584977550e-01
2.119563688408161381e-02 4.815020215101937368e-02 4.648193614059755729e-01
2.231470351766765003e-02 5.756302274869786600e-02 4.970579106020382998e-01
2.160556725908949552e-02 6.086095527616221246e-02 4.941446992264744709e-01
-2.431111519860101704e-03 4.449684969717090238e-04 4.377090493526387682e-01
-2.254191401352497945e-02 5.199245189688617846e-02 4.538030871847957837e-01
3.948574185277340526e-02 2.356422619021992376e-02 4.671964837932044978e-01
-3.979443707375704062e-03 3.576372441199538593e-02 4.497707758487249352e-01
-3.441798481338274873e-02 2.534920996885115657e-02 4.431712795958249185e-01
3.107120129357401200e-02 2.971166002458816568e-02 4.621988389698640787e-01
-2.669334188335326791e-02 6.129053008687639775e-03 4.379309284603333241e-01
2.670159636862445493e-02 3.317209905575745771e-02 4.608008252120044390e-01
3.386650437823516407e-02 4.049746426791486081e-02 4.728504839670554238e-01
3.962447290108077336e-02 2.423291033172144879e-02 4.680919540751203867e-01
3.424809029965605184e-02 1.735527399644121171e-02 4.582468248309702341e-01
1.428558022544414857e-02 3.662762383138267602e-02 4.558985705101978314e-01
1.264147796792700063e-02 7.080053026617670608e-02 4.717923313805478247e-01
-3.448391805446588201e-03 3.872341475255695192e-02 4.509547028316640005e-01
1.204651565739237734e-02 2.650807494141241283e-02 4.505848783760033061e-01
1.834794836113541258e-02 1.639527607663410214e-02 4.483797415842085687e-01
3.333338945654860247e-02 3.805420557661865627e-02 4.694983633600798290e-01
-2.880657637179200471e-03 2.843934826056217224e-02 4.470309023137555848e-01
4.170718363144827745e-02 1.977751315786231701e-02 4.693783438932179197e-01
6.775386101639357950e-03 7.099809774435671128e-02 4.955825504166470608e-01
2.143680196332173327e-02 6.595202430166419161e-02 4.833114233358522527e-01
8.368762921157459414e-03 6.335736406672710930e-02 4.639916487626789543e-01
2.971578042522143512e-02 3.587831701340810781e-02 4.647753931418148743e-01
3.351116431967628151e-02 3.474685895708115591e-02 4.675006740360614366e-01
2.728873141188435311e-02 5.706383258712288686e-02 4.790799421003177905e-01
1.628183986087456889e-02 5.057181981966801104e-02 5.101864124204037454e-01
-1.554940236841517893e-02 7.486288339442780104e-03 4.376864056243510159e-01
5.237839249144860335e-03 1.737486250698169407e-02 4.450856671095537176e-01
2.557419491819282187e-02 5.779689925210940854e-02 4.770907938508414659e-01
4.199334787115897166e-02 2.642909805875471099e-02 4.860992698293191694e-01
3.116094536574093299e-02 4.836110066737795560e-02 4.774092609620964600e-01
2.723537303580614646e-02 5.333722960058809304e-02 4.929050319161475957e-01
1.643680742893129793e-02 2.886321944684287072e-02 4.530967253334850509e-01
1.622048966906378467e-02 6.513340752838575609e-02 4.964346170412857195e-01
2.417861232233728050e-02 4.288942380134794924e-02 4.643034670305930534e-01
1.910132192159492287e-02 4.102671185643259194e-02 5.139110760733196503e-01
2.805670154497474401e-03 5.881158559676089026e-02 5.085872967486795293e-01
2.427829531643825936e-02 4.330712022327788679e-02 4.646176634385280613e-01
-2.910863396273018211e-02 -4.749371593488109847e-04 4.378895605481585851e-01
-2.278931904490827734e-02 3.639481544131104029e-02 4.466586917621473973e-01
1.437401333516472209e-02 2.031047694199290821e-02 4.488092437775796917e-01
-2.406544542702480222e-02 8.779702494476236338e-03 4.380669064497596521e-01
1.535197913996778386e-02 6.741300127328747616e-02 4.711510855168076217e-01
3.475967554374277679e-02 3.545719435146030968e-02 4.691486766452815371e-01
1.403946223692512443e-02 6.963672673201266872e-02 4.945040930684136415e-01
3.344056115289891634e-02 4.537064060876531968e-02 4.900559303694385083e-01
-1.839634899714841579e-02 5.950701901303052932e-02 4.615825395469717041e-01
2.121829591007265425e-02 3.698366390685228766e-02 5.151383504212603270e-01
3.596940976265390437e-03 7.416349435756457165e-02 4.788088631297488518e-01
2.309817533189520086e-02 2.715615318471222006e-02 5.221699905077045178e-01
-1.416867569294804306e-02 5.685911443916474850e-02 4.557382645032161950e-01
-2.038005392591987763e-02 3.550763215692954999e-02 4.466053268076882743e-01
-2.050898991908736355e-02 4.392297323452734603e-02 4.498232522187715632e-01
1.315529063768665179e-02 5.767883239635351877e-02 4.639806570699889776e-01
6.001137589627075601e-03 4.115714988862224921e-02 4.547097299225898448e-01
2.775079786579081470e-02 4.321707710566595473e-02 5.062486699710359028e-01
1.343337737698818701e-02 3.219934737451156381e-02 5.212591623573799016e-01
1.921926907285687394e-02 5.866221595365949532e-02 5.012639506431593173e-01
1.473183477462379140e-02 3.055147838019247122e-02 5.227330832842935759e-01
1.424778524847303621e-02 6.408075674008779921e-02 5.002826955277472898e-01
2.481131007907437513e-02 5.396121157954170133e-02 4.976428313258789982e-01
7.384560033443584789e-03 7.440576255469157074e-02 4.859188659091073226e-01
2.949306021418241983e-02 5.268254781625037603e-02 4.809322612930662655e-01
3.033553786895204843e-02 5.002822835997430134e-02 4.904928369802708521e-01
7.918523236478972049e-03 4.498173879715133133e-02 5.173876761774662825e-01
3.059806997736039605e-02 3.470641480170034987e-02 4.648183434223852051e-01
-1.099571635622181853e-02 4.659002881544502261e-02 5.178293905365847216e-01
-3.321689712404866934e-02 3.082436450331161107e-02 4.443514127727524188e-01
-1.627340642711827198e-02 1.154806494648330517e-03 4.367157075324747950e-01
1.013013048167746809e-02 7.339271911946174121e-02 4.877763626934911168e-01
-1.487645998321860709e-02 5.253481239411548695e-03 4.372637880338104410e-01
1.619947685538023971e-02 4.940130020741683586e-02 4.621870713887825111e-01
1.048402284190930178e-02 5.959687319894640956e-02 5.070244448102846357e-01
1.837291908697910939e-02 8.651258208908935501e-03 4.454819720139441275e-01
-3.520277478923139036e-03 3.465817965631286246e-02 5.223019153876260479e-01
1.076914837561906632e-02 5.295760155287816684e-02 5.105216116806974291e-01
1.130667945517536271e-02 7.537514354090570079e-02 4.781544512962567772e-01
1.482909102864662584e-02 7.310190276108560758e-02 4.843153676920055606e-01
-3.485227009964215333e-02 2.293047939143715713e-02 4.426965582825242995e-01
2.736033752568651709e-02 5.730081604511048921e-02 4.848867883048627592e-01
6.594678923801654616e-03 6.857763885365261713e-02 4.996641207261445228e-01
3.264281190411029432e-02 3.304194153698634950e-02 5.048350648994911483e-01
6.394954343646589920e-03 3.644311738654698596e-02 4.530550624699965501e-01
2.059995778667482111e-02 6.614096801894690791e-02 4.874914892929963495e-01
6.300937286460714035e-04 6.789634547863654390e-02 4.644877178496626402e-01
1.708171189417449082e-02 4.831392883052535586e-02 5.106601671805442999e-01
-1.164118084346871598e-02 4.633637000373326542e-02 4.517923160098107904e-01
4.170801699812945462e-02 2.329067948577329475e-02 4.954632591646459527e-01
-5.198744555725340680e-03 3.747255960845304740e-02 5.212073438490243404e-01
2.885802123220576609e-02 2.893869648451224963e-02 5.148169499975779884e-01
9.336869236697813504e-03 7.455732634671151382e-02 4.755478446658106817e-01
6.038893464510673020e-03 6.352473258910286413e-02 5.056969707007376025e-01
2.083636783573267204e-02 3.683092065984490404e-02 5.155423350842104346e-01
3.358792539856684384e-02 4.493896639111184810e-02 4.906502298421225317e-01
3.509258429371878239e-03 7.041413406412208587e-02 4.703087468198666743e-01
4.289088447037573554e-02 2.299566817377761765e-02 4.887321235880079384e-01
3.935744179942689790e-03 4.632878422116994827e-02 5.184640599180332377e-01
1.409653716026847137e-02 6.296322870548883011e-02 5.016681709824502011e-01
-2.209360633517713085e-02 8.019247957169904281e-03 4.376670097235777490e-01
4.935762907240332995e-03 7.674609734277211548e-02 4.786032454196575969e-01
4.063714634708961992e-02 2.350782969356310370e-02 4.974713354544935129e-01
-9.400821247738637074e-03 1.526266641009358521e-03 4.372438494826311750e-01
1.290192849887555546e-02 4.150299403171720664e-02 5.170756443492220411e-01
5.995530740026397583e-03 3.245937916194945039e-02 4.512177557339697720e-01
2.267049247524964561e-02 2.480322968672613038e-02 5.230163888240655368e-01
9.435440796164410240e-03 7.210587743835711327e-02 4.938034680242108232e-01
4.132665207107236865e-02 2.432645309196037123e-02 4.949689016533694308e-01
-1.071687698327505010e-02 3.119894140729858809e-02 4.464782548430688003e-01
3.910717356362285874e-02 2.463687107592008041e-02 4.672607716405796641e-01
4.236643186944974437e-02 2.470877027139539717e-02 4.772000794027421167e-01
2.221500821003108070e-02 1.752250141294382779e-02 4.500463979602712938e-01
-1.461846001693889972e-02 1.405455433297313900e-02 4.399335093607887881e-01
1.337158284397135799e-02 6.355037698313545369e-02 5.019880020734863724e-01
3.044174635021376293e-02 3.280406891942025394e-02 5.082314487413400750e-01
3.534016940560024550e-02 3.419753404139373731e-02 4.688395550476084916e-01
-2.928807627579639583e-03 4.619536024615723130e-02 4.534257654427613082e-01
1.396649433506433682e-02 6.556170300216916658e-02 4.990741131698807065e-01
-2.945715494954227048e-02 4.528399215480374829e-02 4.509356560746100029e-01
-3.235843315831207941e-05 3.158155926815935360e-03 4.389724467967240362e-01
3.446229519313863399e-02 2.182012844996720352e-02 4.607795099410419426e-01
3.024885822489052634e-02 4.341921495110496326e-02 5.020246948139811538e-01
7.946243531382273656e-03 4.091065264926159462e-02 5.189931581853576281e-01
1.508213864979051667e-02 2.920955853030019270e-02 5.239260111919753493e-01
4.082605371010312317e-03 7.516044180964695509e-02 4.786204729785866197e-01
-1.948859774352907151e-03 2.459335331537077299e-02 4.458647389446324105e-01
3.677212053606214448e-02 3.587572205270470743e-02 4.739063670057804267e-01
1.415621170029459849e-02 7.368056316600335443e-02 4.811464360715324573e-01
-6.107493632545805962e-03 4.490806884536097804e-02 4.523992069315576070e-01
2.705280783939424324e-02 4.532079080790801795e-02 4.681048953728263462e-01
-6.354026188470737746e-03 2.729635572323770368e-02 4.458150932845745817e-01
1.609097756692571407e-02 3.793797312126939714e-02 5.178450032565959926e-01
-1.736829928549379898e-02 5.803202525986643490e-02 4.573061439469197076e-01
2.039735398777987874e-02 1.663356548953073138e-02 4.490655387835759127e-01
5.014590570210669673e-03 7.075437410877857825e-02 4.941133632331073389e-01
-2.219780431532811238e-02 2.990175518038062918e-02 4.443715793486128773e-01
-1.545390703052260811e-02 4.316456416357626613e-02 5.149732840015843749e-01
2.768570089484700264e-02 4.322327547692388777e-02 4.674489929489853979e-01
2.637687717449808261e-02 2.255458748432578875e-02 5.214472137170956811e-01
2.039465826676782265e-02 6.266827275241608486e-02 4.935955060286630891e-01
-1.453830629558944959e-02 2.946100568616526194e-02 4.451121290984317302e-01
2.991058276368096375e-02 4.976456356508945217e-02 4.923583372092363297e-01
-3.809386534015659492e-02 2.442996305472741950e-02 4.434378339155334858e-01
2.222431623166461548e-02 2.541258341065389531e-02 5.231445274047153982e-01
1.887044171867176615e-02 4.631933712475796994e-02 5.106103999298927665e-01
1.668796561617046093e-02 1.200458068909701810e-02 4.462007695462245072e-01
-1.162301988375075146e-02 4.707644962098757324e-02 4.520705599130468988e-01
-1.851262005931318330e-02 4.176911523108300245e-02 5.175275565482483353e-01
2.283019597842860567e-03 -1.004905349499068956e-03 4.381445939600931982e-01
1.127937694795664789e-02 7.416323304802695249e-02 4.763349171834018736e-01
-3.068230023783536861e-02 3.552609538359063901e-02 4.459015910874202238e-01
3.026138707386262852e-02 2.552520533351582827e-02 4.591071524712885266e-01
7.862886834357178320e-03 7.193309007141518441e-02 4.928332606383951098e-01
1.736808606713088204e-02 5.306928072596788643e-02 4.646604956324286162e-01
3.849127222626345241e-02 3.048224233749804654e-02 4.719640898860696376e-01
3.837565406117592753e-02 3.017148598611828908e-02 4.712644884470869044e-01
9.411810175338894066e-03 6.862579319142909917e-02 4.679196082907225440e-01
1.279681491145153935e-02 1.565349173929135237e-02 4.466027514879677973e-01
2.552252975238818514e-02 5.996007496215314397e-02 4.851955107277697854e-01
3.553569455537513438e-02 4.146441764882344977e-02 4.881182551156189597e-01
3.946815714726216451e-02 2.068815512095453779e-02 4.653679904239210741e-01
5.529398820729424782e-04 2.224790080377341689e-02 4.456585963588530763e-01
2.651552433390509320e-02 5.002378937975284282e-03 5.311355150121302993e-01
1.280108491140781977e-02 7.416199304038957607e-02 4.860482012807150753e-01
3.107717836774195538e-02 3.720705864703731380e-02 5.050844443260433803e-01
-2.658768658449406352e-02 3.528481373396073588e-03 4.375955997055691049e-01
2.548470821195911520e-02 5.547167838324040812e-02 4.749188299220208909e-01
2.669704248645562300e-02 3.136534042733418737e-02 4.597913778064494084e-01
2.009302234722020603e-02 3.224884979464557461e-02 4.561418897297947472e-01
3.371042920376743357e-02 4.555257071604362773e-02 4.813911963832359087e-01
-8.809216968165301323e-03 1.424255796436556254e-02 4.411846666351950108e-01
3.475860731806305892e-02 2.560259378224210430e-02 5.069725463143012201e-01
2.340958828506699632e-02 5.498637044434199345e-02 4.989567205697426067e-01
6.003346452683232595e-03 6.852658843064465821e-02 4.996447420670362405e-01
6.631590595444631676e-03 4.471310314676295306e-02 5.182372457858868131e-01
1.979145435071583831e-02 3.015580125042363960e-02 5.218816809098038023e-01
2.650653378006545893e-02 5.893074402847851834e-02 4.837656243274088275e-01
-3.143275663063380826e-02 4.564958033098615031e-02 4.515225535511956378e-01
2.203500457362415552e-02 3.644430867127088081e-02 5.150574298990201472e-01
9.037518804746029824e-03 2.584556936682225192e-02 4.493185749881046243e-01
3.659526393279407402e-02 3.842350508839876416e-02 4.771874194429802096e-01
-9.592386961736429699e-03 2.933732705471238725e-02 4.459021848279613454e-01
3.706715843267450322e-02 2.687467160004003083e-02 5.016969962086362811e-01
1.330789804653976713e-02 5.269094300695004174e-02 5.100539120753665445e-01
4.147661491134006090e-02 2.830924984037983677e-02 4.836407235112006875e-01
3.532046567510919305e-02 4.259753054856851157e-02 4.836316985742339369e-01
9.513787091781283206e-03 6.019177564164576028e-02 5.068245123461270207e-01
6.289218272784504252e-03 4.548411751817350857e-02 5.178716995280019386e-01
-5.426875707251022779e-03 3.192842277399519230e-02 5.223862657050721836e-01
2.333452293046694992e-02 6.152537664354149061e-02 4.893567377412433861e-01
2.829291605124389236e-02 3.089144733027014353e-02 4.606842102102107206e-01
9.324924949137100572e-03 3.893696739115203725e-02 5.191326301863954384e-01
-2.345102774301801446e-02 8.997372036685687482e-03 4.380038872998824884e-01
-1.484034548004590235e-03 2.739199736223910803e-02 4.469850071331494812e-01
-1.391781532521444049e-02 4.192110464426031941e-02 4.501051378078056997e-01
-2.225051648033791671e-02 3.395800326598662905e-02 4.457975544088003117e-01
-1.844214019659396256e-02 -8.852401762897118068e-04 4.364719278210881792e-01
3.565877603172897675e-02 3.568344949962170415e-02 4.707696202699597210e-01
1.452623534499866698e-02 5.988398682389169114e-02 5.054339721991533141e-01
-1.783259025805889950e-02 4.981788015449115092e-02 4.526779690663787492e-01
-6.957141505457337463e-03 3.620260325515536198e-02 4.493126215915190791e-01
2.284057743024047165e-03 5.896276455405530942e-02 5.086167801561142232e-01
-1.953203234752177650e-02 4.869625518223320154e-02 4.523084865335743054e-01
3.907055274081396717e-02 3.417784297493733914e-02 4.787097298735314976e-01
2.253750507073705098e-02 2.666035780738302066e-02 4.546591974108525891e-01
2.989379660102254796e-02 1.991143750658781394e-02 4.560022533302426351e-01
1.989403853301077718e-02 3.047095834356445057e-02 5.214972456277591206e-01
1.863100896149941232e-02 4.221024817488126801e-02 4.601835498481847142e-01
-3.547940836959249944e-02 4.191900016109677274e-02 4.499467894816902014e-01
5.783702227883881844e-03 7.190347007759233244e-02 4.711602801644182992e-01
-7.400281989296781738e-04 7.222625021786266246e-03 4.401762249938997451e-01
1.578482060050468479e-03 8.027054491196864913e-03 4.408511640148413124e-01
2.973353387052094995e-02 3.334736466861343979e-02 5.089716829205594983e-01
-2.960474659776688930e-02 3.685094761907189292e-02 4.463594807325820812e-01
1.322535100853799474e-02 7.072905472077953282e-02 4.721702816919925993e-01
3.583464489384458052e-03 6.503120003728429799e-02 4.631253162477639851e-01
-1.404039765438410900e-02 7.912346474910885580e-03 4.381062508718802095e-01
-2.214297534924114172e-03 1.747068034886732624e-02 4.433107359603624120e-01
-1.726960890353626890e-02 3.349221187279791123e-02 4.463176289979734479e-01
-3.193618656672406880e-02 -9.140578605727151060e-04 4.385501961387880954e-01
2.525274370826386533e-02 3.173422427951862190e-02 5.151938258327544151e-01
5.455692459946053299e-03 7.513639103886515791e-02 4.756344200572621972e-01
2.780531743871992797e-02 4.072232504048281521e-02 4.661320629584995157e-01
-2.766322470357754013e-02 4.071825070193341861e-02 4.480455412962681683e-01
-1.066007275891341782e-03 3.898277112827986529e-02 5.207451090774269931e-01
-3.407221048495238241e-02 3.102634000352737578e-02 4.443865129101319811e-01
2.832061132988354657e-02 5.413193646593959796e-02 4.872909639788774450e-01
2.126026876197815302e-02 2.832737808683584088e-02 4.547706426256671874e-01
2.771209698556225190e-02 4.515720131388106795e-02 5.042611505052372323e-01
-2.231375163165559908e-02 4.132922891068912044e-03 4.368075265489931858e-01
2.908182419566906693e-02 1.845934570468087815e-02 4.547539087494551491e-01
2.115325486120782014e-02 4.995176184731643654e-02 5.073958901739693550e-01
1.602750274596716901e-02 3.186327712099602111e-02 5.210588399007022309e-01
3.469179025954952089e-02 3.935576310294722907e-02 4.970389742343733208e-01
3.261737967713376068e-02 4.774773691124633429e-02 4.851666273486688885e-01
-2.103513233982321276e-02 4.936521762236372596e-02 4.526525491341874541e-01
1.753140490508852886e-02 6.304636728887605401e-02 4.701510070504061334e-01
-1.202248505501451840e-02 4.978276362758107809e-02 4.530416264076081445e-01
3.073951975832582909e-02 4.937219935415226163e-02 4.784473919095210137e-01
2.951549510683645558e-02 4.654307023612289790e-02 4.725367480588644753e-01
1.929369607492229660e-02 5.862901192151183383e-02 5.011874118325446714e-01
1.107664046993154724e-02 7.507828274250147316e-02 4.837950211041804338e-01
2.448561425934248428e-02 3.885214697329874081e-03 5.316560076914615962e-01
3.530825711085609081e-02 2.933030173521224832e-02 5.028300121782129928e-01
-1.997861961638029357e-02 3.084735867769830726e-03 4.367905230671654260e-01
2.438831331081563192e-02 5.481672841891681303e-02 4.971303649763146870e-01
2.830669872127953429e-02 5.366122011271481224e-02 4.880419581111149485e-01
1.024718793649183682e-04 2.687537036029389800e-02 4.471884379768139572e-01
-3.787319013056535816e-02 3.198576249413349198e-02 4.449645713845931105e-01
2.779105594280823627e-02 5.018440890786161207e-02 4.737364190034047962e-01
-3.101101330415356391e-02 2.620349812726154720e-02 4.432553214350403170e-01
-3.484390649753082297e-02 3.541799493883021621e-02 4.458236198026621633e-01
-3.310536043564906231e-03 3.109537432326698811e-02 4.479708497967734848e-01
-6.892410427510038511e-04 5.877391329940935549e-02 5.045872885443326572e-01
1.518260106183359770e-02 2.280496466535016781e-02 4.500364013179626865e-01
4.675585771801194467e-03 6.739859100078542109e-02 4.999574809696278321e-01
-5.976051994478636178e-03 5.329937876400799891e-03 4.388439794417941520e-01
-1.849188759535300153e-02 5.240612349927607078e-02 4.536583498471853937e-01
-7.210882762102101967e-03 5.204384908116808234e-02 5.098043525202928805e-01
2.200717287610193251e-02 6.274105296132956311e-02 4.763555717453362703e-01
-2.049981090492295280e-02 4.325362674922363787e-03 4.368816803702207374e-01
2.636371708251805668e-02 5.541378348808648213e-02 4.913746104190384045e-01
3.164421202444438891e-02 3.629430058797174924e-02 5.046630271242232846e-01
2.931013045804239242e-02 1.922060931379023646e-02 4.552705929498256920e-01
8.139273585123509361e-03 6.536188272155753730e-03 4.418291667076811313e-01
2.930571177718015521e-02 2.020340527469252287e-02 4.557288221883522561e-01
2.235855966542852138e-02 4.282653219709364051e-02 4.630209201447595957e-01
7.628885840001667362e-03 4.868720315660388792e-02 4.576066504204128194e-01
-2.675530708795715792e-02 2.980169728842235743e-02 4.442116816126142620e-01
3.592105121241231935e-02 3.755963463054017015e-02 4.740014524438688759e-01
1.080342769693978106e-02 3.776815173108678814e-02 5.190996543864226931e-01
-9.684378531210947189e-03 5.275163988944926198e-03 4.382757382530078072e-01
2.943975988488664597e-02 2.553452713147730604e-02 4.584661351471796542e-01
-5.175570223362657360e-03 5.118525590234813266e-02 4.544724441540101689e-01
-1.164510027490267552e-04 4.223325777278349319e-02 5.198388847258208489e-01
7.616221327166407956e-03 6.355955435748293636e-02 5.052608062252978982e-01
2.953060005672639154e-02 2.688805789161689136e-02 4.593250841105435134e-01
-9.545575381845850665e-03 3.570368156721685782e-02 5.217248621150518684e-01
-1.634247114982943783e-02 6.012994970895843561e-02 4.623688418885298912e-01
1.418835904950796825e-02 6.919640410788123475e-02 4.716730932193702319e-01
8.407853944720287964e-03 7.716640136471521194e-02 4.816281085243476756e-01
3.616334825851475615e-02 4.026624786192374572e-02 4.877564626379557455e-01
1.284109660960060240e-02 5.887065640447482900e-02 4.642988144946202933e-01
-3.635447928924222943e-02 4.296623216786708832e-02 4.509548898037294973e-01
1.600952393012734440e-02 4.066777850579643416e-02 5.157352000893317134e-01
1.164217886141719061e-02 6.394790710282508006e-02 5.032871693150177128e-01
3.893097288405733547e-02 2.216744525808762509e-02 5.027514954652788637e-01
3.643422418207476615e-02 3.454977638786929650e-02 4.981098695994658487e-01
2.089136236437276820e-02 6.620018560628092297e-02 4.866155133860055049e-01
3.333795346114140634e-02 4.628837442032471966e-02 4.824007027928751690e-01
2.538447415901443766e-02 3.947121941322979943e-02 4.634705981745633196e-01
3.033537718563269342e-02 2.656226340133580055e-02 5.143349972419057892e-01
2.842008243847453375e-02 4.607768711216897461e-02 4.704903719740075596e-01
1.361808645163927953e-02 3.143151467946064120e-02 5.220168129601956419e-01
3.071455067823476368e-02 2.658060784854089642e-02 5.134084493906373448e-01
-8.538791336787952130e-03 1.892608475950322000e-02 4.427212550005343306e-01
3.589070399161767982e-02 2.511154974758139299e-02 4.639912461099360286e-01
4.121287210227431858e-02 2.303899596111724790e-02 4.711038145477055017e-01
2.496014494619568092e-02 4.812198538100714851e-02 4.680104547141273885e-01
2.704278347953346581e-02 5.526305815782794201e-02 4.771260741749893675e-01
7.909400113199129348e-03 6.915316127353687836e-02 4.676671653769873815e-01
-1.947599880075777737e-02 4.131339890732107362e-02 5.168406679530401782e-01
2.862245051705410159e-02 4.803466101107525810e-02 4.991339105916815511e-01
2.679191015372942714e-02 1.420819964135277245e-02 4.513497198686979295e-01
2.072400640141103603e-02 6.694399991111915638e-02 4.832414391184903790e-01
-2.472113854195888416e-02 1.304536842675546766e-02 4.394866901008505078e-01
1.452219921925369459e-02 3.200030939897363647e-02 5.212131936241258812e-01
1.939905648600174018e-02 5.033368763869294771e-02 4.645689543226709795e-01
3.501145557364391397e-02 3.895033409196738822e-02 4.966608097390789456e-01
-1.480191934254016309e-02 3.504519786348534241e-03 4.369621509648114466e-01
9.425786538306956536e-03 6.374250827203688241e-02 5.045711297524592132e-01
3.431785926833169631e-02 2.257734278525458729e-02 5.101651745438213759e-01
-9.104002581966967600e-03 3.507763587266689298e-02 5.217824698915732862e-01
1.595796987306454667e-02 3.335630957637601701e-02 4.550352969663816194e-01
-2.261847268224947624e-02 4.133035322082851543e-02 4.484801156449778614e-01
3.399074798677995807e-02 3.617294439875903822e-02 5.011386690298600399e-01
5.300003163539860652e-03 6.261796132839678175e-02 4.619167602162043140e-01
2.631367538323586136e-02 2.471325407111310893e-02 5.207043402069544413e-01
1.311180147367081977e-03 2.596192677068155652e-02 4.471605889436119363e-01
-3.462125167968866518e-02 4.028014094613309448e-02 4.484213223774642376e-01
-2.074843104655542392e-02 1.265730431605305989e-02 4.391188788133087995e-01
2.992393481872831704e-02 4.208433810252299595e-02 5.035014920857415754e-01
2.823414348791638412e-02 5.284280579727387156e-02 4.896383075241949046e-01
3.601313620976932806e-02 3.923619176365873706e-02 4.927004436129333032e-01
-1.719095230617477543e-02 5.793241921307702019e-02 4.571675201754794582e-01
-3.133065631106012484e-03 1.296573274844261409e-02 4.416010512133689558e-01
7.575773697153617876e-03 6.581791840348936995e-02 5.033427151789501286e-01
2.125925383074616162e-02 3.414808699835678030e-02 5.168664786651057108e-01
4.177198394051764851e-02 2.311801198470070026e-02 4.955428941254229058e-01
1.845687072548428051e-02 3.421769245979502244e-02 4.564380561929745617e-01
2.341169465101951980e-02 5.254756674881184975e-02 5.020165566762527787e-01
1.194528717999202190e-02 6.650692331557278569e-02 4.677657810323620491e-01
4.209026999234923017e-02 2.618429543171119089e-02 4.859182728711951560e-01
-7.507334708492812217e-03 -1.025928338782914001e-03 4.368003448025484237e-01
-7.130902280575591567e-04 5.746219839705808685e-02 5.064869365989282946e-01
1.380159629838215510e-02 1.598813668671362695e-02 4.470328689944306211e-01
-1.176278271235142725e-02 3.390093065910169956e-02 4.474546196623785943e-01
-1.919797373384407591e-02 6.218492829276590049e-03 4.372695896511533120e-01
7.212867637166844870e-03 3.276767895723932400e-03 4.404658056760464291e-01
2.939509939726617921e-02 2.778743174598519855e-02 4.597500785831898362e-01
3.695704837574879248e-02 3.787579030432728505e-02 4.918272326125705529e-01
1.188447505586130368e-02 7.071541728252644585e-03 4.429899417512176418e-01
3.970068768208717680e-02 2.797795545144941831e-02 4.952202825146701515e-01
-2.148234132604904742e-02 4.964319563468534702e-02 4.527837715457256329e-01
1.661274379538647816e-02 4.223380107698894437e-02 4.592881771051558482e-01
1.793332242060173901e-02 5.569573277694311181e-02 4.664058769186074094e-01
9.876276904037023432e-04 5.505735331787015019e-02 5.111471353021702635e-01
4.766629758026447693e-03 7.517956512636830846e-02 4.797653822084084752e-01
2.778223640974818512e-02 9.244802234001946173e-03 5.269407270988107905e-01
2.534062226205892679e-02 3.168784558782025002e-02 5.151427098476442090e-01
3.026988854846205182e-02 4.677799868428124397e-02 4.968040125153317943e-01
9.964553688806276899e-03 6.872365995223710111e-02 4.998086673509462008e-01
-1.936720449887185946e-02 3.664308649610892310e-02 4.472020668490066519e-01
3.349436403654547367e-02 3.159841867252664860e-02 5.043192682108083025e-01
4.268310573439493272e-02 2.498701608517226933e-02 4.830245086714574088e-01
8.408623000366901440e-03 7.132720442633962155e-02 4.955300979212223234e-01
3.811530837336719185e-02 3.659737998456338848e-02 4.792351426678353454e-01
-2.503799662484234440e-02 5.751330167438136604e-02 4.600435704458260000e-01
2.055772784365127517e-04 4.091028105006238452e-02 4.526610375778270523e-01
-1.353928920770908900e-02 6.063354751569273449e-02 4.619417802496240122e-01
1.289812187651119893e-02 4.598240995083578871e-03 4.422767165014009905e-01
-6.423711316094327280e-03 5.557857568311146829e-02 4.554369134771696359e-01
1.418661179540746907e-02 6.155302430150661613e-02 5.031706685314285554e-01
2.037667174560981592e-02 1.004195160788707783e-02 4.467371474174870460e-01
2.687005616762455293e-02 2.711941982578877294e-02 4.576103586889564978e-01
1.226505749536463928e-02 4.775681023848622753e-02 5.137000760079060147e-01
9.519302707699094090e-03 3.703550809273638278e-02 5.194649301637180860e-01
-5.769858802279136459e-03 3.773568239684026854e-02 5.210915607748516365e-01
1.402433989565282473e-02 1.371976543226957265e-02 4.461755861658635580e-01
1.777470426467261597e-02 4.414229118691365139e-02 5.130289575326716367e-01
3.417897015917892994e-02 4.156899037036702188e-02 4.948993891022059333e-01
-1.055164610436971039e-02 1.463192251517430025e-03 4.370024623520464835e-01
-4.135871290628663488e-02 2.989221116734397735e-02 4.449997751371915777e-01
1.860134188435913147e-02 4.198691464168845949e-02 4.600465832898149032e-01
-1.458328817192446406e-02 2.293984206265362036e-02 4.429616165786234849e-01
3.769487373811191561e-02 3.682498310773392458e-02 4.884541607657335582e-01
2.141569869167459991e-02 2.696032888774537242e-02 5.232953634420334232e-01
-2.429749514516604467e-02 3.000149384999096017e-02 4.443072280770038462e-01
2.040245918772200674e-03 3.460577100783771010e-02 5.218463301567344281e-01
-2.841690895563395505e-02 3.661129376693750964e-02 4.463304966543157892e-01
2.866163368890373153e-02 4.340887192580868831e-02 5.046273158109961798e-01
3.223853041933155694e-02 4.761724570865734363e-02 4.893494337915298420e-01
-1.340942479392847816e-02 6.371798408412151019e-03 4.378508438010833004e-01
4.240801214467549568e-02 2.516960322671811870e-02 4.789131242052259707e-01
4.662735692674982793e-03 7.121572711293401581e-02 4.921113318297344885e-01
-5.713445421392904233e-03 1.877430180501811832e-02 4.431271777629763320e-01
8.016213019436804060e-03 2.630924026849437367e-02 4.492369663056715590e-01
-3.117234835821491162e-02 -8.665054021330681087e-04 4.383477370341002932e-01
2.602486025064547001e-02 9.163602149621585813e-03 4.486659067615521024e-01
-1.356232303058149333e-02 4.144293522601402713e-02 5.201019216902258435e-01
4.016682688327543119e-03 3.065192184120704710e-02 5.237743337916035413e-01
-7.936450491018140485e-03 4.607562670525303800e-02 5.190277045290395685e-01
2.193083773736361972e-02 4.886077165380739440e-02 4.656539006713349971e-01
-9.485919715026326117e-04 5.218311643744666384e-02 4.555697033569379717e-01
7.556829408012539703e-03 7.486697219033468242e-02 4.852458552390318536e-01
3.517708141405202077e-02 3.805856715199849860e-02 4.728440797034668130e-01
-3.368434725214898562e-03 5.343944245932771148e-02 5.122518190533179583e-01
-1.799166464231366155e-02 3.319591405872534401e-02 4.460870969743058190e-01
2.867534481992010248e-02 2.200811756728546231e-02 4.561359438897839569e-01
2.769818503615642177e-02 2.565675336559249814e-02 4.573744230937921151e-01
1.314626568515025844e-02 4.284721769501068783e-02 5.162016073227166935e-01
-1.295707104192481141e-02 1.472768727730572672e-02 4.405040517141768364e-01
-1.138089865786231711e-02 6.089665543307971191e-02 4.605601680830366806e-01
6.525077894335026829e-03 7.453753946634106287e-02 4.738202604169285959e-01
2.311133208216463106e-02 5.846621230961319277e-02 4.942948942927505862e-01
3.461121968546516936e-02 2.764499517710183180e-02 5.055479779790206241e-01
2.236544686734319443e-02 5.783644040640839590e-02 4.724091872313224694e-01
-3.253326731650313646e-03 3.436430462294520066e-02 5.223954109387579647e-01
-8.027919818026781409e-03 4.530889836329227843e-02 4.521400294102319584e-01
-2.200887839920043568e-02 1.305945550924130991e-02 4.392575627020381401e-01
3.413497903428995388e-03 6.669888616630777201e-02 4.988877382596123566e-01
1.612235922379098851e-02 4.905895313998452634e-02 5.109195374807721235e-01
3.108932113734367078e-02 4.592011366786837023e-02 4.741605400355077271e-01
2.880255457364385221e-02 8.190449069949312655e-03 5.279205271591201898e-01
-2.154949369825538870e-03 2.988909624903127171e-02 4.477641110220197396e-01
-9.043960523141228447e-03 3.480720393074632907e-02 4.483329714934397026e-01
3.877891455150531130e-02 3.445922824487778618e-02 4.866177917282202836e-01
-9.688178237173605822e-03 3.906576340552092574e-02 5.207654949336879557e-01
3.970476810175714577e-02 3.154929759807674483e-02 4.905467708170436758e-01
3.101699446882247649e-02 4.874365655505481787e-02 4.776530225171513044e-01
2.759425481343369402e-02 5.007008710366581128e-02 4.978465048279634431e-01
-1.291301531224413324e-03 6.674504330283538567e-02 4.633157119669224500e-01
2.007127095603815012e-02 3.176509886998140492e-02 4.559013811471155919e-01
1.457527595805733003e-02 6.153974994170153395e-02 4.668614851018822454e-01
2.283102499403112141e-03 2.724087112177597109e-03 4.392526518804327207e-01
-2.476322951560193039e-02 4.570133721988180880e-02 4.506138105958701345e-01
1.388191758744352321e-02 2.948369262793435613e-02 5.239381923990024115e-01
-3.050907805832648104e-02 3.507817018351763044e-02 4.457519893053726312e-01
3.990921143095842172e-02 2.209118201076539639e-02 5.008376186161692667e-01
2.214874458437537247e-02 6.332684271773085516e-02 4.893312736130047136e-01
-1.448079848660271604e-02 2.976149703777659222e-02 4.452483667735320227e-01
2.989913139414041715e-02 2.248579640369355315e-02 5.183488954480623967e-01
-1.166449209371222227e-02 1.470300085624761180e-02 4.407675805056920360e-01
-1.061564325366602494e-02 3.272885562877976551e-02 4.471795489833686466e-01
-1.232652607724106508e-02 3.445224633859834962e-02 5.207811730238508519e-01
-2.621502405407260747e-02 4.401668626924645084e-02 4.496745920888822745e-01
-1.300366890004663782e-03 5.682303894052900123e-02 5.070841717056445708e-01
3.071692628844713974e-02 4.914767719692600401e-02 4.911726876936404196e-01
3.280900618923614925e-02 4.577564562352066241e-02 4.915356129888572290e-01
2.773558088709362004e-02 5.654804381704374439e-02 4.852834559860798591e-01
2.521391341759750271e-02 8.226254886329879834e-03 5.288345680732943199e-01
3.162650973577207231e-02 2.651583719056664970e-02 4.608243180872467759e-01
