3.525917374506696428e-02 2.181651131876374133e-02 4.615059638652893037e-01
2.614104416652267282e-02 5.642620034156813763e-02 4.904204516448932849e-01
3.776935436003150265e-02 2.971353788300620802e-02 4.690524109600887614e-01
2.684754894102912848e-02 4.771602369066258592e-02 4.700844224205643629e-01
2.412008405023388646e-02 4.362494544859291112e-02 5.090607516950501621e-01
2.145390615740768933e-02 6.008739597033045665e-02 4.952433121339352984e-01
-1.557396857266430713e-02 3.494848441213860291e-02 4.471659463708857474e-01
9.366253810932499702e-03 7.223358346627864468e-02 4.931199841265586636e-01
2.074426717775824242e-02 4.194728776315025109e-02 5.126529030513775620e-01
2.164181666922591202e-02 4.454582763191028416e-02 4.634565355916378526e-01
1.080357035948821889e-02 2.005728369472489434e-02 4.476289359490792097e-01
1.468356894144248054e-02 6.366046497806089610e-02 5.001494104975354738e-01
1.944987819556654243e-02 1.879660923734033720e-02 4.496439349757643256e-01
2.690747587252203393e-02 3.601832814333343069e-02 5.114545752698683723e-01
1.094131120746624775e-02 4.469477453480080742e-02 5.160596885202103357e-01
2.032384134142336055e-03 3.318351555705884720e-02 5.224874152594275456e-01
1.350051190660767238e-03 4.927975522672173314e-02 4.554267365301417070e-01
-2.746408263960503637e-02 1.468324116697277554e-02 4.402437761680150219e-01
1.744063703139929478e-02 1.922957894674286183e-02 4.493205920716297208e-01
2.823547381758908723e-02 3.953478589626022166e-02 5.068622229943863244e-01
-2.048874115914559382e-02 5.787134767381740819e-02 4.580603101564181823e-01
2.259118401463915474e-02 4.751604674169845367e-03 5.311632404705465271e-01
2.912497203354445438e-02 3.194503161608855391e-02 5.108181725147505903e-01
3.116369739043741219e-02 2.645993914126046342e-02 5.126427216340393445e-01
3.102010891369167897e-02 2.054212721023553415e-02 4.572744066615492264e-01
2.299039007969637394e-02 6.185721165278565414e-02 4.897288511577293502e-01
-2.643292471653079651e-03 5.070603656162828848e-03 4.391955611922972458e-01
-4.214088565544053117e-02 4.133837208047496780e-04 4.414052350350713971e-01
-3.867623143588893447e-02 3.930829403506348046e-02 4.487148555450196641e-01
3.570918230658111370e-02 4.166675516183954847e-02 4.833959456400873655e-01
2.152316897470541238e-02 5.551486700312715378e-02 4.695832634382460236e-01
3.949062971327046978e-02 2.304987798587095071e-02 4.669250798089907839e-01
-8.635633430104901545e-03 3.892536987379105473e-02 4.500840967318137653e-01
2.993045486827110649e-02 5.174489174847853729e-02 4.813898442757832408e-01
3.287001412855002774e-02 4.643080639446484081e-02 4.798044386004478579e-01
3.673424485791575156e-02 3.861671515782449243e-02 4.909300790199304099e-01
-6.678503346110639845e-03 7.031101739631263892e-03 4.392917558903044473e-01
3.471219318870156362e-02 3.843091890703485142e-02 4.986214246826504159e-01
1.933577037140654653e-02 3.726154174121507068e-02 5.162128877874967436e-01
2.487022762157031081e-02 4.887080872266534592e-02 5.041220458078418121e-01
-4.351694811837955937e-03 5.146102210832392831e-02 4.546572226260075511e-01
1.634034298475444368e-03 1.241424407158272895e-02 4.424428058964351429e-01
1.580165442795532574e-04 5.230619428014066791e-02 5.134855035634611209e-01
2.702019206827807607e-02 1.875148227428160078e-02 4.534754700283926687e-01
-3.622533028015744935e-04 6.055563433390070971e-02 5.031908612392269609e-01
2.780881398958857942e-02 4.304004395583296144e-02 5.062498005883014907e-01
-3.293717587814395248e-02 2.610404308589771554e-03 4.388935294772809415e-01
2.009149591755740247e-02 4.303389781143670406e-02 4.616400812663840059e-01
-1.210481511558148503e-03 5.572071219402998515e-02 4.565353872284624859e-01
-1.462576985858776366e-02 5.059675667537633093e-02 4.532287435343564375e-01
5.795361555811978649e-03 2.832812736953659732e-02 4.493689903928045348e-01
-1.375352959560826108e-02 5.950444010090427671e-02 4.582035330343522395e-01
-1.630086148097727172e-02 4.623286706980534594e-02 4.513655897476405721e-01
3.375463762596069700e-02 4.574445114969916126e-02 4.831663996898659108e-01
1.593023514004013319e-02 8.844462995451171997e-03 4.448369012572995773e-01
6.084989897651806902e-03 6.897355203302174553e-03 4.414399908975602527e-01
3.728510636297695247e-02 2.609673163771671425e-02 5.020970327185035886e-01
-7.843587982479374721e-03 3.827479835395389968e-02 4.500183436200790310e-01
2.228822665391468408e-02 5.145841027189278910e-02 4.675969732764793663e-01
-4.464759424825855486e-03 5.263924901821744051e-02 5.129305814097872007e-01
2.008579147133530973e-03 2.965336040782987764e-02 4.487650221899677772e-01
1.114003286636262337e-02 2.804070968928894236e-02 4.509383415103758175e-01
1.957937371071430052e-02 6.002574480815750513e-02 4.702637031442695736e-01
3.677632268396636202e-03 6.815442969387962291e-02 4.652665247066482546e-01
1.122422770660025902e-02 7.268489656771467966e-02 4.915437736348092779e-01
1.665238076159320305e-02 3.795589300602581623e-02 5.174546544795252112e-01
-2.435944706170290949e-02 3.744957961738487606e-03 4.371686613605347271e-01
1.929238584088530800e-02 1.797664057274619281e-02 4.492722300903004840e-01
7.971989398639783148e-03 7.149252509774674247e-02 4.949040173335915727e-01
-1.863727595399646605e-03 6.818992398438897262e-02 4.665894475406849318e-01
-3.861918538648367871e-03 2.309089845821487783e-02 4.448905995174757821e-01
3.632525648531242241e-02 3.900056979796581030e-02 4.773950853933195404e-01
-1.482306258882787678e-03 3.298429832370404491e-02 5.226620319333998843e-01
1.555688305776737994e-02 6.604403650728836450e-02 4.963237540361010169e-01
7.099298271974436442e-03 4.337103517907589523e-02 5.186232007150893830e-01
1.565981448461137293e-03 5.113138538029537994e-02 5.142019399090796972e-01
5.423697332887084110e-03 5.250988885361693170e-02 4.578170975538436993e-01
-1.688449307461048488e-02 5.702038329152547824e-02 4.561714734477640421e-01
3.628735609640999088e-02 3.158645613891680748e-02 4.995841316599564097e-01
3.668335101788396113e-02 3.067195846161651501e-02 4.994901539025652371e-01
2.907915057534521744e-02 4.971968736857126925e-02 4.945487127854649723e-01
2.335813983201305913e-02 3.790838621875742415e-02 5.128994848671240003e-01
3.916335941212681360e-02 2.574000210641398320e-02 4.983844456534318734e-01
1.993380422320067957e-02 6.288059860352288033e-02 4.733501969760800510e-01
-1.254158879036649209e-02 4.723629400545369117e-02 4.520777713065035064e-01
-1.133397239306170416e-02 4.435595613174708740e-02 4.512793014618228793e-01
-5.284338877682720308e-03 3.915400192169508214e-02 4.507936625050076307e-01
-2.894658606574762247e-02 1.710348747872824857e-02 4.409697381518852821e-01
3.262702345853257108e-02 3.963528523892452526e-02 5.009947217501266037e-01
-1.018231103124582655e-02 -3.037756819261262960e-04 4.366604817699317187e-01
4.184147349590981724e-02 2.096166632431296570e-02 4.708162730435205279e-01
6.526436774397223473e-03 3.693621681244788763e-02 4.533212671092330392e-01
-1.985637929708721633e-02 6.686534633332236535e-03 4.373809631937538578e-01
3.471491848216200216e-02 2.755123936734126325e-02 5.054334854930142562e-01
1.802323465251980811e-04 5.572415045187280314e-02 4.568377752471788900e-01
3.583163987567779957e-02 2.227717040808249727e-02 5.077063155263329408e-01
3.863262684889241794e-02 2.481644194425076597e-02 4.666568185956909143e-01
-1.709147405449130616e-02 5.742154119607335849e-02 4.566314920596548643e-01
3.612095510596501774e-02 2.706129885693973891e-02 4.654704524231075835e-01
3.289640129816876618e-02 3.267605016455794875e-02 5.046393530534861727e-01
-2.576635757194917914e-02 2.303782840995652684e-02 4.420878428155352036e-01
-2.692344743995517264e-02 3.900611502543763209e-02 4.473901843447060100e-01
2.449398587755140591e-02 5.788727277968916396e-02 4.757445671035233636e-01
-7.277603580773952044e-03 2.785587795842278322e-02 4.458087294757844821e-01
3.047301042650413239e-02 3.014957414020389900e-02 5.102283912578268188e-01
3.963488410416012020e-02 3.267974012599371425e-02 4.820652627607642793e-01
-1.892554120224869407e-02 4.328104570299502740e-02 4.498485418339089326e-01
2.581176501340396584e-02 7.026786929803441849e-03 5.301909530311958996e-01
2.897526437729623996e-02 3.154909783018225444e-02 5.110417475546783495e-01
2.689952098747579179e-02 3.003510283492497393e-02 4.592382023678543423e-01
4.117473864147602400e-03 6.953776965254880593e-02 4.965082485817012281e-01
9.335858303112801182e-03 3.765806413867599234e-02 4.545892200613207978e-01
-1.208652508635239993e-03 4.332797956704036169e-02 4.530038031340608562e-01
1.262053117091591070e-02 7.432099189142489515e-02 4.802322106251850631e-01
-2.932355549597316646e-03 4.170756822214236048e-02 5.201386961013957366e-01
7.196608458097959911e-03 2.903179905693013818e-02 4.500883443035478826e-01
2.755902487077064450e-02 1.936786327569446631e-02 5.225873546964968641e-01
3.627839559879160458e-02 2.513902667704473112e-02 5.048017966272282386e-01
3.250668446731565242e-02 4.738375063354448302e-02 4.820162237451427467e-01
2.771668093067794145e-02 5.287220349769004846e-02 4.921696128940921677e-01
2.461074018599216512e-02 5.007833514038599609e-02 4.691604103756371602e-01
-3.063241780506190896e-03 5.584279244493464689e-02 4.561681374287658297e-01
2.721352471470308773e-04 5.272121902772708424e-02 4.560492813707577309e-01
2.266014045262140786e-02 5.225160667614232174e-02 4.684434318153885557e-01
-6.319265338132575016e-03 1.638031346268926589e-05 4.372071934874564025e-01
3.032407906440571718e-02 4.708661002512033733e-02 4.957913688800638097e-01
4.893130712695985436e-03 2.101066134554663636e-02 4.463556783049170695e-01
2.559599347567246413e-02 6.033719706259733223e-02 4.819988673789718514e-01
2.599061369785504033e-03 5.184143500515815683e-02 5.134304914458431846e-01
2.641829333080193340e-02 7.597765332801250347e-03 5.292876286647936190e-01
2.498342353049951697e-02 1.469684323611273463e-02 4.503685516543881606e-01
3.112529242088775405e-02 4.318227817908092819e-02 5.007381037237506050e-01
-1.249170397894843604e-02 4.519800308456831117e-02 5.128477161460062161e-01
-3.488078495251030215e-03 3.341433833518726859e-02 5.224105505265315141e-01
1.895773948337595508e-02 4.732160507555517592e-02 5.099841287479047747e-01
-1.739137997203997824e-02 6.587973606209373938e-03 4.374212351908522423e-01
3.617243122861563825e-02 3.456727881245550554e-02 4.705170603854957889e-01
-1.282681267001437031e-02 4.615490524367270309e-02 4.516421176753300792e-01
-1.942298307535612195e-02 1.368284208280030022e-02 4.394684325089529553e-01
-1.105252942138991792e-02 1.859806710586573569e-02 4.421965150035006009e-01
2.699380166280389987e-02 2.640225532242860759e-02 5.192033004394520646e-01
2.438267850508295601e-02 4.754749710971791637e-02 4.671830673402303513e-01
3.117176363638357595e-02 2.057014078117112843e-02 5.180932495665658832e-01
-1.697561604265276913e-02 4.277828954881092438e-02 5.180742759362285677e-01
-2.966511330201036106e-02 3.297280152975670849e-03 4.382062847849053089e-01
-2.699189101576725605e-02 4.508605893572169981e-02 4.504526298408108587e-01
5.493880885071973641e-03 6.487440577237113537e-02 5.048276087079891505e-01
6.297452733590000636e-04 5.342429034767245261e-02 4.563228145673946523e-01
4.017190802125252674e-02 3.146738225776609527e-02 4.820710986744487503e-01
3.247724057297607381e-02 4.797748064602008061e-02 4.870114795404261177e-01
-1.312866674094783498e-02 1.603384676759684116e-02 4.409076440430848565e-01
3.390585227291746662e-02 2.084360272304153217e-02 5.145432697243981224e-01
2.744925896817938804e-02 5.021064921697499656e-02 4.979385202662839349e-01
1.360783218210397452e-02 5.958802211329605747e-02 5.063790636432234926e-01
3.280436217461805970e-02 4.298376310611380646e-02 4.739081627641284489e-01
-2.542927427551527897e-02 4.978531847548982314e-02 4.529776565100598340e-01
4.246923349439341022e-02 2.396410072276620312e-02 4.765317992311373096e-01
1.137339695366418324e-02 3.196224917555566536e-02 5.220326060896200993e-01
1.340050151389466336e-02 2.601161460657250984e-02 4.508350739036532939e-01
-3.151781114920282345e-02 1.702925619862741269e-02 4.413434902792152670e-01
2.007255802030163960e-02 5.475843649877593089e-02 5.045548224010344418e-01
1.973271326088837929e-02 6.783679615524743078e-02 4.853188199149330306e-01
4.065081705580273624e-02 2.467595504068380297e-02 4.964749264486957858e-01
1.098166715655068612e-02 5.679947815765147567e-02 5.084169478286519883e-01
-6.028760069731188900e-03 1.173123600897080926e-02 4.408007327829801536e-01
1.939890749160118333e-02 6.424221592895552890e-02 4.737113303811127385e-01
1.106264196361521519e-02 7.305314468012462370e-02 4.743564099172752346e-01
3.699402395722185127e-02 2.858592544657467122e-02 5.003172642926134728e-01
4.990385488544168621e-03 7.411902083666745134e-02 4.756965973523727964e-01
2.398502346541222033e-02 2.483456392166505725e-02 5.223085214534095577e-01
-5.217081035134903816e-03 3.183707454346507842e-02 5.224925811206928561e-01
2.542575837166928532e-02 2.838223981041176902e-02 5.196226306680921114e-01
-1.149914119741536796e-02 3.462574495202583313e-03 4.374050099994784002e-01
2.828363734785847156e-03 6.972827209239923496e-02 4.682954407764756688e-01
-1.905295673747225971e-03 4.005054392295407523e-02 5.205379046785255648e-01
3.626987959610691176e-02 3.219909348188949166e-02 4.992397670943297117e-01
1.858358521861733920e-02 5.743303936067108151e-02 5.036921288100512095e-01
9.283588273717615150e-03 4.176889489473675082e-02 5.186161300909999383e-01
2.896875785921199098e-02 5.134163489223438070e-02 4.767365754980548709e-01
2.995379377669320914e-02 3.706938532228629818e-02 4.657213604778084881e-01
2.452296680540599905e-02 5.680069494708603339e-02 4.936369363876800254e-01
2.261736785538339539e-02 4.509083126590279073e-02 4.643916079559252119e-01
2.770858360422639652e-02 5.397395729040905393e-02 4.893410345837754805e-01
1.364425456984743115e-02 7.283078994948739837e-02 4.891429075454317710e-01
8.542484781609334258e-04 5.696126301363824834e-02 4.573727333526056427e-01
-5.724490756815318361e-04 2.105062767642283325e-02 4.449856208026520821e-01
1.174399337658634315e-02 3.427028064788417705e-02 5.202091174582695876e-01
-2.029404752594628387e-03 5.704730587036392631e-02 4.567379772131738291e-01
3.808200962576992893e-02 3.633387756804548618e-02 4.819624188266366516e-01
1.386456464760945848e-02 1.732534247176010372e-02 4.475575681168242892e-01
-6.010288442284872704e-03 1.486719512366218611e-02 4.418238142163543603e-01
3.930883696954377490e-03 3.835530204276303007e-02 5.202173658382615029e-01
-1.956469190561900898e-02 4.135280683821253300e-02 5.166578869131337459e-01
4.058457953769029070e-02 3.018117186441640273e-02 4.791268103265736711e-01
3.803651580395186332e-02 2.131248663969215196e-02 4.638223828976328900e-01
2.207638721123346415e-02 5.814898200779348991e-02 4.723299368993112979e-01
2.372301223857657335e-02 3.312056818440381467e-02 4.586736946876270316e-01
1.777814911399913655e-02 5.693451607819560029e-02 4.670037172973478534e-01
-1.117716297468322913e-03 3.621789256862464196e-02 4.504967773819973376e-01
1.230930737760195862e-02 2.931315281750342464e-02 5.243842150514093081e-01
9.779956491759819737e-03 6.240393088200982263e-02 4.642650973089484379e-01
-1.372540300346416532e-02 2.970634002612203284e-02 4.453335551563933903e-01
1.002939145155561963e-02 6.488825102005972567e-02 5.034123801307802681e-01
3.732507890097177400e-02 3.690191480907314969e-02 4.770185408329992161e-01
3.589985351486033038e-02 2.293493111426015557e-02 5.071016923954917432e-01
1.724687215573302360e-02 1.278082746251676775e-02 4.466658288868686766e-01
-2.170172139141035572e-02 3.552888869644353631e-02 4.464351022369647537e-01
1.716388272754554301e-02 3.533638560245182247e-02 5.186226325090811384e-01
3.136193959723171387e-02 4.296656917829251576e-02 5.005041395871354659e-01
2.400540346266786390e-02 1.716349001018669523e-02 4.508880192028699163e-01
-2.015721862011329336e-03 4.852400480004758626e-02 4.543775868885040481e-01
1.600246356684393439e-02 1.939719005809926664e-02 4.489702903570993997e-01
7.841926690696176400e-03 7.200729386827463274e-02 4.926514172914316925e-01
2.691383068606711775e-03 1.290114363907554802e-02 4.428554726451843226e-01
2.205300843447631498e-02 6.506938686127901328e-02 4.854375834458761196e-01
-1.304501738089889826e-02 1.134593149598518182e-02 4.393029018378822870e-01
-6.993401094036512736e-03 3.223302487108871406e-02 4.476599422506409853e-01
-1.130890137319531460e-02 -4.803430283288509864e-03 4.362696934597287690e-01
-3.134601074567161787e-03 1.610203004914743247e-03 4.380053477351992242e-01
1.024088188287257395e-02 1.397067386994374147e-02 4.452460957818799026e-01
2.022666734793835547e-02 6.645731523502247662e-02 4.781145734669779990e-01
2.218099075815001264e-02 6.426412394264804928e-02 4.792127313961254131e-01
-2.220800415174462722e-02 5.860186085621969104e-02 4.622068519755356819e-01
-5.390046836892547349e-03 3.510764924399323306e-02 5.222677399884679827e-01
3.553979449052552947e-02 3.698540175242780864e-02 4.724438221117163716e-01
5.172467873007101542e-04 3.774131375538508637e-02 4.515807770743333061e-01
-1.591504619732635878e-02 5.594076177311528564e-02 4.554725053408914537e-01
-5.273555592047715623e-03 3.789631530965838213e-02 5.210794146048858266e-01
2.053198509128770916e-02 7.769397409370824500e-03 4.459452782247459446e-01
2.794241117800386892e-02 5.075678178334117052e-02 4.745779208446119779e-01
-3.625218921842034842e-02 4.111523713892013127e-02 4.495402199619508710e-01
-2.495510211984920679e-02 3.302277614075209422e-02 4.452997022959430118e-01
2.875174671035542195e-02 3.621932397927482561e-02 5.087040260985492557e-01
5.574379086608079181e-03 2.009529160046557086e-03 4.397407662859173505e-01
1.180979280231923140e-02 2.265159096281737366e-02 4.489292642313700843e-01
1.441192104516150763e-02 6.142322296616560540e-02 5.031142947841064084e-01
3.649911061717667909e-02 3.808472664921642992e-02 4.763964976010443553e-01
6.551122857774496766e-03 5.911885595835126433e-02 5.079717293431562641e-01
-7.987390172093242896e-03 2.894317137743025042e-02 4.460993527917457291e-01
4.379207613405963762e-02 2.181542382155747528e-02 4.826246785749741530e-01
1.999209838605570805e-02 6.059887545891300131e-02 4.714347316849772929e-01
5.282932715341389154e-03 7.593276518286717902e-02 4.766276409125358993e-01
7.083440041055540787e-03 4.064080076636944483e-02 5.192233677154554083e-01
-1.621338042291879666e-02 4.791855471260886984e-02 4.520530727056015774e-01
4.148629504020706626e-02 2.289544532121075976e-02 4.717921885280927374e-01
-1.213905510998409404e-02 4.236968500111095576e-02 4.505653174193980925e-01
-1.302099884033970298e-02 -6.405452666308888987e-03 4.363163452722321756e-01
1.763751661678489985e-02 3.222855903356299651e-02 4.551979172877580471e-01
2.248061119218817960e-02 6.202148803303625391e-02 4.911716504706162278e-01
3.985648945043768904e-02 3.215053725011721847e-02 4.827790869813631813e-01
3.206136051183832575e-02 1.681497714611780367e-02 4.562629636348550788e-01
1.254470454334184401e-02 6.597051404611081749e-02 4.679188366525623977e-01
1.605010828342364609e-02 2.252223022568204669e-02 4.502162194444018217e-01
1.255019488572629849e-02 6.498043160789782058e-02 4.672999428002863609e-01
-2.455904626736167551e-02 1.150529411061178287e-02 4.390073774128883111e-01
-3.526875096442293189e-02 2.670552494557976858e-02 4.435578639898211106e-01
-3.366695177855289628e-02 2.888975461176674503e-02 4.439256708642059235e-01
3.411476324247638553e-02 4.236382914589530840e-02 4.760856383832678396e-01
2.277925405918664048e-02 6.287559301929068756e-02 4.786294906642079017e-01
-8.701307789797080305e-03 4.731304964406575844e-03 4.383164238004066959e-01
-3.404370032467095731e-03 3.383874941239503609e-02 4.491022696940133452e-01
-2.680153868815355819e-02 4.544814465506106377e-02 4.506931155715001025e-01
-3.334488661214919224e-03 4.485918142930031549e-02 4.529725131939215665e-01
1.452255086808666197e-02 2.996198906865963490e-02 4.528985780449173437e-01
-2.457463868481224098e-02 4.263412148262108597e-02 4.489528782416543629e-01
-2.766233581867768698e-03 6.021415144901819116e-02 4.578926130403301875e-01
3.751954581017939543e-03 5.721360527458005385e-02 4.587177366578310544e-01
-1.089182576544011488e-02 1.576452593406465000e-02 4.412895511123282044e-01
-2.145380321106311536e-02 3.921582997767612128e-02 4.479062200652356718e-01
1.665341452265861263e-02 7.115057570015081989e-02 4.787716287033375040e-01
4.207467901311187468e-03 3.841694410016827099e-02 4.530964757927478659e-01
2.093000997998913093e-02 1.505042678502558490e-02 4.487918986903509655e-01
-3.356188933453638223e-02 1.966008444098226587e-02 4.420083377394655177e-01
2.954557681400221680e-02 3.326659108091978290e-02 5.093449176109624554e-01
1.652068221389999675e-02 3.048318095598096314e-02 5.223845206387544016e-01
-6.763809771825885289e-03 4.662010385182102645e-02 4.528104016181497271e-01
2.238086843881002819e-02 6.057967491077680816e-02 4.932774402067252595e-01
1.323556003750492316e-02 3.405711605893318311e-02 4.543285847872828853e-01
1.729069123520323228e-02 4.076897587274015688e-02 4.589353414863809322e-01
1.761100172577430897e-03 6.634477260345093830e-02 4.636928194519631119e-01
2.145806020211052725e-02 3.007023879190888829e-02 5.215755316302661537e-01
1.871567132982740120e-02 2.790897555032421581e-02 4.535986681751018601e-01
2.112257869282529402e-03 6.040065344788019680e-02 4.591530824780435394e-01
2.976843531880975918e-02 4.809152094428011115e-02 4.955200246498306926e-01
3.016591540482708653e-02 4.053583136586783736e-02 5.041809254532533258e-01
-2.316823388177682852e-02 5.018560339291793654e-02 4.531121120353706067e-01
2.947701823781120889e-02 4.876648499880495424e-02 4.751746816714449984e-01
4.810073488444914502e-03 7.117358552484702450e-02 4.925110707291165957e-01
2.700895065194428880e-03 4.375826059196522705e-02 4.544111790065909484e-01
2.702392764985843063e-02 2.963359316020990064e-02 4.590957387038219761e-01
3.750657892648936315e-02 2.155572557489711036e-02 5.055201916382637828e-01
3.726326124760804409e-02 3.639300547834690286e-02 4.930815390627628636e-01
-4.630908158102636221e-04 5.801679718482850162e-02 4.574290655403874806e-01
4.214878821737266107e-02 2.619243426534847985e-02 4.845820070154785442e-01
4.244298095637157042e-02 2.443398629141555617e-02 4.771823942786901918e-01
-2.992454202866839941e-04 5.977291975750247122e-03 4.398536827818707584e-01
2.717913292013481724e-02 2.091074525966358372e-02 5.219012941619401991e-01
1.446506988913243488e-02 1.491608228481181193e-02 4.467926034275914726e-01
2.804789774225565149e-02 8.578978942200509578e-03 5.276610077411471034e-01
2.216542295643612881e-02 4.691296481482502140e-02 5.082015652082474411e-01
-2.514057108482851272e-02 3.891187906487043879e-02 4.474712858932199944e-01
3.354807330946668609e-02 4.553850114481960976e-02 4.877525656782889518e-01
3.645233712992696634e-02 2.332686058835750989e-02 4.634748627273484467e-01
-3.771423081534770131e-03 1.760221382867572376e-02 4.430601219873039898e-01
3.862466516439809483e-02 3.518851818448581054e-02 4.800927673221164205e-01
1.629107154878183319e-02 2.704486422181948818e-02 4.522550778400793448e-01
2.482248409328834983e-03 6.980360608877281270e-02 4.690263744936382095e-01
4.190496800525200100e-03 3.848681779353138599e-02 4.531193285702176943e-01
2.714965375529604721e-02 3.716648887873164053e-02 4.635714287859969973e-01
-2.658384805968509734e-02 4.608721612049474642e-02 4.511329893502700750e-01
7.696344810630992815e-03 6.721160698970250758e-02 4.663001010580546946e-01
-1.094368759417654186e-02 4.197452729202934968e-02 4.506292414765930010e-01
8.908924148542942192e-03 5.105559540238311517e-02 4.588705823512432835e-01
4.172453222238309278e-02 2.124989871686520926e-02 4.707781219487587321e-01
1.473069341414106129e-02 4.722196459079668757e-02 4.603664195851513985e-01
-3.836496906712353640e-03 3.034612335816701950e-02 4.475677592722264175e-01
5.997646760613747907e-03 2.348980340217180982e-02 4.476333514340327113e-01
-1.642949645806704093e-02 2.810560583104700777e-02 4.443350689039985424e-01
3.025345853204980048e-02 2.653939924044942250e-02 5.146574948656682524e-01
3.633750110869818362e-02 3.994861971095846342e-02 4.848827039662715888e-01
1.085208152950908715e-02 3.996699890840756803e-02 4.560408441335531693e-01
3.401287669642607397e-02 2.357668480102199232e-02 5.098196756964920029e-01
-7.199971244570200352e-03 3.704608660321471320e-02 5.214421531453187209e-01
3.277103071446574312e-02 4.140450783204738944e-02 4.718460958330503718e-01
2.258788181596945929e-02 6.427730664489518519e-02 4.854050241611389538e-01
-1.017489812567605803e-02 2.226499021633077807e-02 4.435129588171897730e-01
2.280682044007478759e-02 6.012297259183357195e-02 4.930057928078240836e-01
1.107822479161771866e-02 6.843644464529821669e-02 4.687572010494767127e-01
2.856095221506689888e-02 2.826246369821243040e-02 5.161345030537980438e-01
-2.868498346416582800e-02 1.641107254455490688e-02 4.407519008571472163e-01
-2.826114280959140038e-02 4.609224627320320650e-02 4.513652551470563878e-01
3.767181701068737787e-02 3.784283984371315107e-02 4.798625214451003873e-01
-3.283214472847960884e-03 1.262236257231212633e-02 4.414754799259129059e-01
1.019259466109890926e-02 7.618993541561706884e-02 4.796218376607260803e-01
2.838596777821256537e-02 4.758524166300038410e-02 5.001563381075777581e-01
-9.511232712833325026e-04 4.013219797539832601e-02 5.204757491288132254e-01
-3.562789668166797125e-02 3.377371891625213091e-02 4.452680162294982980e-01
4.127485809065509215e-03 6.213039728536025319e-02 4.610568019359059244e-01
3.489194805880864447e-02 4.074141851274969139e-02 4.757877231830594522e-01
9.152313415223971987e-03 4.263589722329938492e-02 4.563853733848158845e-01
-2.172733283892807309e-03 3.801788987126589192e-02 5.210345898878078197e-01
2.256095195843182011e-03 7.082889215413022688e-02 4.710597206325748965e-01
3.857695937745583142e-02 2.915360494484446618e-02 4.706652282255154862e-01
1.877331063137564759e-02 3.381965648476971398e-02 5.193548747048163383e-01
-2.970572212214575916e-02 3.335881271577785523e-02 4.451916171891636131e-01
7.418744723582828757e-03 9.345783319253767388e-03 4.427259133270629587e-01
-4.075241151206979162e-02 3.774960622200044386e-02 4.479354222020888177e-01
4.067558035724657545e-02 2.973450597509529059e-02 4.879243464464447788e-01
1.065961158524067823e-02 4.788349912458481766e-02 5.143697196566640040e-01
-1.883737543971272885e-03 3.577493494472864383e-02 4.501989442819813170e-01
5.561251761070770336e-04 5.205052113511083461e-02 5.137081277945857449e-01
3.697137620954877007e-03 3.360292580245140964e-02 4.509744931764099185e-01
-2.405485822444953375e-02 4.116909220677428954e-02 4.483333772788504201e-01
-4.058581918169443942e-02 3.220965603886905004e-02 4.454100945819213231e-01
-4.886909378983846086e-03 5.174198154766795898e-02 4.546631197029006866e-01
2.687468448150814523e-02 5.369216765380424583e-02 4.755736754996158222e-01
-6.177331572945437069e-03 5.253279501727483453e-02 4.547318333257430178e-01
-2.585859292956019934e-02 3.087973892848976804e-02 4.445078806191528620e-01
1.367056327324554094e-02 6.838159176985955656e-02 4.963938703605627611e-01
-4.122171388380029521e-03 5.514541568827863172e-02 5.098386058728547887e-01
4.991176796348468885e-03 4.736624897202405815e-02 5.171670242434488474e-01
-4.067399526136519089e-03 5.763889941702467906e-02 4.564680235416345710e-01
4.061436029850840068e-02 2.263982509362658102e-02 4.692231111594034054e-01
3.180907755335961318e-02 4.834364022227597563e-02 4.891412289942823066e-01
1.551579806777363818e-02 3.549449609541034667e-02 4.558956885623181576e-01
1.960569084477643484e-02 3.765159270501854116e-02 4.584902515411468649e-01
2.858209070778007163e-02 3.346064238197007934e-02 4.624490491857903840e-01
1.299531384501558320e-02 6.303333537755186067e-02 5.030147567756140248e-01
4.305108457411911498e-03 5.667260352795373129e-02 5.100204252591521437e-01
1.796952345351411628e-02 3.231356808872053177e-02 5.204749438639001413e-01
1.560331696944814231e-03 3.367879006886489307e-02 4.502760765384178909e-01
2.707852826703168597e-02 4.837134456449571074e-02 5.012657938415612247e-01
7.644444556138659669e-03 3.924107521468743476e-02 4.546179655432334155e-01
2.244249981777919623e-02 4.164198903628681808e-02 5.110617537505102170e-01
3.154203630166676174e-03 4.858466848871654392e-02 5.159505707188488666e-01
1.356807642979307275e-02 6.340278542826296992e-02 5.018759361905693606e-01
1.125812015230684415e-02 7.512443772038676637e-02 4.789041525989445325e-01
3.435544486148326034e-04 3.392548802151484216e-02 4.499631070068706440e-01
-1.758638903622800412e-02 4.767007443486754453e-02 4.518366022898819834e-01
4.011536666552818764e-02 2.335133447154086675e-02 4.686010506817542276e-01
5.828042220824510879e-03 2.337672056352199657e-04 4.393049903639401066e-01
-1.034169960047330583e-02 4.706122339014212619e-02 5.178856142416983221e-01
1.872098413206454981e-02 6.467394905471885412e-03 4.448026656490448594e-01
1.970011739180695803e-02 5.521173465628501087e-02 5.045931117096065233e-01
5.444030367619995085e-03 5.284659295941374069e-02 5.119555355397047425e-01
5.598827468024394211e-03 7.733322729309340116e-02 4.788365849463748214e-01
4.095847784190648905e-02 2.319234763201790880e-02 4.706028949535242534e-01
9.745548166278055272e-03 5.754417965940365753e-02 4.620130216931077061e-01
1.078251537964083386e-02 6.310367084029415430e-02 4.651979671348788759e-01
5.216892958612957126e-03 1.350683691551563329e-02 4.436839266456754083e-01
3.716936010178163718e-02 3.513584872666838943e-02 4.950226061009648792e-01
-2.850235710246615435e-03 5.125551944871751392e-02 4.549248829282330764e-01
3.986164259151768127e-03 3.329932894492157458e-02 4.509350573533761342e-01
-3.135373440877795015e-02 4.059522647633182629e-02 4.478658090183888496e-01
-4.133900468882844431e-02 3.015720977696538692e-05 4.411424966923276902e-01
-1.602278209406406834e-02 1.456958269384476048e-02 4.398429118391624648e-01
-2.965396189561175094e-02 4.344068570447908589e-02 4.496165895904692400e-01
1.815670598468508562e-02 6.780071055915502798e-02 4.752674690233648636e-01
3.578527652955807575e-02 2.220094663084776210e-02 4.621780778870923645e-01
1.374804479155024989e-02 5.176489083100314914e-02 5.105534362876632537e-01
3.009384777317681767e-02 5.186622461096888209e-02 4.835961978257335980e-01
2.325439684369522489e-02 4.630417907645283798e-02 4.654409597870052817e-01
2.359582369676726556e-03 3.274474105794849405e-02 5.229251230328484379e-01
-7.593705029101875496e-03 5.034525931748171090e-02 4.539992152396081226e-01
2.245519169052604888e-02 6.134505727241392273e-03 5.306021994520025986e-01
-2.163014896780639934e-02 2.355714594013250812e-02 4.424348577755596867e-01
1.203751040273486235e-02 7.036128976102468124e-02 4.710408993681674539e-01
2.420114865887603925e-02 1.291905481601920980e-02 4.493015327851561658e-01
-9.370509442276103718e-03 4.209423428687507698e-03 4.380349936509847497e-01
1.696753943346825458e-02 1.769737923682846228e-02 4.485764145650629198e-01
-6.690726912837828035e-03 2.681076225342497385e-02 4.456113025498683045e-01
2.645047763290870463e-02 3.772020338084230984e-02 5.105112432307207238e-01
-1.604753021077454794e-02 2.546615006607709161e-02 4.435815614650153171e-01
7.006747223582485661e-03 1.008600341833973141e-03 4.397966744884911905e-01
4.324374668888866791e-03 2.871382147959998174e-02 4.490834090187768579e-01
2.611643244398098584e-02 2.240411815423396999e-02 5.217501886757761609e-01
4.055436751157498118e-03 6.636045326596309857e-02 4.641357091689386483e-01
1.500982036357074480e-02 3.291847177044526784e-02 4.544763433678380982e-01
6.980230002209224585e-03 1.250588852422237357e-02 4.438071505944470863e-01
3.077881475188039978e-02 1.738174455988734241e-02 5.213010524860448580e-01
3.016249349435060761e-02 4.197718241620038149e-02 4.689820677972287299e-01
4.042287746429398636e-03 6.693447205930817823e-02 4.645178401042827643e-01
-1.551651569518752542e-02 4.379012421347835277e-02 5.179693067758263103e-01
3.098900048664308959e-02 2.876266183462891646e-02 5.108971753586708520e-01
-2.621401740542787101e-02 1.476187578750445817e-02 4.400302769988729823e-01
3.131618430262170932e-02 4.724867791396398370e-02 4.763224266412704466e-01
2.454974134629552690e-02 5.474727113262487649e-02 4.730852697155512598e-01
-1.643065054801746624e-02 1.334406705182194543e-03 4.367332340395780332e-01
-9.685480735172440070e-04 1.388291609871724307e-02 4.423579557028016196e-01
3.336524469315309965e-02 4.654853395258320981e-02 4.849292503460231329e-01
3.855120096696236509e-02 2.906161957911878105e-02 4.704797200494084675e-01
7.007818763726161165e-04 6.854927243944915205e-02 4.650196170417281172e-01
1.060303675810434117e-02 3.655292701242371378e-02 4.545610455674547468e-01
1.141774295845631110e-03 4.046831534017933038e-04 4.382913654572372364e-01
1.859797967758060680e-02 6.948341212798374300e-02 4.817860771785594798e-01
2.160452590305851975e-02 6.454628976222229197e-02 4.882634431047469525e-01
-8.509128251998213446e-03 1.318483637757922322e-02 4.408995866104820638e-01
-8.312727450796310660e-03 4.107052480394610128e-02 5.205363559360697279e-01
9.832592988954953761e-03 6.100152946820690952e-02 4.635978534020996911e-01
2.576916698510476472e-02 2.600727331349131366e-02 4.564064237114017764e-01
2.052263811789344777e-02 4.689642032473656519e-02 4.638296165980138053e-01
6.118153863979142008e-03 7.226491528363591932e-02 4.891633489138568769e-01
2.119117676561949049e-03 6.995543499134469767e-02 4.701960631347953390e-01
1.471602215231480881e-02 9.521403196174314104e-03 4.447214598204018432e-01
2.114033481379442095e-02 2.381864239885015527e-03 5.320166030470390162e-01
-2.699988939154062545e-02 3.104849087412055869e-02 4.445281093591207378e-01
2.628908801791706232e-02 3.600102419372946255e-02 4.621856868793993711e-01
1.332195857574527270e-02 2.626687764085947063e-02 4.509187547777422367e-01
3.666536425078234518e-02 2.294794881846069085e-02 5.058453749100397800e-01
-3.358047828993773742e-02 3.394956725564899497e-02 4.453505584108040649e-01
3.431959291329960554e-02 4.126782895416533647e-02 4.948704783787340467e-01
1.626760919523410898e-02 3.726038651580077660e-02 4.569960901166196798e-01
4.440554465566590690e-03 6.102131428191246570e-02 4.604104538060806440e-01
1.459885542213411151e-02 4.609985109760693367e-02 5.135036970263975320e-01
4.235010335372064311e-02 2.084325847183323907e-02 4.719879771032947091e-01
-6.480497476971817071e-03 1.627692661447074571e-02 4.422193407320963998e-01
4.101684542153878621e-03 1.161281750304858987e-02 4.427190622065950709e-01
1.538219752987234935e-02 6.873150652025199203e-02 4.722694193617123504e-01
-1.686217016045872888e-02 -3.504962280576808670e-04 4.365638965530264648e-01
3.416810962528993301e-02 2.440087383811750943e-02 4.619682017013684305e-01
2.287095962745874442e-02 1.056826899525122217e-02 4.479287925937369130e-01
3.221433162323587406e-03 8.585067099516393435e-03 4.414144585096066997e-01
-1.358041395818103750e-02 4.071189030242764600e-02 4.497073677171615769e-01
1.015917459380684396e-02 7.149114559932358282e-02 4.710460875391667690e-01
2.225988814347158382e-02 6.262312071309908412e-04 5.328272001501122013e-01
4.360571323349517886e-02 2.238956690044140510e-02 4.808542244748606476e-01
2.501350267213189177e-02 3.980156463741361256e-02 4.633728455768336696e-01
5.299068180919732848e-03 5.390639773666659057e-02 4.582285114898057010e-01
2.050916598866361559e-02 6.303158016903383232e-02 4.930083076932741948e-01
1.252479399299403530e-02 1.257913279564996760e-02 4.453430894017054165e-01
8.186259672539674542e-03 1.277663367710752708e-02 4.442434913711235112e-01
-1.645539387339036612e-03 5.886839919881831779e-02 4.574427329522881558e-01
-1.609636345637170673e-02 4.155907223843402498e-02 4.496319919963869260e-01
-2.480236951904427056e-02 4.335085957319952804e-02 4.493431905623708200e-01
2.250005211435153474e-02 2.283157639091301649e-02 4.528664278299657231e-01
1.389810934479830673e-02 6.347094936944341903e-02 4.674904974358062293e-01
4.597363194852623763e-03 3.799770054022529042e-02 4.530573149898202701e-01
-3.773373673756232061e-02 3.527016420041908379e-02 4.459126899902816632e-01
1.901961860988745159e-02 1.316098293162109439e-02 4.474101833635303893e-01
5.996002152592015688e-03 4.801296537345037252e-02 4.567593328640276451e-01
7.048090922116824648e-03 7.764173417158569401e-02 4.775446021274176722e-01
2.414417331480381984e-02 2.345315285311669329e-02 4.541271943810530898e-01
8.801987813140590283e-03 7.050427696829966728e-02 4.975777001225093477e-01
-1.995709041223796970e-02 4.067055561933186070e-02 5.154849420361057311e-01
3.119500379246927316e-02 4.824621273264455973e-02 4.774134769016317725e-01
1.646162937674981730e-02 3.756728694859637341e-02 5.179388302846547054e-01
6.810963254520135610e-03 4.438291564562844849e-02 5.184017143205887912e-01
1.401257607251040448e-02 4.146571329425995794e-02 4.578910699170101184e-01
1.545361223697464502e-02 7.257230962750815806e-02 4.797020711886029187e-01
-1.576303352923015717e-03 5.556254106969157891e-02 5.109523712978624177e-01
3.639597912223321158e-02 1.836604324666328558e-02 4.605858884908076156e-01
2.433762905829370965e-02 3.138296949306298989e-02 4.581980573916643040e-01
1.451867386579424983e-02 2.884920786460493450e-02 4.523955045507247474e-01
1.728488405266022029e-02 2.881545804482947212e-02 5.238492137938240978e-01
1.604122225543126723e-02 6.275712212775977350e-02 4.993429093709876310e-01
2.149114037968519186e-02 6.355444076089708516e-02 4.906685403874043172e-01
2.030738363828517648e-02 3.522861482688874335e-02 5.169224809287640277e-01
2.472795850298274006e-02 1.702655656509045878e-02 4.512450212357959067e-01
-9.692870966867238314e-03 5.210485200234957898e-02 4.542773072582990679e-01
-7.773068551556813624e-04 7.652046145199204244e-04 4.380590548542490636e-01
