3.218992861596316202e-02 1.961945182408103908e-02 5.177823785770261367e-01
5.814599709024100005e-04 4.199297537108400563e-02 5.199410162865193419e-01
3.031232002284820620e-02 4.299732917254716486e-02 5.021831945120522889e-01
2.643006673603642484e-02 4.171934071043249814e-02 4.656583396247329087e-01
3.135893669626348135e-03 5.399856510869067983e-02 4.573264109054366866e-01
-1.696892843774481900e-03 2.307297743771802995e-02 4.454245708658523539e-01
1.587890800777530184e-02 5.896023850498631480e-02 5.051305018833365246e-01
8.065533964691935440e-03 3.296182897101444104e-02 5.217839692210614055e-01
-2.140604600578729227e-02 3.746570329379091818e-02 4.472440246352238913e-01
1.511773390372627129e-03 6.580959491116841753e-02 4.633031283366778608e-01
1.532928712888791123e-02 7.229980565720967034e-02 4.857221357480173141e-01
2.036583013747464768e-02 4.224076375325328675e-02 5.127456100294144337e-01
3.222829808518200279e-05 5.873158001856124133e-02 5.064116847347437389e-01
-1.410407391422180759e-02 2.028059885713363875e-02 4.422069699211794713e-01
2.612827391026114471e-02 4.661806738870855060e-02 4.681719451395659481e-01
3.544875176896488539e-02 2.044603075916850282e-02 4.609320904389350160e-01
-5.176982523795739533e-03 3.548378814798829051e-02 4.494289258147099453e-01
1.126255839267283239e-02 5.169930458720965044e-02 4.604914050313392848e-01
3.932120836191697368e-03 -9.308348635133772975e-04 4.385546701859850405e-01
-6.546004399953045741e-03 3.397561623064349057e-02 4.484939722548707541e-01
-5.209933074305072437e-03 5.050853748859063935e-02 5.154544703912450343e-01
-5.286697686373242021e-03 5.417119499320748738e-02 5.081335145413917731e-01
1.452779764700658401e-02 7.348549438573903636e-02 4.808346956456794330e-01
2.615021811731266330e-03 6.722687507382978100e-02 4.968510555679977458e-01
1.603705521883604795e-02 4.026211459582805519e-02 5.159103102901090310e-01
-3.811615218451137183e-02 4.147878951769100320e-02 4.503236159214894507e-01
1.785385138470623953e-02 6.372122493448517666e-02 4.709769224798701637e-01
1.565306373749329044e-02 5.271321922809006633e-02 5.095052495683257687e-01
1.051359245829929824e-02 2.228388755127146473e-02 4.483923038063077904e-01
2.264203143161777967e-02 6.127987258524957709e-02 4.920192375414851882e-01
1.792721318096928557e-02 6.696932310120591592e-02 4.739405184207845512e-01
6.009369788163166325e-03 2.892438740702103165e-03 4.400942533865219719e-01
-1.382335921703757749e-02 4.475780303645143787e-02 5.182251717264462210e-01
5.002637616614345403e-03 1.826519763576321329e-02 4.453729266077747218e-01
1.969999541493567402e-02 4.888982302474432357e-02 4.641882424434286003e-01
2.526529621104919680e-03 6.996804120696124840e-02 4.698724628303854733e-01
-1.892740189605441117e-02 5.929748789876589793e-02 4.609338510161906100e-01
1.968786906760191732e-02 3.100931916791462017e-02 4.554321822285379295e-01
7.823797878968884179e-03 2.891025779531610634e-02 4.502629483053927073e-01
1.731787847395635863e-02 4.550961460863185010e-02 5.124546998871987169e-01
3.636304740410060271e-02 4.038794245394011079e-02 4.821837373388547232e-01
4.121462170670554814e-02 2.255051930873801930e-02 4.706886682297048985e-01
-1.756888307975280894e-02 3.979435750742308514e-02 4.487352371186516531e-01
2.314769755503972085e-02 3.741786526610508395e-02 4.607691659420721231e-01
3.093113588492558963e-02 4.571221052029669774e-02 4.737649405904047484e-01
3.071532590559090947e-02 5.034298331546805533e-02 4.831317213861143212e-01
3.896502530860413392e-03 3.422987707792500556e-02 5.217648020786165297e-01
6.821399412510992938e-03 2.431951764500410104e-02 4.481823155921633717e-01
2.825865403051593810e-02 3.819930991799289077e-02 5.075799722956549909e-01
1.023192191624388604e-02 6.262616677307442092e-02 4.646694765571603436e-01
2.182639216907855673e-02 3.348455967981649878e-02 5.173153055014053647e-01
1.551206866056960114e-02 6.901549235670549620e-02 4.929295265248467839e-01
1.202609402476634629e-02 4.928499993471332358e-02 5.125556885086919312e-01
3.944037461949508050e-02 2.552576302119915000e-02 4.688913632427326728e-01
2.396960986512786801e-02 6.053868413223872230e-02 4.774076820990055814e-01
2.109619436991995445e-02 5.096902600080545354e-02 5.070217371889571556e-01
3.499652680074086947e-02 4.061306144076822638e-02 4.759640674930173954e-01
2.502399996015395450e-02 1.872596838865303939e-02 4.522672712722883848e-01
1.862029230783577086e-02 5.646973861609108636e-02 4.674204421634805540e-01
2.645071721157823963e-02 4.774066643271226984e-02 4.695700053267283236e-01
2.905225389316256832e-02 4.921622552140048068e-02 4.954423380674631283e-01
-2.071598783451105916e-02 2.550613924540608840e-02 4.431618976363216889e-01
3.504559411984175393e-02 3.499504506638911189e-02 4.999862523090393696e-01
3.475364407369859604e-02 4.186752797297222523e-02 4.772436229657491813e-01
3.272592173443721747e-02 2.091565102544835214e-02 5.159115628209930415e-01
2.945128286574049195e-02 3.391377285505800532e-02 4.634475247087259109e-01
-1.999942939974819547e-02 1.333895434663043104e-02 4.393669373673088629e-01
2.406669571558640863e-02 1.170676725095979621e-02 4.488153601799444448e-01
7.001235219542404839e-03 7.119880526807748078e-02 4.701698028280233976e-01
-2.724184040259081379e-03 6.791892002605959267e-02 4.663777342744332977e-01
-2.530853270747665876e-02 1.685780609972992866e-02 4.405080733767725576e-01
3.071439258991952304e-02 2.518026871563370031e-02 4.593698452763793072e-01
-3.946868640129288369e-02 2.686698379206506684e-02 4.441099757174274965e-01
1.673475170455339389e-02 4.839807338300236572e-02 5.108556568656056340e-01
1.735889113171107043e-02 5.843433467537710591e-02 4.674748222084333937e-01
1.590910142209806324e-02 2.878186143241156722e-02 5.241447395037746038e-01
2.597724818117290533e-03 3.593720061759943241e-02 4.515621808360965050e-01
2.179104005612991085e-02 2.171280784091228142e-02 4.520096658043910587e-01
2.405296043521483462e-02 5.621212962418133119e-02 4.735891465576229087e-01
2.133854039456811041e-02 3.384686826386335001e-02 4.576212319565871600e-01
2.549273016677595927e-02 3.343842644679276277e-02 5.132953239592996653e-01
4.036322566280354379e-02 2.327941144483592142e-02 4.691980105790413691e-01
-1.829243958789086161e-02 3.113470187930973340e-02 4.452875930834641616e-01
-1.148230440554593237e-02 -2.301034726232133870e-03 4.364714129337338155e-01
-2.799591696470645624e-02 3.876797790843351278e-03 4.378972474529028713e-01
-5.838685882542031351e-03 3.981840135103070083e-02 4.509380593373873980e-01
-1.056185005740002680e-02 4.070437738227259371e-03 4.377678131913104731e-01
1.319467460599869219e-02 6.826097990661567083e-02 4.702348978222845033e-01
-3.404744863774500363e-02 2.983510235953169831e-02 4.441386759974244591e-01
-6.355149967013745162e-03 5.984875852063503698e-02 4.574369251436722905e-01
-1.800674764347136997e-02 4.290108620661536171e-02 4.498624641649180411e-01
-5.141056174780682733e-03 2.412796066806550954e-02 4.449972743112503015e-01
-7.757689817903320496e-03 5.025780944084735219e-02 5.147874100282733290e-01
1.380662858033414840e-02 2.979277425942069429e-02 4.526070314568552133e-01
-1.792643682453067336e-02 2.771886634312795486e-02 4.440330905721602828e-01
-9.442967113403148011e-03 2.855191395481505162e-02 4.456402936515112545e-01
2.316467521665668133e-03 6.471840493790537163e-02 4.626844221765151199e-01
2.467632505278686758e-02 3.961351807391184227e-02 4.630072456295136751e-01
2.100683458987588278e-02 4.849535309175712766e-02 4.649157430245941525e-01
3.269297179241038853e-02 3.651127032964759933e-02 5.029161980440378654e-01
7.115798256032032816e-03 6.566460383100271303e-02 5.036716725255537819e-01
2.883436367107939172e-02 5.429673417321343593e-02 4.852389725138975263e-01
1.489944130755439973e-02 5.671584642476173999e-02 5.074405171310040208e-01
-8.600908128600055075e-03 4.150539379130457895e-03 4.381719159767580307e-01
-3.603005360592267947e-02 3.268229687489230401e-02 4.449457301784051078e-01
-9.470804358417635183e-03 -7.345027161828310801e-03 4.360968170523159548e-01
3.793670697986070706e-02 3.624256744449937812e-02 4.874722798687615710e-01
1.795004274968353339e-02 3.001608216838264065e-02 5.225658156260132303e-01
-8.937149549507420604e-03 2.932670983799775741e-02 4.460660131589949673e-01
4.170140043958443093e-02 2.595297180172605883e-02 4.897248149897833747e-01
3.179442632877498010e-04 1.514070175704261903e-02 4.431011091156987769e-01
-3.176339849184930952e-02 2.003000337698850747e-02 4.418570325936767573e-01
9.684618458045213610e-04 4.775896596240943731e-02 4.549024233412538587e-01
2.413399929863221244e-02 4.089102006498142317e-02 5.098526374024796581e-01
-1.378853202973189494e-02 3.593390231646784172e-02 5.206765277277768389e-01
1.982301740897528253e-02 2.179494632707106028e-02 4.512150013404408466e-01
1.682419120245731356e-02 3.650506499671930805e-02 5.183286931031260147e-01
-1.295264981950824783e-02 5.232298360334661225e-02 4.539136517597461840e-01
4.705220915744816323e-03 2.731879714595686869e-03 4.397505888226436177e-01
-2.033511768867187625e-02 1.934246011002710170e-03 4.366857639760115539e-01
2.822006692371469699e-02 2.428380763080835447e-02 5.191967142221000087e-01
2.292148200873763211e-02 6.347640915895448599e-02 4.860647722200370779e-01
9.217182767820908396e-03 7.721500228484290407e-02 4.794890789099420791e-01
4.892136599549529868e-03 2.854046369646582454e-02 4.491982303029061208e-01
3.037809518719480559e-02 4.968411647907274020e-02 4.910352428922502011e-01
4.288089644967417458e-02 2.059652131234658567e-02 4.734590836830956939e-01
-8.949793512890786423e-03 5.164145841032729417e-02 4.542583068583169181e-01
4.639125767795495604e-03 2.782761744407402302e-02 4.488411839285253446e-01
1.296988705497047721e-03 2.962518617578222685e-02 4.485671923415764373e-01
1.365745009373271410e-02 5.038100831677847641e-02 5.114622746711909862e-01
-2.452568835248436410e-03 1.910442172334387081e-02 4.438581740861501368e-01
4.365743818659767461e-02 2.126475921214870252e-02 4.780438171887533283e-01
-3.245275949637939188e-03 4.874896469193096965e-02 5.174292245982611282e-01
1.738423878623437252e-02 4.013860705421576358e-02 5.152300523050553638e-01
8.710589340012236600e-03 3.979935617440383960e-02 4.552195312296060670e-01
1.305656173672393181e-03 5.954490016685293902e-02 4.585651624776524993e-01
3.669707752985430782e-02 2.144469834772739017e-02 5.069141239925530895e-01
2.276199250384592157e-02 6.181436161114928218e-02 4.905971493254442373e-01
-7.832083480556646660e-04 3.822208202420571826e-02 5.209838792568917132e-01
6.387781513532000272e-03 2.593482407396071124e-02 4.486551898336318955e-01
2.292486957591081953e-02 5.495108110538228507e-02 4.998764463223560051e-01
-2.767512875944668979e-03 2.003014953115905133e-02 4.441094399099878021e-01
9.809650607968315936e-03 7.106402834435479599e-02 4.966540919731752823e-01
-1.952854737304516100e-02 2.783859934958301044e-02 4.438691536732639054e-01
-2.880055875936739576e-02 1.357071530287733141e-02 4.403389849830076641e-01
4.195291783233093957e-02 2.408306341733904704e-02 4.748815424850638678e-01
-2.041787761586373942e-02 3.404625370951225305e-02 4.460557978455590433e-01
3.068458184380355377e-02 2.159101665622281674e-02 5.179776661368744595e-01
4.247674776988117490e-02 2.543568200990704159e-02 4.833616275173497345e-01
2.565831671007408679e-02 8.028096562073250980e-03 5.289793607393922237e-01
-6.226451859923907289e-03 5.290522100273972739e-02 5.118307674940320018e-01
1.690827538429835394e-02 6.808898843271253554e-02 4.735503289544190642e-01
-3.321015628232220490e-02 2.218739210322185143e-02 4.423426457760918917e-01
-2.430095478320468821e-02 4.730210498937646724e-02 4.515771299202485656e-01
-2.048628502241847324e-03 2.284502212860551815e-02 4.452596843672541049e-01
2.989612598822760300e-02 5.065337034752669804e-02 4.900092493087768175e-01
3.064614365919102537e-02 4.797601418573946286e-02 4.934162249164977809e-01
-8.139077920687413231e-04 6.489383144365030998e-02 4.621254690162911460e-01
-1.478416865946859116e-02 8.404035063061712774e-03 4.380849826995127927e-01
-1.486337766925260526e-02 3.840721949359041099e-03 4.370020464140830785e-01
2.355087051291600373e-03 5.654709766253500358e-02 5.102506623156637389e-01
3.955041699266500371e-02 2.873919693433822989e-02 4.945593387904816396e-01
3.237043706505268043e-02 4.704396531679191223e-02 4.900939138181701904e-01
-1.904909470821818801e-02 2.131102241668001232e-02 4.418690551352165707e-01
-1.015771854941859660e-03 3.090298959142894278e-02 4.484701438767750292e-01
2.725732411688489704e-02 2.214857469449314428e-02 4.553686245034462288e-01
2.987114240257819631e-02 4.531867936834598626e-02 4.716909133639237695e-01
1.902713200497350293e-02 3.259057566407620732e-02 5.201380330250379158e-01
3.977294999702232076e-02 2.688007606414899095e-02 4.713785709230002841e-01
-2.107202159526947935e-03 3.921281741615069427e-02 5.207998712018514498e-01
-1.696090987847517252e-03 6.485344088150427067e-02 4.619024817614373335e-01
2.455186551689389138e-02 1.198573746674089918e-02 4.491034131450355460e-01
2.435858383678775763e-03 5.717127722030596743e-02 4.580789825777851765e-01
3.801031385386816064e-02 3.642481556707215240e-02 4.822782111358842050e-01
1.978064343673719555e-02 5.607822748683086167e-02 4.680809427046525029e-01
-3.115489270428551186e-02 -1.585222058625458934e-03 4.383523366631613127e-01
1.862226058507207918e-02 3.228412622539354043e-02 4.556288832448053827e-01
1.814916698818593715e-02 5.352432744004258919e-02 5.077967636901092874e-01
-1.887533467848310359e-02 4.906983182567865864e-02 4.524329201520083665e-01
-3.048800981110180719e-02 3.130455424386455882e-02 4.445371809105463923e-01
6.813855748604727425e-03 6.761593597225951102e-02 4.662445972086323720e-01
1.999632322837670284e-02 3.610335710225064804e-02 5.168097772885360541e-01
2.666940473208280829e-02 4.849036084076972786e-02 4.706546408262189396e-01
7.237833878836582441e-03 1.347655658848822408e-02 4.442430887915452264e-01
-3.244954030445798641e-03 5.303621676861735440e-02 5.129773154001252555e-01
-1.226514555441162585e-02 -4.658378357971543378e-03 4.362866462190975181e-01
4.037705758267483291e-02 3.081150893158427634e-02 4.850713134252334080e-01
4.048824400353120967e-02 2.476926421477269533e-02 4.710641758003553670e-01
3.649448622913421814e-02 3.847714388051180073e-02 4.922736746046152967e-01
6.175567287409479758e-03 3.103640548119089571e-02 4.506685357634940270e-01
-2.136938266950521095e-02 5.304471859845985050e-03 4.369655016391258417e-01
1.584082578674015718e-03 4.493122075131508047e-02 4.543366048269834034e-01
3.249991524546205768e-02 2.018752760208512853e-02 5.166976326433168065e-01
2.913261688125664411e-03 6.817479468489395789e-02 4.963467385153765288e-01
-4.009120738484112101e-02 3.002619946284150118e-02 4.448630591646985377e-01
3.089726614640703542e-02 4.437318205003822069e-02 5.000420525725307597e-01
1.604646659690811550e-02 4.855650180890203060e-02 5.112050256384805813e-01
2.701824362087021023e-02 5.780503422692370719e-02 4.806005065970174184e-01
2.272243219810284737e-02 1.010266248831166204e-02 4.477074854220833289e-01
-3.605373194125361530e-02 3.789400244608873147e-02 4.468904517111961794e-01
7.058033849073995156e-03 4.378575667742504521e-03 4.407703115003517302e-01
3.743739957975480981e-02 3.730948494221306144e-02 4.885754914354770162e-01
-1.004993618648044630e-02 -3.386149282960611295e-03 4.363992516211971373e-01
2.610085288815517345e-03 3.847747885672218870e-02 4.526022332169870599e-01
1.891631433841861262e-02 3.617375421242631506e-02 4.575646554315096481e-01
4.200577673052370564e-02 2.684865234483543861e-02 4.829009575001196874e-01
1.855624021917715721e-02 5.411117232938578853e-02 4.659885097928869180e-01
1.491582972433100340e-02 1.195584079113419691e-02 4.457313417828896451e-01
1.961005793776104955e-02 6.278349665650123645e-02 4.728164091167808003e-01
-1.823318602456679496e-02 4.001817178954182597e-02 5.191568767394876271e-01
9.212534837235462903e-03 7.089122630435619465e-02 4.968891635718579169e-01
1.725438644033022717e-02 6.788593813954825473e-02 4.738802147579836976e-01
-2.057206191926326880e-02 4.458643580422175928e-02 4.501898754939312464e-01
-1.146137437311776051e-02 5.360914264780347604e-02 4.544982094387822191e-01
8.751213126791591856e-03 4.769968556244096047e-02 4.578354120755117052e-01
3.223749455993427625e-03 1.930511758395489844e-02 4.452916290156104795e-01
1.594442272851404399e-02 3.080309509331804682e-02 4.538660595024212596e-01
6.533599624839429507e-03 7.657355757148841258e-02 4.758436852354171465e-01
2.261272702517482316e-02 6.091892063312440847e-02 4.758038005928503789e-01
4.970808954318776084e-03 6.208459870754902410e-02 4.614465190797718552e-01
3.260762587300086723e-02 4.189888061756087689e-02 4.993831385788977673e-01
-1.200405395530102469e-02 6.794528951556674801e-03 4.382494763722999398e-01
1.249254313773743783e-02 4.731462755704086282e-02 5.138658179608818211e-01
1.640830920512238375e-02 4.958587317164503405e-02 4.624572979675672935e-01
8.123961796097372776e-03 6.169230116100325734e-02 4.630341940597027528e-01
2.272472699320472050e-02 3.362588959505256880e-02 5.154831659049896597e-01
1.071802109330317020e-02 6.541600577788010684e-02 5.022764059974427209e-01
1.191419354517406909e-02 4.962521511603630586e-02 5.123711548885299116e-01
2.598405335033297792e-02 1.542476126815548777e-02 4.513309973166712563e-01
1.868832974276831566e-02 3.623947586822991174e-02 5.175984429554092436e-01
9.542101087726498690e-03 7.585717005944382640e-02 4.819456732858549697e-01
-7.787930516531891244e-03 3.627558332768867494e-02 5.218139147459773808e-01
4.166657870779171685e-02 2.715272503138694768e-02 4.790549934270798005e-01
2.189277241160761042e-02 3.171279332371877702e-02 5.201375834248594954e-01
8.531219601627665697e-03 2.964746679509084812e-02 4.508332834963635904e-01
-2.403275734444811074e-02 2.072105493324422412e-02 4.415048997146027721e-01
-3.589440087095485676e-02 2.876195066595783195e-02 4.440364362320682323e-01
1.322899358118298507e-02 3.280087033906349536e-02 5.209536062485943253e-01
3.997065475401526818e-02 3.181465678890753324e-02 4.838748859890805165e-01
3.680358193762967717e-02 3.868760199310891656e-02 4.893114772897859677e-01
2.861067797050698136e-03 6.533954898553259727e-02 4.632476604209145310e-01
-1.777268513203061027e-03 1.584398739284519769e-02 4.428654397683193245e-01
7.603722286982656647e-03 7.449200275784996494e-02 4.858914305547059609e-01
6.656499227852786735e-04 6.520798093968242781e-02 4.968205842728708466e-01
5.140340270400654311e-03 7.019956411606581223e-03 4.412638347063453370e-01
3.007925849490654044e-02 2.831341825350863761e-02 4.606093301707244181e-01
1.836227563081716321e-02 6.043118445866514643e-02 4.692879401919465288e-01
3.305535908558052821e-02 1.286512745062469779e-02 5.223308126330170609e-01
-2.514663018561354157e-02 2.499463023681202864e-02 4.427654235943751515e-01
3.596311352564431074e-02 3.635956804351057892e-02 4.726586017483777602e-01
-5.477167394900651909e-03 1.177945657738054680e-02 4.408986416841266243e-01
1.364312826308427401e-02 3.885723386497241111e-02 5.184333783563626064e-01
1.041311804522016340e-02 3.999111539905323559e-02 4.559023539354567500e-01
2.244403690015248781e-04 5.561411529755829614e-02 5.109419116538422845e-01
2.431212621411785180e-02 2.868366561650146501e-02 5.205944662669657053e-01
5.972720975909661181e-03 7.736307972931341648e-02 4.791965611156852045e-01
-2.092266178951182262e-02 4.266346416290789020e-03 4.368705638300454108e-01
-2.085428595683510786e-02 5.874085246431509644e-02 4.607441654439392575e-01
-2.910630013596932422e-02 4.867940139652348133e-03 4.381682034126845871e-01
2.552588407278782653e-02 2.499572421222999788e-02 5.212441647279699719e-01
-7.012897066423312738e-03 1.308933865556877359e-02 4.410930212744297862e-01
4.528958332948055873e-03 1.106290272075341127e-02 4.426154967559822184e-01
1.082485326286182839e-02 1.458659698312925537e-02 4.456411395849748658e-01
-3.187369082164194511e-02 4.529344956320095761e-02 4.514112475261984336e-01
-1.661772355418906014e-02 3.614708672368519699e-02 4.474642628633768160e-01
-1.699299689153824580e-02 3.700165664851667868e-02 5.193280505293044191e-01
1.845923666759602400e-02 3.580000306505630447e-02 4.572203355073064523e-01
1.730610464317500208e-02 4.730713740522137639e-02 5.110164761703991365e-01
3.400992664224267853e-02 3.878212626194804669e-02 4.995268012969876215e-01
1.319301244651497132e-04 2.886011097893885838e-02 4.479822652968940555e-01
1.778172913740989208e-02 7.009885615470301534e-02 4.796932862880298187e-01
2.741086646113280456e-02 3.658327277873824057e-02 5.103562966016294000e-01
3.001277292375061773e-02 5.074426217784899079e-02 4.778618790474902234e-01
2.822014817629093716e-02 3.113601995088774443e-02 5.117491333023236333e-01
1.842497625067638072e-03 3.874885989617829485e-02 4.524553209558288547e-01
1.970439433966486922e-02 5.147367464351713939e-02 4.653710725178490937e-01
-2.266377204191672920e-02 4.540352583988903346e-03 4.368665868702454880e-01
1.522862160599023316e-02 6.751292458051985634e-02 4.950491517326470747e-01
-3.089146005286099589e-02 1.454522118602247227e-02 4.408722437425438567e-01
2.360833282468024347e-02 3.764737311770751521e-02 4.612272451964859465e-01
2.304438346453837466e-02 5.756253205075827217e-02 4.733113818984535648e-01
-2.099934165232886576e-02 9.678632888638325632e-03 4.381222507272666822e-01
2.712733490622583343e-02 3.097605281829262855e-02 5.136162034194934334e-01
-4.376714981750907431e-04 1.821732096598508224e-02 4.440203484901896203e-01
1.726390172131793063e-02 2.782593221652720702e-02 4.530035742200437254e-01
4.000143543423517745e-02 3.147968714490587128e-02 4.870182146888015762e-01
1.227934033586856530e-02 4.062884858014194529e-03 4.419271970573147579e-01
1.874343323951857196e-02 6.513374084960729671e-02 4.735580348855793487e-01
2.489245333133691465e-02 3.412033129076422200e-02 5.135890586699415339e-01
2.571430112445594052e-03 5.239544753259972598e-02 4.565901178242661729e-01
2.942625034273782178e-02 2.233827041286126289e-02 4.568595107884224626e-01
-6.589673718235518687e-03 2.023150606863453622e-03 4.377563417743104424e-01
-4.324192505395562346e-03 3.903184171533929242e-02 5.208617668386880117e-01
-1.807432732360706243e-02 4.180626170875595404e-02 5.153502119004779169e-01
4.987238130509204746e-03 3.874933031254538390e-02 4.535121574539035527e-01
-2.197156244301656444e-02 2.474301576579809175e-02 4.428133329039510846e-01
-1.325954212729461845e-02 4.434052198100944808e-02 5.128271434108256921e-01
3.537628288470375318e-03 2.673723485372994993e-02 4.480822427749965864e-01
2.403268500364607457e-02 6.234804021625707515e-02 4.807695541064377909e-01
-1.211220222915031924e-02 1.109991459592525945e-02 4.394301823301142718e-01
-2.465892360584340508e-03 5.458317504204968779e-02 5.115202778393428407e-01
3.746505341301269859e-02 3.711295134056455391e-02 4.778800124668542426e-01
-1.226570455131281538e-02 5.070791652289615564e-02 4.533873978308298192e-01
5.166825639602919129e-03 5.343270862220494272e-02 5.116893545854648284e-01
2.995641577960752103e-02 5.059243090814013327e-02 4.899650635919617914e-01
5.735280849141887599e-04 6.312728907597270345e-02 4.610807284742377554e-01
5.470539934957640779e-03 5.677653406218090802e-03 4.408532211455866712e-01
3.949200631557180791e-02 2.735386932299335022e-02 4.711149396365447162e-01
-1.043024207928638925e-02 5.817453362853095694e-02 4.563448393530428748e-01
1.876985865986847621e-02 4.933678288751158769e-02 5.091634212501939816e-01
8.010661273005132907e-03 7.343126727867385628e-02 4.731992065841805761e-01
4.304862521990434482e-02 2.205675552128973094e-02 4.760507805564556660e-01
6.156429438625001492e-03 3.233953871393445423e-02 4.512572434260574417e-01
-2.460144412774818365e-02 4.523905961760074645e-02 4.503930389532476153e-01
-5.587649887341230096e-03 3.586176231548532378e-02 5.219965607609408087e-01
2.489066094626623399e-02 5.339894728041917615e-02 4.983533950419858916e-01
-2.152179876586166225e-03 5.570131805662451724e-02 4.563466521367341433e-01
3.303000577825147138e-02 1.798781828279547718e-02 4.576506455799789208e-01
-4.621572919775252496e-03 6.276291930289838727e-02 4.600728116786211852e-01
1.238898529476908233e-02 6.777086255154407546e-02 4.692160142857193517e-01
1.791034519481869008e-02 7.015274122389368594e-02 4.804958250776181217e-01
3.458704090580691504e-02 3.360275575996575503e-02 4.678014777320383955e-01
1.402806967103722817e-02 4.117007606246046725e-02 5.166264897920368471e-01
-3.334803995690834716e-02 2.478290922322881618e-02 4.429397647247751979e-01
-7.993533923169617722e-03 6.830413779655491666e-03 4.390206922730589545e-01
2.743722848523030486e-02 3.388076677698884792e-02 4.618255937636914776e-01
1.296724355627755509e-03 5.631512855990519067e-02 4.572674136731110228e-01
-1.921648184830605441e-02 5.893924092591781155e-02 4.592648812048283347e-01
3.151905539662526456e-02 4.536507547680664054e-02 4.743847054695428667e-01
7.618675236027791162e-03 6.331812657940424915e-02 4.636595656970880497e-01
1.112952522541470549e-02 4.703458096387257842e-02 4.585607445048287545e-01
7.971116286385210997e-03 3.823569205927311587e-02 4.543625378151581184e-01
-3.298424200521916233e-03 -1.022035324913962836e-03 4.371864925664487034e-01
2.343696852089587751e-02 2.227610151989265624e-02 4.531181897964971506e-01
1.576945320640969414e-02 5.508287974502480699e-02 5.079955518920411528e-01
-1.292680533372012400e-02 1.190659763810355057e-02 4.395390835348837455e-01
1.146476832224675203e-02 1.108756440564812387e-02 4.444843818562271842e-01
9.901281138020912032e-03 7.172815237069291028e-02 4.950099388731964423e-01
-3.462845966024844652e-02 3.238973746190253883e-02 4.448159070834420414e-01
-1.090773680909138711e-02 4.362704856773678280e-02 5.199392792886382564e-01
1.714017311154427542e-02 4.720795649730823162e-02 5.111652544696436706e-01
2.612771213721496941e-02 5.904042392302827347e-02 4.850793379428953722e-01
4.143621531704778926e-02 2.782533974254720877e-02 4.792491144555831029e-01
1.520692919736562308e-02 3.521288175764219347e-02 5.190855254568391697e-01
2.716733947662186826e-04 6.883930286015083055e-02 4.669596683792029412e-01
3.536570996543424161e-02 4.299562727147101387e-02 4.809780117022373069e-01
-8.214620547506575401e-03 5.047875215470434135e-02 4.539504704309427763e-01
1.361334382034590923e-02 7.332160387878532137e-02 4.877363944933760243e-01
3.731703476690222815e-02 2.226289132624111045e-02 5.052908351766994821e-01
1.652294440155880131e-02 2.833205840383097585e-02 5.243683744059030039e-01
-1.315607817151473805e-02 4.127638984412052708e-02 5.203349714129020809e-01
1.268750017168135055e-02 3.812366225522482999e-02 5.187432937802127775e-01
3.836758305420438081e-03 5.069482389527390359e-02 5.138873961799451662e-01
-2.994817789146086290e-02 1.439153093534529387e-03 4.381738314754458075e-01
1.800317116885679150e-03 4.951521937359386338e-02 5.152598777068343461e-01
5.147108438063090208e-03 6.759622362258864425e-02 5.007793873230552695e-01
6.381775198516837638e-03 4.470489122824679307e-02 5.184134512625776514e-01
-2.518612141719185973e-02 3.978271843764467908e-02 4.478371810852948554e-01
2.548985793570303013e-02 1.055650559541304601e-02 4.489377905102698296e-01
4.294749383848739735e-03 3.910470732324599491e-02 4.534217346764238266e-01
-8.947193319547649612e-03 1.725460074291342710e-02 4.421418782252383162e-01
2.052549942229180829e-02 4.916496990210571238e-02 4.648846691421359978e-01
3.669922116316894859e-03 5.304980544752287835e-02 5.122806532410268954e-01
-1.431869761559026628e-02 -4.366215465228088805e-04 4.366075849206192405e-01
4.085664166387795171e-02 2.455541833452067058e-02 4.718868241875743275e-01
-1.738253236348393307e-02 3.558714184373867884e-02 4.471257099789913703e-01
2.128865201127042375e-02 5.084320402765970387e-02 4.663339199419018199e-01
-1.894274114822770694e-02 2.493683527206129805e-02 4.430204938584703656e-01
-1.270036225643058833e-02 4.563994227538595294e-02 4.514753075522348613e-01
1.201171197674136618e-02 6.841383009194880460e-02 4.694535088106339127e-01
-1.459728805651207967e-02 -4.158658050349339254e-03 4.364311475750308755e-01
1.193998421179893847e-02 9.915059168410317314e-03 4.441441639267961761e-01
3.291020297788183058e-02 2.986020910820524205e-02 5.065512397740148387e-01
2.199467832486532576e-02 8.556740442126415519e-03 4.468304724668928918e-01
4.307331537866099236e-02 2.371892064290400878e-02 4.805260168693519240e-01
3.323960959723151753e-02 4.042072962128800268e-02 4.715972225113371219e-01
9.148595681720982434e-03 4.653732169729608154e-02 4.576149056686181771e-01
8.015512912463008607e-03 3.023448086664605808e-02 4.509317175581071813e-01
1.289660327468590550e-02 7.253583037482275175e-02 4.746472852023930766e-01
1.838825729559375941e-02 2.957930719574029810e-02 5.229473938144678646e-01
2.653098508103320444e-02 1.372035265579416886e-02 4.510193208110266916e-01
2.199994682192235249e-03 3.606536311799031502e-02 5.213824545065350868e-01
1.871977966107542940e-02 5.519285477703216730e-02 4.667987941588757628e-01
7.141702872555839854e-03 1.920236658976021138e-02 4.462991812561902250e-01
-5.945504523637611463e-03 1.624557202535189745e-02 4.422995629426422215e-01
3.629642947067621139e-02 3.379310844569258232e-02 4.698893484090834738e-01
-3.428000492903929969e-02 1.129860171299296254e-03 4.391496823199359523e-01
2.244070890469136714e-02 3.297408567278155289e-02 5.173542428418245187e-01
2.748326204854162434e-03 3.589657091854495108e-02 5.213590578236733108e-01
-1.053360511988467307e-02 4.998767650979772659e-02 4.533206683804033021e-01
-2.704391158096096370e-02 3.296991363757198479e-02 4.451588311865750658e-01
7.474061938275328686e-03 6.213112812559053871e-02 5.061321542698917764e-01
-1.577885644883774904e-02 4.794984008013728621e-02 4.521168921760139181e-01
3.428138496598578944e-02 4.158396949749139371e-02 4.944446898689890402e-01
2.110798378736331374e-02 6.121911294340797588e-02 4.737669362435869558e-01
5.096168636411573492e-04 1.660666348897122876e-04 4.381029187440736994e-01
5.825230166146850436e-03 6.896292389976979575e-02 4.667718595914021051e-01
4.525672918979640330e-03 4.124569767865038372e-02 5.195387438308337602e-01
2.539790009867385484e-02 5.244354851181925320e-02 4.722996314894330472e-01
2.102329198150877307e-02 6.285841029558587867e-02 4.925392967773192243e-01
-1.554348232325082971e-02 4.030151026137783477e-02 5.202271848799755460e-01
-2.397290899880388099e-02 2.398206092272846257e-02 4.424516646578322554e-01
-1.706891117773477740e-02 2.972997373655896988e-02 4.449378934841740074e-01
2.715018903319902852e-02 5.310421903466217702e-02 4.935902328240301951e-01
2.255259249150353557e-02 2.754727029931145627e-02 5.224316340139243398e-01
-5.228827486635246116e-03 5.090609279090294037e-02 4.544413143446470182e-01
8.665239194414708218e-03 3.674918086107722970e-02 5.197877419098956286e-01
2.962113708278095794e-02 4.731919457595817891e-02 4.737262397680665482e-01
2.720572047783605812e-02 2.171619224943479101e-02 5.213652395665596684e-01
3.774445065920908893e-02 3.323060416880369711e-02 4.954272363644816601e-01
1.656592228474552259e-02 2.537777177589134806e-02 4.516378706351285022e-01
1.287482095200112933e-02 6.997183006742738187e-02 4.956562528164956127e-01
-7.513607080297971669e-03 1.294546549305686939e-02 4.409719718435747837e-01
3.246200432990276746e-03 1.771449822118248418e-02 4.447216499493497066e-01
1.977291698476403917e-02 6.395687492833806997e-02 4.740921722452016152e-01
1.155817886381757011e-02 2.585859905328430700e-02 4.501920610016676982e-01
-2.958452520214096756e-02 3.842536673752242060e-02 4.469617315340799202e-01
2.483142575253616952e-02 5.041929340744544241e-02 5.023303879979981179e-01
1.668337598834640154e-02 4.781760631577489096e-02 4.617790250544536734e-01
-1.372589508727068731e-02 1.624742189587716906e-02 4.408693428348106624e-01
1.220589244489278871e-02 4.417980571658702144e-02 5.157865767235526588e-01
-1.582294601592890149e-02 2.555581726572916761e-03 4.368664488527480572e-01
3.362760011545912024e-03 4.404110025470508311e-02 5.191132355602853243e-01
2.177593948293536988e-02 4.602086790535244581e-02 5.088685760003311964e-01
1.374297523761331893e-02 6.471210329383024484e-02 5.002461224482804836e-01
1.902103307756486741e-02 6.371026413461881865e-02 4.727259621110212473e-01
-3.393379470727392322e-02 -4.356732443601787127e-04 4.390744056378191873e-01
1.356544886247366402e-03 6.833854684568343996e-02 4.649739623373798092e-01
-4.281309943069497304e-02 3.230891256860413119e-02 4.457543807708621020e-01
3.204682377202799221e-02 4.353629019287000301e-02 4.731244310911426609e-01
2.378168964060041815e-02 5.640231426279417037e-02 4.957632738437368625e-01
2.167661542614280137e-02 3.843718343556472988e-02 4.603506770252993596e-01
3.546597679764505739e-02 3.957150368708139965e-02 4.756910393286782890e-01
2.325044775484102350e-02 2.450336027199969888e-02 5.227678035929897993e-01
2.221677182795915584e-02 2.799812879538808238e-02 4.551537206007519876e-01
-4.305877576352971914e-03 4.132456370495807274e-02 5.203295773430716142e-01
3.129052887390863791e-02 3.039004250138528651e-02 5.088716441842104921e-01
2.101280883025829008e-02 3.829216719202828412e-02 5.141229121820266590e-01
2.468070810707535465e-02 5.634634581610202531e-02 4.939880290953974074e-01
-7.758935993375109391e-03 3.998099585308786952e-02 5.207326632342048622e-01
2.465485096089793660e-02 1.705689999003514798e-02 4.512301960147695468e-01
2.737263477145811252e-02 3.703303796374698281e-02 5.101245983360606084e-01
-3.283197492140847024e-03 3.312004820029017943e-02 4.488422256450856906e-01
8.762740162969812757e-03 7.645087026434246869e-02 4.828339644061761526e-01
8.165156002341505265e-03 6.008067066485978797e-02 4.622169179600285616e-01
1.213128342135593590e-02 4.677202474983347541e-02 4.589414528997030063e-01
-8.203561826792701850e-03 2.574934853284302841e-02 4.449895476579591169e-01
9.579269579456400896e-03 1.387602829726417714e-02 4.450382048512184774e-01
-3.004242884945243150e-02 3.018163389497323032e-02 4.442665173301775794e-01
2.814514642837100816e-02 2.973787075903603153e-02 5.145157014311515509e-01
3.364685435144754155e-02 3.805068394630724271e-02 4.698945762332625287e-01
3.489676293665287116e-02 4.365585431060518828e-02 4.807960785476811383e-01
8.048837880190052446e-04 3.473029372406943871e-02 4.504630098740295407e-01
-2.263559750660654180e-02 7.000358047811224525e-03 4.373845148077743494e-01
-8.395651371700370638e-03 4.087460520089470500e-02 5.206172646180040608e-01
-2.493486319426249827e-03 1.456574030821500276e-02 4.422542674404033036e-01
2.525604006155537581e-02 3.358656888992274381e-02 4.600229717823610676e-01
3.871807446731170138e-02 3.221275103508868670e-02 4.932454150481100918e-01
6.280418660832176592e-03 4.432751681974721192e-02 5.185661393477289938e-01
-1.499934942803440169e-02 3.286302528237763226e-02 4.464769056759167465e-01
1.366728746708646518e-02 5.952809419405396402e-02 5.064219176061913741e-01
-2.104631983956191388e-02 5.316059027135217052e-02 4.542978222021047396e-01
1.334575178965860184e-02 1.500294303924090428e-03 4.413995671446691582e-01
3.520503776320387662e-02 4.032180085843751344e-02 4.761333395639139598e-01
-3.866672906298238011e-02 3.078807837767866176e-03 4.406051359369552167e-01
1.679975266109373644e-02 7.008835219355116775e-02 4.759876039172431517e-01
2.587667050152369502e-02 1.298968990524884508e-02 4.502625148494389662e-01
3.684514152256200548e-02 3.934682305333246644e-02 4.817617010103330544e-01
-2.711242021595323612e-03 2.036593690781608040e-02 4.442394468025742671e-01
1.158726211162788670e-02 3.335863806897453737e-02 4.534983058620640217e-01
-6.285016396283793147e-03 3.771841661659950523e-02 4.501180908831134420e-01
4.309049601359152271e-02 2.329912988122887982e-02 4.851207143428553636e-01
3.955033517072002736e-02 2.846079841558699433e-02 4.726335972695463461e-01
3.020297438163667067e-02 4.636087887112647771e-02 4.979784164461725782e-01
2.224272474497650254e-02 4.771951126562008066e-02 4.654217761452147939e-01
1.936102062272100632e-02 5.670692497001058457e-02 5.033296614394212609e-01
2.095631290582698758e-02 2.929168141919099091e-02 5.226061912354887928e-01
2.025628442259996831e-02 3.043797859190121996e-02 5.214874909549632731e-01
2.091098538880487370e-02 6.540893640766623496e-02 4.778272135198626258e-01
-1.081059450692864465e-02 2.986391760158737391e-02 4.458929310218008868e-01
1.649195477046291533e-02 2.090449302227142397e-02 4.497260324109800811e-01
-6.620756796776128793e-03 2.588770001867251105e-02 4.453222900923882177e-01
2.655946969869476398e-02 5.287582126892377554e-02 4.955160494214750910e-01
-2.349430779991197593e-02 1.493368462048628650e-02 4.398240194810495995e-01
2.770932598578918979e-02 5.309518524279392693e-02 4.912061503297420195e-01
9.342587446528364051e-03 4.480161398338279588e-02 4.571447778331808043e-01
-9.934369568445894708e-03 3.870918821745727989e-02 5.208896041492709905e-01
2.065060754853272409e-03 3.318480164590785486e-02 5.225251324918669393e-01
1.450581116914920025e-02 3.222371178616856985e-02 5.211221087440873756e-01
2.727164206274001676e-02 5.584008483213376284e-02 4.878275045158695367e-01
1.984045638614166315e-02 5.222741489235167844e-02 4.658322557665905972e-01
9.088610873504002208e-03 4.993370632439448481e-02 4.586217592866450032e-01
1.543704763534940565e-02 7.267849632808896787e-02 4.836611433172187668e-01
-6.313255034160651126e-03 4.946094971918812977e-02 5.164290291121894638e-01
2.423927688298316979e-02 2.811323730357800921e-02 5.208466044776925985e-01
3.138698615414974719e-03 7.363808472281213602e-02 4.793991831205972054e-01
-1.500121667316321045e-02 3.422783208614252337e-02 4.469969241827981277e-01
5.270099542845082564e-03 7.515050164195781479e-02 4.804938871033406778e-01
4.161041262830005721e-02 2.045770950973497398e-02 4.698257139656796810e-01
1.952412958065588566e-02 2.926557274715030008e-02 5.230080602669282541e-01
