1.947145505373230542e-02 4.878825870627565703e-02 4.643610310412516484e-01
3.185972842563073587e-02 4.798016463709162127e-02 4.820810908846670517e-01
2.615039406932474428e-02 8.054131375092317413e-03 4.484426701736335952e-01
1.519802250349585465e-02 7.215887216962076078e-02 4.861145326708734560e-01
5.469581586055664336e-03 7.216378168411635707e-02 4.901247067981848171e-01
1.988964301183525352e-02 4.502259455039512442e-02 4.628945312845471061e-01
-1.638010391649775965e-02 2.848818712558320171e-02 4.446197206556618542e-01
1.945443498178042047e-02 6.820860606792229774e-02 4.824935519310697418e-01
1.336278994241468093e-02 6.367392394256266019e-02 5.017538101672723849e-01
2.232641851100118646e-02 2.915358202262579787e-02 4.560561851913496056e-01
-3.050688044468221477e-02 1.830700081363074473e-03 4.383354573838517676e-01
-2.378824669328119187e-02 4.837978934839038542e-02 4.524205031956196055e-01
-3.332881881203424157e-02 2.173784049821397661e-03 4.389728168998028868e-01
3.268037415541819035e-02 4.200639631367960453e-02 4.730305367326057553e-01
-1.236994444148487374e-02 4.738459221684439976e-02 5.157483129647271181e-01
-4.769112503413046322e-03 5.235361871997224609e-02 5.140264317110614378e-01
1.882756484488193327e-02 6.302926606135766940e-02 4.951484553703028868e-01
3.648060319654505140e-02 3.374969231031035855e-02 4.982015602099940099e-01
1.276242046338745516e-02 1.149447248071883143e-02 4.451091860965693536e-01
-7.498499156142290553e-03 3.909779795700578375e-02 4.505907928812268870e-01
2.732527374297959166e-04 3.879927421108099461e-02 5.211101802104464165e-01
4.281515234289105104e-03 2.267807627209474097e-02 4.470029977979205760e-01
1.201936015675244976e-03 4.464320373307437834e-02 4.544083896760897079e-01
1.449060447180275726e-02 9.076122138337874845e-03 4.446198179117594740e-01
2.177912227940220422e-02 7.901690403650081518e-03 4.466204848981213393e-01
9.419787428999610787e-03 4.512530129628373327e-02 4.575541273978713797e-01
1.564805685554808770e-02 2.587526953125983756e-02 4.516987206054619008e-01
2.185752108965310220e-02 3.399480035038297820e-02 5.162180088267003253e-01
3.099058673833088307e-02 4.315544499450957999e-02 4.712675737392481579e-01
-1.229784204262784550e-02 3.852151809827178419e-02 5.214199482140394748e-01
1.423991648541912333e-02 4.502951916325654419e-02 5.144519677570054128e-01
3.991071965955737821e-02 3.164773390786702195e-02 4.825715358271763789e-01
2.774195733485521412e-02 4.330016017367826348e-02 4.679809119324960243e-01
2.280711225684439389e-03 5.530385901561567924e-02 4.576975018497543846e-01
3.350615324320718735e-02 4.555763837679546735e-02 4.858918087276208331e-01
-1.648213971407679708e-03 5.707510279480032533e-02 5.062211275583260450e-01
8.203307911214666182e-03 6.386074045419687373e-02 4.646261228151662981e-01
1.663601941923446154e-02 4.482222070076857801e-02 5.134158798192426376e-01
1.413793543731971594e-02 3.074853802334463759e-02 5.230695512952591164e-01
2.312344553910106182e-02 3.267678905453581806e-02 4.583614195154838145e-01
1.494781068199201382e-02 7.258764371593781628e-02 4.852098051338890605e-01
1.994270334609834876e-03 3.070273738342885628e-03 4.394109782406717124e-01
-2.700994183119578146e-02 1.567681283147039778e-02 4.404302633325754002e-01
-5.717178691410395794e-03 5.430882517467099796e-02 5.078634243146297189e-01
-1.380060839263260071e-02 1.630425110122158544e-02 4.409681301605588577e-01
2.809296174872821447e-02 4.391441503688030962e-02 4.686154196155647988e-01
2.812569318268843405e-02 2.853869295625942673e-02 4.595634876835049676e-01
9.832363997600563135e-03 7.554324006071928832e-02 4.824177151362069593e-01
-2.066152097826070080e-02 1.388499512808112450e-02 4.395935610887469758e-01
4.118710128759810185e-02 2.082203044616395826e-02 4.695541488134558072e-01
2.126384950795376025e-02 5.185873765178760503e-02 4.673511459116264088e-01
-8.738901405348178941e-03 4.552255596948945326e-02 4.523318679145740817e-01
3.373525168012012770e-02 2.190888818122579268e-02 5.137390121962839284e-01
3.300912664524582874e-02 3.428077261134154785e-02 4.671156169089865084e-01
2.106748387211722362e-02 3.327872322448004877e-02 5.187692583637029120e-01
3.974321502697983344e-02 2.463703094074107952e-02 4.693628121673177889e-01
2.118881391656289234e-02 4.998527828903964049e-02 4.661501861942389247e-01
2.633984142563016925e-02 5.873255374289942238e-02 4.836359044706021737e-01
-1.776918496743428930e-02 3.972565571910106896e-02 4.488562867681709645e-01
1.856862983641810461e-02 4.458389584114423598e-02 4.617757382478491213e-01
2.601861989362842104e-02 3.339335545050975407e-02 4.607715842488027680e-01
2.100094232328844276e-02 6.021654863736747472e-03 5.306506480045356522e-01
2.687020060081743780e-02 3.044701965162590132e-02 4.597452679114684138e-01
-3.593270676223556288e-04 3.795419493252486648e-02 4.516192325072151403e-01
-2.685479215854429114e-02 1.105159848712250828e-02 4.394711824907325814e-01
-1.443853245163153817e-02 3.865632078936566407e-02 4.490026443496938913e-01
-3.281279209641563277e-02 2.937231006647927217e-02 4.441405736549268735e-01
3.478784404108852674e-02 3.435271229287500949e-02 5.004819373503559543e-01
1.171144448093302398e-02 3.655809098494820081e-02 4.551864583987145219e-01
2.000753934673306367e-02 1.966847776015310731e-02 4.503009401421884661e-01
3.198388311942068629e-02 2.545962928771243472e-02 4.609103268183300517e-01
1.182456639346441025e-02 7.450485795766850772e-02 4.780609844619271853e-01
2.547250026325537098e-02 5.139308890711615646e-02 5.000440064290152531e-01
2.884905679681305790e-02 5.396070415051722191e-02 4.851292292110973015e-01
-6.571900918213113927e-04 8.227118059496092359e-03 4.406363121741623257e-01
2.552583880202283217e-02 8.291309646292332330e-03 5.288253612012693283e-01
5.835614070749541027e-03 6.026847074391467052e-02 4.612783499596628811e-01
1.501800916259337683e-03 3.497309024293811935e-02 5.222280613828423901e-01
3.046449456464582831e-03 8.645372174527467257e-03 4.415034064793464941e-01
2.028914628051476862e-02 4.369688886066627753e-02 4.624773128612195139e-01
4.483943776641148744e-03 2.298448537806496023e-02 4.471808916971728998e-01
2.717977086065866479e-02 4.041789198143344586e-02 4.658781915564008669e-01
-2.609222869568048053e-02 2.664566014470557201e-02 4.434663639093961995e-01
6.020400552832691488e-03 4.348724845068812489e-02 4.558342279827011234e-01
-1.438954366304089592e-02 4.436508818359627404e-02 5.145463021976780515e-01
-7.838938709628415213e-03 4.700310424991657743e-02 5.191461555240590720e-01
3.601051376919137820e-02 3.890900528199594394e-02 4.770750858129833571e-01
1.708535404881092457e-02 7.022044712440196623e-02 4.784796532228446919e-01
3.851846377643345504e-02 2.174907761342493098e-02 4.649421158746313010e-01
-1.775214355347141688e-03 3.613925762130151126e-02 4.505644160774722740e-01
-3.053241777293877468e-02 2.323673436734442765e-02 4.424757153672972398e-01
-2.672381837587760670e-02 5.160920318490680274e-03 4.377448742379246860e-01
-1.175350182331829849e-02 7.695096188993070553e-03 4.386120206317673520e-01
1.333492707842851011e-02 3.760402566053935858e-02 4.562605006252882789e-01
-3.223718197022085175e-02 2.081419756786790851e-02 4.420899893219656929e-01
2.480641963879192877e-02 2.396279990326934117e-02 5.220850167368618067e-01
3.150670049070640466e-02 4.780552879861255794e-02 4.908819121230774130e-01
2.144033508577337585e-02 5.056644273830682851e-02 4.667478771223018130e-01
2.389550299428608304e-02 4.727076539504407315e-02 4.670124396693625113e-01
6.683822002223182429e-03 6.560654768327064956e-02 5.041291919098276342e-01
-2.234065564903573060e-03 3.765902064898829157e-04 4.377912099300385051e-01
-2.349024058202181520e-02 2.530040257388266843e-03 4.369379710421746332e-01
1.390984260351027166e-02 6.741683628549161034e-02 4.705500713948086999e-01
2.960373635783398322e-02 5.100934247326351090e-02 4.893647914808051391e-01
3.551886582414173765e-02 3.233010467235027802e-02 5.002692667502767199e-01
-3.595502015985419658e-02 3.500479517620453535e-02 4.458097367453980886e-01
3.114295689701512826e-02 4.338000519075074779e-02 5.003832611532982311e-01
1.032893277668626379e-03 1.493793772894020863e-02 4.433137385533910124e-01
-2.725700492629191951e-02 7.407182890808142531e-03 4.383904910117478182e-01
-1.407425000816841382e-02 2.871914055489815931e-02 4.450117996051391467e-01
-1.790877500450902340e-02 -1.805484023553226638e-04 4.365916914812355554e-01
4.740138759553683481e-03 4.742006543901614718e-02 5.177084770264355207e-01
-1.514641711625354902e-02 3.507135353921209814e-02 4.474594169623621887e-01
-2.808699686307001078e-02 2.855643501287197239e-04 4.377478584596751765e-01
2.343007335956472093e-02 6.110739789829949808e-02 4.778262111629966169e-01
2.165688172681631135e-02 5.123397135263629831e-02 4.673590871103193156e-01
1.708400502453980355e-02 6.104309541028112712e-02 5.001071415409609200e-01
-2.179519141402420229e-02 1.975793621384576773e-02 4.413846894761144779e-01
2.327763597686096850e-02 1.228397145900821628e-02 4.488750559545253149e-01
9.269267652841752317e-03 2.492817865267147118e-02 4.492350527502168567e-01
3.147696653467611100e-02 4.683361811032216854e-02 4.928869387889004416e-01
1.060711952609885711e-02 7.135144867528690760e-02 4.956641886147836185e-01
2.627238342112284825e-02 4.357688724431994093e-02 4.669400579545082697e-01
3.331337683288751461e-02 4.431511399624411124e-02 4.924096805505779884e-01
1.868104599422232628e-02 6.395314289564284216e-02 4.942398872389357489e-01
1.209390076385984981e-02 1.033679226973726814e-02 4.444694871522074098e-01
-5.561196067626474754e-03 2.701059426984624146e-02 4.460507188607358287e-01
2.797107726286416490e-02 3.569338265867136317e-02 4.636645476399935406e-01
3.407985015215529018e-02 4.426909168019933088e-02 4.861483281877643781e-01
2.205303445986309119e-03 1.533106354903479573e-02 4.437338153168884913e-01
-1.867034165280534105e-02 4.015542808958950938e-02 5.195497254989993596e-01
1.086089464973467693e-02 4.294388830310443689e-02 4.573769263912535465e-01
1.483508438730383322e-02 3.713153418682550722e-03 4.425538574244419765e-01
2.595124977158044452e-02 3.882091146169034529e-02 4.639738354830200140e-01
-4.128322430360094331e-02 1.440448589634226199e-03 4.416009135599484048e-01
-2.751121069970712679e-02 1.998183238451358909e-02 4.414820237491480226e-01
-1.560900862589966950e-02 5.116194054307923733e-02 4.536000926229323826e-01
-1.918992559192634478e-02 2.767721681176680409e-02 4.439845390730022823e-01
2.948321426358381167e-04 6.437996767266490616e-02 4.994159594193325336e-01
2.017542708363767590e-03 5.451677723097415884e-02 4.573378715910387804e-01
-2.756875452027632289e-02 3.965394971633192517e-02 4.477957484415846512e-01
8.479824323908929581e-03 4.696411517404187885e-02 5.161758324363677763e-01
3.402720037240123535e-02 3.172892393705147029e-02 4.665435818996737649e-01
2.113330901866616873e-02 4.434757222097740481e-02 5.107761425207366646e-01
1.848567906226666543e-02 4.126277961744687778e-02 4.599739007494942356e-01
-2.842187337396347852e-02 -1.133137111266661889e-03 4.377328416268645994e-01
-8.978477070449755737e-03 5.164673238968264107e-02 4.544863435829653575e-01
1.580274210978866584e-02 5.459450931126912793e-03 4.435536742240847596e-01
3.922673425331158620e-02 2.372691255426065751e-02 5.002602684951278356e-01
-7.390200517908280912e-03 3.150183796812915105e-02 4.474576405583378103e-01
1.477453717195744906e-02 7.141456132514302502e-02 4.758385127015278826e-01
2.729642112061603579e-02 1.966573566344402904e-02 4.543286688554729058e-01
1.240700804304476282e-02 2.842515094941291953e-02 4.517373199703634268e-01
2.107074084991954893e-03 4.658325049432917447e-02 5.189800018454348018e-01
2.614312696508077922e-03 6.381136507125127755e-02 4.623524278755249406e-01
1.473545110344673566e-02 7.041423823849042585e-02 4.924030447849199188e-01
5.543609200084290839e-04 6.729028255963507080e-03 4.403434502615017343e-01
2.090475270001278946e-02 5.208096821931706283e-02 4.671440397694166524e-01
-3.246462877623440373e-03 5.119616820803356283e-02 4.551009396918860861e-01
4.165845248077561930e-02 2.510585605858779712e-02 4.903400475741796494e-01
1.175251224286792684e-02 2.164340664295479749e-02 4.487165858360469550e-01
1.620631003980285700e-02 9.960039628023390629e-03 4.454610145418772538e-01
1.513134115151635976e-02 3.127285216417500374e-02 5.222012690904987986e-01
-1.805359140796247708e-02 2.254533615949955508e-02 4.424471435782044715e-01
2.397433544024471161e-02 5.079516809637167618e-02 5.030947072134333009e-01
2.825947601629364217e-02 2.604449069012888807e-02 4.581959191848717361e-01
3.511262838062561426e-03 4.389214911588668055e-02 5.193997679143279589e-01
-1.905021176236722236e-02 2.278756011512050178e-02 4.424366029897913166e-01
2.372084406165761786e-02 2.628093839569760684e-02 4.555385191952656676e-01
-3.197250780535253883e-02 1.869031769034240273e-02 4.417329468974983686e-01
-4.090075481030260723e-02 3.685236837483823330e-02 4.473490508306417479e-01
1.636210668138641123e-03 4.141755388813930100e-02 4.536160733085188856e-01
-1.272658293006236410e-02 4.117548405311764748e-02 4.502365521780351543e-01
2.524539532804668043e-02 4.714538566900738914e-02 5.055662756380666645e-01
2.446709682779982589e-02 2.491800521375046526e-02 4.553104243089792225e-01
-6.366330534624039389e-03 3.969996828374844355e-02 4.510080480552665083e-01
2.245103622886251288e-02 5.484159676608252321e-02 4.709439810055968123e-01
3.983892563826001154e-02 2.763200272819875403e-02 4.942182364190497723e-01
1.665477614834184189e-02 6.617697397348576427e-02 4.943661752402594978e-01
3.216079585712761091e-02 2.226203878921504883e-02 5.157078726953252534e-01
-6.658876999764215196e-03 4.178273831228172808e-02 5.207380071017789769e-01
-5.100623886925404089e-03 8.528288930938042120e-03 4.400550414739733962e-01
8.984940814002004977e-04 3.325201273403138175e-02 5.232199960059019661e-01
-4.878962192181394639e-03 5.094801462166998612e-02 5.158148973749188126e-01
1.099485154332537767e-02 6.470678078469788153e-02 4.665545794421033232e-01
3.945830239861126271e-02 2.456398370708830214e-02 4.987222322782597361e-01
3.319978780531310236e-02 4.502952059684744990e-02 4.912968619082748734e-01
1.425664469559175321e-02 7.275020924026640023e-02 4.780376466808453628e-01
3.214069685664006776e-02 3.009254861806474890e-02 4.637290236769764928e-01
2.263647905735999971e-02 4.204757411964598658e-03 5.315065571615622542e-01
3.777515677696473978e-02 2.872312593132044997e-02 4.684914943391109143e-01
1.671575487222215278e-03 3.148238218916207028e-03 4.393771466749726851e-01
3.034310463991221965e-02 4.764525744967228887e-02 4.757171116032682945e-01
-9.273385672134041441e-03 3.684266856727164141e-02 5.221209647507922824e-01
8.160377243958023830e-04 4.495188710648419933e-02 5.194896769023205074e-01
2.560953633518146810e-02 3.340526739632924264e-02 4.604740365410360248e-01
4.184048559453097671e-02 2.688159502504674017e-02 4.816928362523291152e-01
-3.262366110484155035e-02 3.134400433775574781e-03 4.388703944989453265e-01
-1.257030408165648629e-02 1.062077058295555175e-02 4.392382401914203816e-01
3.421456463138592557e-02 3.283898610398450213e-02 4.673600975311265060e-01
1.744281303873570360e-02 5.918821461539944956e-02 4.683736572917128749e-01
1.642422671991615110e-02 4.694737036689031889e-02 5.120491886628598666e-01
9.702034129342991184e-03 6.518027770397710752e-02 5.034336445606574229e-01
-7.453715747588402288e-04 6.055375407281218814e-02 4.588597115777993118e-01
2.619516870655124070e-03 4.283470268264798209e-02 5.197930728700034253e-01
8.147001132318105543e-04 6.087070905300843993e-02 5.059494844018608273e-01
-1.721992996705688436e-02 3.872268202835439654e-02 4.485459261015987131e-01
2.386096081677105060e-02 5.472087641668020586e-02 4.981059307260649049e-01
3.135385716035177933e-02 3.012023633366441022e-02 5.088507486592162010e-01
2.387004268343153116e-02 6.214072563368341906e-02 4.852140334258431831e-01
-4.044633740682288675e-03 3.825474012162369958e-02 4.509217607288477092e-01
1.435037868631022784e-02 7.269454752272927478e-02 4.870347398279797901e-01
2.810893763161944822e-02 4.187346200236677363e-02 4.674602835199604955e-01
3.885914932988187437e-02 2.679994493048232923e-02 4.980798462391071713e-01
5.576938411892071699e-03 7.229526081994523679e-02 4.894830914577611991e-01
3.685697094979892285e-02 2.232419544377453602e-02 4.635534199215352591e-01
1.339655987865233377e-02 4.868528222682140527e-02 5.128894793477759562e-01
-1.196649482528911075e-02 2.623088326458830263e-02 4.445474017504629782e-01
-2.606867772362324656e-02 4.378324526081124601e-02 4.497407355222352576e-01
1.911685401702072420e-02 3.547205711233881315e-02 4.575788851748672226e-01
4.163765267501730316e-02 2.129486761808625089e-02 4.711134925787550665e-01
1.935988013834600424e-02 4.548104567037930535e-02 5.111260156659120923e-01
1.225681450086436516e-02 3.628406984379704825e-02 5.195113141497035292e-01
-1.663267539372573559e-02 2.610256617293013268e-02 4.438080522213824763e-01
1.894998965228185395e-02 2.520106398746425544e-02 4.527110232591893269e-01
2.989153850783111965e-02 4.992582641234514368e-02 4.775475456638689775e-01
2.633318602768086603e-02 5.774934554916315993e-02 4.867861524010472229e-01
1.485210825733953091e-02 6.777598489960569295e-02 4.951390011651959910e-01
1.232637866055993903e-02 3.432864584639191974e-02 5.204272245516170514e-01
2.686413398010863499e-02 1.684082224510523307e-02 4.526833494154904325e-01
3.453970329454760652e-02 2.288159365859177702e-02 5.092873280548191328e-01
-6.824049965313002709e-03 3.755468509054665695e-03 4.382988127223476083e-01
3.231392209414517963e-02 3.717046927092784031e-02 4.683208277508609241e-01
-8.199594374269439379e-03 3.644838546743957991e-02 4.493893643023277318e-01
2.264111027185487096e-02 4.122532808452371300e-02 4.627840950349133564e-01
1.296065253856019950e-02 6.198851926259885126e-02 4.663829007174096763e-01
-1.860868371339656491e-02 3.361354927612048016e-02 4.463242331585133282e-01
2.918669225976396053e-02 1.599112514924776879e-02 4.539211644691337755e-01
1.313194804757961479e-02 4.827802751222263350e-02 4.603187941622528534e-01
2.581836798835221783e-02 5.803651435300801603e-02 4.784193257639465235e-01
3.377761215530055566e-02 2.168689305509282142e-02 4.604076164158743545e-01
1.708391349414853464e-03 1.104316961474452116e-02 4.420862490473191353e-01
-4.033773467392599496e-03 5.148612203459502178e-03 4.391211690012138957e-01
2.395570040979913204e-02 3.319029618752594724e-02 4.591666811180408203e-01
1.290092506956382751e-03 6.599163016692149997e-02 4.974591401507790778e-01
2.085184233946983656e-02 6.237509759381297883e-03 5.305527609375474407e-01
2.364778476687930467e-02 5.365055702747614785e-02 5.001773312325743515e-01
8.982601163440805808e-03 5.846739653379150192e-02 4.623825876494258025e-01
2.865475771178581724e-02 4.964563909409131642e-02 4.953976156373330886e-01
4.156045258590180397e-02 2.423766041506613192e-02 4.924455744066235097e-01
2.575479275366409498e-02 1.437807991261402449e-02 4.509510491182955327e-01
3.001830024122243215e-02 4.977000987096909940e-02 4.915826302688668936e-01
2.802082769141112095e-02 5.028804560122438622e-02 4.959434933454314187e-01
3.925071353138748220e-02 3.297537938109948441e-02 4.855904122673357359e-01
-7.055479291530122876e-03 1.675222940392128920e-02 4.423943559626169475e-01
3.351955552937112975e-02 2.354684396348543859e-02 5.106310013529884451e-01
-4.232929959309947310e-03 5.393127704420114937e-02 4.556648566141372481e-01
2.243491549347331054e-02 5.091372832995300080e-02 4.679002581334298916e-01
1.411275318708557144e-02 7.354483144681057960e-02 4.842141438845836143e-01
2.057280188407650465e-03 4.695700271384486285e-02 5.188799809168275212e-01
2.004566470545677062e-02 5.837146249630881245e-02 4.999434978428808352e-01
2.196302165516906407e-02 2.103982534899895285e-02 4.518470100144268420e-01
1.345150958258848131e-02 7.056939866724890043e-02 4.727671779015862330e-01
8.310498086652233496e-03 7.600635975661339250e-02 4.767194782626512084e-01
3.255441699641465486e-02 3.337734352284171813e-02 5.046756402985611567e-01
4.158055804322451782e-02 2.752828757477906313e-02 4.834473662953937545e-01
2.428556490081771116e-02 4.782312036929785293e-02 5.062520756455631821e-01
-8.147999800254083005e-03 3.168433109810341736e-02 4.473700211033209140e-01
5.994564648711956517e-03 6.862694835770753732e-02 5.000200362211895122e-01
-6.813783318252376181e-03 2.810972288139918299e-03 4.380222992020271766e-01
-4.029297671446694512e-02 2.683415742124647257e-02 4.442885011197202916e-01
-1.615117263179702972e-02 5.851465805851109592e-02 4.577735484591604620e-01
7.080103439233618144e-03 2.906254217568456089e-02 4.502752768505039471e-01
4.269466635254647036e-03 7.133658337957782258e-02 4.711510038040699344e-01
3.316935711746979432e-02 3.143304416029803205e-02 4.654920440375398538e-01
1.486172058136240801e-02 5.179210106944793363e-02 4.629777077849768774e-01
3.225487077635531136e-02 2.285505555736628766e-02 5.152137352682725213e-01
2.223507612614396625e-02 4.630716438694598008e-02 5.085656606266716340e-01
7.658931720100617922e-03 7.342153249793084702e-02 4.879149360140867531e-01
1.017168874346548180e-02 3.188871649990047269e-02 4.525900482501368782e-01
-1.456255744767363108e-02 5.642870907470648456e-03 4.374967545905816824e-01
1.637314024730511519e-02 4.166177526258969116e-02 5.152831161509439095e-01
2.332869125424865894e-02 4.116584886251713205e-02 5.104652357276231456e-01
3.990773008299570296e-02 1.987397688062884221e-02 4.659738183909586939e-01
3.424259942291568715e-02 4.394203639242436066e-02 4.800558288176374200e-01
4.701699597385534425e-03 2.202611442719340853e-02 4.468722320519231128e-01
1.904344607322272856e-03 6.269096795162977173e-03 4.404425333041281920e-01
8.328785828846774209e-03 5.354342786765537571e-02 4.599174943720995556e-01
7.088574965120145524e-03 7.398865887939055919e-02 4.869871447806063958e-01
-2.060086594173260108e-02 5.331125408841870528e-02 4.545058162173469252e-01
3.511785553002091942e-02 1.903638214059914444e-02 4.600861581453507543e-01
3.234884805650341255e-02 3.137283078278459841e-02 4.646776417018913530e-01
2.077151716880012988e-03 6.455163671855204677e-02 5.037123760308539477e-01
-2.508246020272527493e-02 7.901721335204028168e-03 4.380905596809115954e-01
1.562818068371148866e-02 3.371213971234251344e-02 5.202453142414034115e-01
2.469000614920497869e-02 5.370464303835163072e-02 4.729697080899731287e-01
2.297988589979053919e-02 6.354686502232348433e-02 4.829370259267889987e-01
1.292643843669519753e-02 4.020457325990136471e-02 5.182169552529137801e-01
2.560073721387030529e-02 1.767791348323971556e-02 4.522655548262137226e-01
2.217378278856253424e-02 2.437803770140609116e-02 4.536362121755005972e-01
2.192747395534890703e-02 4.422879977082017078e-02 4.638585431949845961e-01
2.283121591621438407e-02 3.692927220381413828e-02 5.142160474299692918e-01
2.338570872363272476e-02 2.910077903159523360e-02 5.211681247397048633e-01
-1.335073714109606333e-02 -4.954283133638645586e-03 4.363787699147961274e-01
-1.846599829754576663e-02 5.842688137268079243e-03 4.372484482415067153e-01
1.593453504512965663e-02 6.034989149695268312e-02 5.031408505042692658e-01
8.484738110810218989e-03 6.754222941131851621e-02 5.016043362969399011e-01
-2.309997863677640956e-03 5.290912748981362740e-02 5.137088482407536905e-01
4.249290492575923117e-02 2.091311757506119848e-02 4.730913340024440750e-01
3.400539661570196187e-02 2.175939584736952606e-02 5.131363487083153707e-01
-1.281595134511560180e-02 4.607180823051083146e-02 5.143489787867179253e-01
4.095703688508001150e-02 2.033555149274490076e-02 4.685369752663087195e-01
-3.338196601546093711e-02 2.099589117317740214e-02 4.422483526594062075e-01
-6.571739420009276543e-03 6.086220692636798435e-02 4.585956365729365047e-01
1.615830312198861599e-02 2.760565686489201490e-02 4.526804086995435128e-01
2.920677508521239349e-02 2.184366534177810057e-02 4.567060010384025315e-01
1.404508560958827104e-02 1.298273523311317505e-02 4.460427397813593875e-01
-1.649782903042490423e-02 6.015863618298773752e-02 4.626344579832565307e-01
-6.082907872209679725e-03 5.161670496809627612e-02 4.547662145511959242e-01
-1.495808922002706855e-02 6.015674439955548403e-02 4.592641855827914732e-01
1.032219390697116171e-02 2.654224518377494915e-02 4.502584997320909221e-01
4.160651902189529960e-02 2.675150095455619201e-02 4.872982893112544622e-01
-9.698315007260949541e-03 5.656233495863034061e-02 4.558237855613698208e-01
1.635230155962829474e-02 6.794733097765738583e-02 4.926989936336952369e-01
-1.601115029178270741e-02 3.435166370155634530e-02 4.470387885473823819e-01
3.126203124702980202e-02 3.224933017688387527e-02 4.642766506692102557e-01
3.432436758949571065e-02 3.145839896834520810e-02 4.666781165662875486e-01
3.489071208163402327e-02 3.163430183258563594e-02 4.673295891941701696e-01
2.988239635378479864e-02 2.096093527386936120e-02 4.567751705079374225e-01
7.466452967820730834e-03 7.220607394839077819e-02 4.922903530403184846e-01
1.883146714968121638e-02 6.733267091547842642e-02 4.768230491564973139e-01
3.862448843685768046e-02 2.364389641280304627e-02 5.017469217622405608e-01
3.711705995956808557e-02 3.777638155067566950e-02 4.846930955941454178e-01
3.081342880981644688e-02 3.685239275683217797e-02 4.666791706214847846e-01
3.268456941554626072e-02 2.457358791538424500e-02 5.112886672612875216e-01
-1.476831682471924610e-02 -6.423182608687591152e-03 4.364462382918551930e-01
3.018997182798181106e-02 5.062747299559782616e-02 4.878674955306567806e-01
1.752643271255622387e-02 7.018824481618647637e-02 4.833563516964160534e-01
-1.045099966268104967e-02 3.503113916117332749e-02 4.483730871892528946e-01
-1.112023245405709994e-02 4.517215176218144362e-02 5.199503527607080011e-01
-5.857464725431891367e-03 1.743236765658653237e-02 4.428104434309061421e-01
-2.153295108959083978e-02 4.055833678125904396e-04 4.365435099782209449e-01
1.190129176197815553e-02 4.716697833266551843e-02 5.144300207120872104e-01
-2.028980056685804334e-02 3.989346980376994728e-02 4.485349371078928837e-01
-1.081014911862340777e-02 4.696082823449301141e-02 5.190484555611466488e-01
-2.191302194646232993e-02 1.929689512056885145e-02 4.412533367963329400e-01
9.951099877035043256e-03 6.997153069148961957e-02 4.988403697790854130e-01
-1.091370198814450680e-02 1.376659116167619837e-02 4.407225920689348264e-01
3.407365996081125614e-02 4.021264580901895425e-02 4.969977111534528147e-01
5.897590316781969010e-03 3.385147284370344789e-02 4.520748821885092750e-01
1.654562115771172903e-02 3.523174868196088383e-02 5.190996551300891548e-01
2.955601923085553716e-03 4.561842186063014282e-02 4.552331430937247014e-01
1.043298719665742592e-02 4.154332522776536113e-02 5.187045942482484406e-01
3.277149633566515258e-02 2.941049623784340941e-02 4.639025064503359830e-01
1.070684905131853368e-02 5.125354598667936079e-02 4.603397571563768720e-01
1.536810211349478629e-02 2.984061418507871072e-02 4.534007494448856757e-01
-1.159181415298250577e-02 4.484088280039655317e-02 4.516086028819722431e-01
3.794650757866143559e-02 2.272722715757546919e-02 5.038341814768381166e-01
-9.930947853299194189e-03 3.413717542686606904e-02 5.221265904194256624e-01
4.182977636090935009e-02 2.675098624431115901e-02 4.810432427333724559e-01
-3.164937140480916788e-02 2.337704582132181519e-02 4.425697600658592412e-01
3.639691858151423293e-02 2.163176202936207410e-02 4.626807804890909481e-01
3.001149423913531539e-02 5.119014859519570304e-02 4.825416281503456806e-01
-9.989308054414926252e-03 3.221393562243955733e-02 4.472561845205153541e-01
-1.196453917848231199e-02 3.763580793436682725e-02 4.491180721897316541e-01
2.788001276320195565e-02 5.393218431160956561e-02 4.779849533685304741e-01
-4.281941436088783359e-02 -7.900914764667030417e-04 4.411207408798805685e-01
-1.127738756756191396e-02 5.946845467584269823e-02 4.579510372512242689e-01
3.574764881521241833e-02 3.726232914289664966e-02 4.739534104779085655e-01
2.823225401708901947e-02 1.504198527339091658e-02 4.528766830263397103e-01
3.008525996612069348e-02 3.823731842370291928e-02 4.669012400250818207e-01
2.366457148905412936e-02 5.024712770626284242e-02 5.042390274879589018e-01
4.210424577256421420e-03 4.360003936463168611e-02 5.193442918087725069e-01
6.810833437448308991e-03 7.229955016237173127e-02 4.909494311558267321e-01
-3.529892563123940286e-02 4.387172893983602023e-02 4.514580634594165809e-01
-1.010268133162266300e-03 6.868677583455636004e-02 4.674657352997588222e-01
-2.172942816714815151e-02 3.515378258452425686e-02 4.464484895243358564e-01
1.568472468641214385e-03 6.395436290511954947e-02 5.038903844159670076e-01
3.507402400236932921e-02 4.140111317950166681e-02 4.911751161644781205e-01
4.218364495604216835e-02 2.324474273272383873e-02 4.911151826038964718e-01
3.713989875500724180e-02 2.951138916348901645e-02 4.992970811304937584e-01
-2.951294875868074041e-02 2.655511622283463977e-02 4.434588494460847130e-01
3.306398976083547298e-02 2.740381403020802561e-02 5.082297980158940742e-01
-1.433725003006327062e-02 1.388039920757638997e-02 4.400331014441701272e-01
2.999770259253775606e-02 2.819024133502003038e-02 5.131182209659418403e-01
-2.956951450802602216e-02 1.622435450456418543e-02 4.409186446175581420e-01
3.929910559021843573e-03 6.821426815538585153e-02 4.657853124097116604e-01
4.055943059370544293e-03 5.855266670177568938e-02 5.090590132844394766e-01
2.934878075074552617e-02 3.530410621239296609e-02 4.645172180879531543e-01
3.631976855856988706e-02 3.944948299315687718e-02 4.864946728873175696e-01
3.324533385367924726e-02 3.107712903404552182e-02 4.653498609330789515e-01
-2.028998602907393367e-02 3.311303043066762125e-02 4.458546917869254389e-01
-3.589541031350924893e-02 2.538059903964166170e-02 4.434496263755514645e-01
4.302711986507871782e-03 6.340088206287476658e-02 5.064013740247067519e-01
2.095447485103585014e-02 3.352557342067225693e-02 4.574897954297872937e-01
2.036350315631890034e-02 2.855057987939001174e-02 5.236221174152134727e-01
1.709281403007556488e-02 5.115750104449953706e-02 4.639934654430347694e-01
3.089993933380192834e-02 4.478150430178620689e-02 4.991590627887154685e-01
4.789400371905291366e-03 6.937294203232785561e-02 4.669798294250062654e-01
-8.272245741551123577e-03 4.839715997637812628e-02 5.180118626759864231e-01
3.848314994068146450e-02 2.477984180335850856e-02 5.007089805471498511e-01
1.714594709820306540e-02 2.861228370221851475e-02 5.242888533227993975e-01
-3.665805823453695961e-02 3.455207438013485621e-02 4.456953682690181218e-01
-1.263798275441087044e-03 3.992505058030544618e-02 4.520893791427861297e-01
-1.538890759584074161e-02 1.036766890393247230e-02 4.385204857279917379e-01
2.307349614398050697e-02 6.341274060069798657e-02 4.826943932877196253e-01
3.552566062100819683e-02 4.185847665098216264e-02 4.826405786935210607e-01
4.991699709633444504e-03 7.502036289342897679e-02 4.758637301807298048e-01
2.001866850671369866e-02 2.230498967269163579e-02 4.517825325640555389e-01
-1.949019278474222946e-02 3.199384162160845424e-02 4.455561624940360677e-01
2.292533912271057725e-02 5.534792403065184885e-02 4.990633060335258331e-01
3.558590239061179203e-03 2.483584757899804513e-02 4.475834029720662244e-01
-6.497222977798009641e-03 5.362275622534969088e-02 5.115242927167095166e-01
2.591369016414309806e-02 4.935514821955475778e-02 5.017931510395449157e-01
-1.416395712588213937e-02 4.499271246809707914e-02 5.151902301996574840e-01
1.373283095281756239e-02 2.360983457903570448e-02 4.501126677306358514e-01
-2.017586954462118054e-02 7.102194044568566761e-04 4.366167556689869444e-01
1.405362952359472811e-03 4.258427092130021713e-02 5.200603161968542221e-01
-1.679570735919646077e-02 3.888070155988788273e-02 4.486732142042444971e-01
2.518850386524803739e-02 1.295227685624469015e-02 4.499519959425407611e-01
-1.802778010680189044e-02 4.862965292962519864e-02 4.524086853364799876e-01
9.822190708344974430e-03 5.131139575211104975e-02 5.121497378149082458e-01
-3.866591159213908502e-02 2.416477490642869250e-02 4.435289015551704406e-01
3.291952955528465452e-02 4.130598436501566051e-02 4.990190602487465932e-01
1.463958905300529953e-02 6.026685722048241711e-02 4.667045352705097017e-01
5.978886248865314737e-03 3.984528123270572597e-02 4.545175897496400719e-01
3.619657066772427600e-02 4.066998793060070533e-02 4.811434509437553242e-01
1.151357243366398289e-02 7.461366798644349096e-02 4.866225166564029370e-01
2.796144742254492305e-02 8.008396722843815277e-03 5.284861384593261269e-01
-5.506167996898807607e-03 4.785399145631898804e-02 5.185372733478667007e-01
-3.223605886017576194e-02 1.922619322229639216e-02 4.418436979247128971e-01
3.249826558985386554e-02 2.371250308209416416e-02 5.135210231749700593e-01
-1.521550684419573085e-02 4.761360071440946112e-02 4.522254361986298155e-01
8.735805679341238777e-03 7.284489731662062428e-02 4.729730500416568506e-01
1.837908687638270880e-02 4.257219139432204952e-02 5.138123525263769142e-01
-1.084087959707431652e-02 6.066870816845546660e-02 4.590085458780500671e-01
3.594198232017272593e-02 3.969227195809938574e-02 4.913821420362043391e-01
2.395342894377981702e-02 5.768843576928094075e-02 4.754523913049521489e-01
-6.434914964501278235e-03 4.135317799971496844e-02 4.515213132936461982e-01
2.533529019778393496e-02 6.028927939802560670e-02 4.843630167179038826e-01
3.260754309467452788e-02 4.446750526160746925e-02 4.943090809998292867e-01
-2.682635312827727318e-03 3.370937972242145364e-02 4.494052225000771950e-01
1.489629360651901178e-02 5.388488865333717487e-02 5.092382046720446143e-01
2.482030849872923078e-02 4.082582851691368697e-02 5.093173015028399364e-01
-3.450222573625637279e-02 3.973109498853039101e-02 4.480802684937451041e-01
5.713429494162571010e-03 3.721731684963477949e-02 4.533981152953256988e-01
-1.805088524544528478e-02 1.199014386025033796e-02 4.389682701096871975e-01
4.325238640810847440e-03 1.336733911120553848e-02 4.435274140667629927e-01
2.720977799127620445e-02 2.639993758649839331e-02 4.577392202834575929e-01
2.259708320545972954e-02 6.374175473310504658e-02 4.804799121940446227e-01
1.428332563973836074e-02 1.739290914004511246e-02 4.478809894362148492e-01
-1.849273946667761431e-02 5.826632070961110244e-02 4.580863109142072620e-01
-4.025854689266110918e-03 5.084974948152792135e-02 4.548316280050851423e-01
5.334683827428955000e-03 2.545308989672716987e-02 4.483400921777424553e-01
1.902936508366473087e-02 6.416892071981189494e-02 4.738039179012926150e-01
-3.490237102186822399e-02 3.957339785862565990e-02 4.480589551847451446e-01
2.290007466321661300e-02 2.966951924757806405e-02 4.566896648578687157e-01
3.853661379407959109e-02 2.194097631989265842e-02 4.650935507958303683e-01
1.314854446264802044e-02 7.067189557339269290e-02 4.726170072252343646e-01
1.304359372746068460e-02 3.188354926739847550e-02 5.220868270801826139e-01
8.075490520467770716e-03 7.322208901188495545e-02 4.732359861718617444e-01
-6.766822568753984475e-03 -1.428136135468745585e-03 4.368151596287139227e-01
1.432970716609499595e-02 6.159208038930354123e-02 5.028852407058012064e-01
-2.783289540941987633e-02 1.855712597724550397e-02 4.412775395949768975e-01
2.915000464290885482e-02 4.645304336775619297e-02 4.724612135264796842e-01
1.399659277364930302e-02 6.974211451769285475e-02 4.942333364743212720e-01
-1.054951970966218171e-03 6.419654479351660781e-02 4.618487620891316148e-01
4.199896013436676262e-02 2.411625973235800857e-02 4.901976938114231408e-01
4.022176117046758620e-02 2.514293613019785364e-02 4.967910225777016353e-01
2.667275214642584290e-03 6.337181906502029061e-02 5.064096922642430387e-01
2.321366103107961459e-02 6.180828545166926202e-02 4.785412233669638638e-01
2.806230954327938558e-03 6.470650224804748440e-02 5.046084811079262211e-01
3.351636693367005676e-02 4.519529105876068237e-02 4.875123605991565912e-01
-3.854834543653061496e-02 -1.116219449106754498e-03 4.402902668966602873e-01
-3.252369553049582612e-02 3.909515741820383111e-02 4.473796855214957069e-01
-3.869515682895080782e-03 5.563862615832725067e-02 5.094195489853343695e-01
2.913185563598203603e-02 4.597498061230043120e-02 4.718516172027272249e-01
2.501145284598956658e-02 3.498489372711180434e-02 5.132691575772637682e-01
1.236429337697991272e-02 7.318383452116959675e-02 4.896754639685351185e-01
-8.078958954235755316e-03 -8.063967438744715915e-03 4.360729876409353833e-01
-6.555550566363228283e-03 3.160607351948233751e-02 4.476805667978894787e-01
3.646097007780062932e-02 3.808118910634256810e-02 4.925885409997640130e-01
9.804197828837372605e-03 5.375148869325935969e-02 5.106202693211341348e-01
-7.563411414670441132e-03 3.326127789652083555e-02 4.481734244921046217e-01
-5.126539506856694038e-03 3.200860724182461037e-02 4.481604686521213354e-01
-1.960493691684246989e-03 4.897561928438042694e-02 5.177235862722192605e-01
4.273527699989121409e-02 2.436782949834521983e-02 4.829729951785672881e-01
4.155674984946838152e-02 2.370814691760233378e-02 4.735951527082465917e-01
7.393263795654236685e-03 6.421744012626480480e-02 5.050803634653860952e-01
-3.334197736458488492e-03 3.442816021286953382e-02 4.495708956213615992e-01
-1.935277040613151908e-02 5.420635914816239465e-02 4.549085563449163927e-01
1.778284846045067799e-02 5.176878769871463143e-02 4.647112099196273327e-01
2.608190683417287853e-02 5.791156555698744046e-02 4.872574117947839345e-01
2.456953716071835769e-02 5.358828620893293232e-02 4.984688482723742542e-01
-1.363887903132177809e-02 2.551177080143237491e-02 4.440890271930681421e-01
4.382457365005079306e-03 1.849272732191655291e-02 4.454324832586892824e-01
2.096900596062122035e-02 3.149487873971999752e-02 5.207412154120838466e-01
1.539474238064830920e-02 2.410112411053568285e-02 4.508535684587892112e-01
9.508404527052847360e-03 6.757028371805080813e-02 4.676678573175963027e-01
-9.717891204019312931e-03 1.161936553197811910e-03 4.371411877814604940e-01
