2.322967496634653628e-02 5.385333612939409431e-02 5.004424236119396907e-01
-2.309169204107102552e-02 2.417248244248884279e-02 4.428652075335697824e-01
-1.223234838874850267e-02 6.027049797340340923e-03 4.381882688001971227e-01
3.548443897869447972e-02 2.486560979492804732e-02 4.643173062094744230e-01
1.409766523520606177e-02 5.981770689898874976e-02 5.061932965430402387e-01
2.174220658883349935e-02 3.313101358427719689e-02 5.183397430740568357e-01
-6.421000728510833748e-03 1.445931583045664392e-04 4.374129991535571915e-01
1.518716507799323413e-02 7.143587087261628332e-02 4.881889365377032330e-01
-1.391768464493578494e-02 3.694362514960694566e-02 4.487956386675405751e-01
1.333641312638572489e-02 3.813829611718345253e-02 5.192798974322478944e-01
-1.845818713860155821e-02 5.845493793857620829e-02 4.586161820440142756e-01
7.889875487623251860e-03 7.276422340991879623e-02 4.729624326929856015e-01
1.378888412301288412e-02 4.232502754255648009e-02 4.589837590458144545e-01
-1.300885830794197562e-02 3.812706232765498970e-02 5.226246854956531074e-01
1.017876100423773704e-03 6.076558100311364730e-02 5.089322692892698230e-01
-3.882551130250122898e-03 4.644278594075360034e-02 5.200731240395889410e-01
-1.775909454679742636e-02 5.332315801617899115e-02 4.547980796083387900e-01
3.398865936774408958e-02 3.021391493836949813e-02 5.040781589122022011e-01
-3.805921960900652407e-02 4.069908010011976524e-02 4.500815641331318284e-01
-4.167015189631001482e-02 3.689526188777795396e-02 4.478133489968490477e-01
-6.054390327094203057e-03 4.056319926018027433e-02 5.218518329958931057e-01
-1.680200213656281999e-02 5.422790132085609366e-02 4.553139695368757511e-01
2.426427584911133861e-02 1.006743246448035985e-02 5.272403168555785946e-01
4.509217124553040884e-03 5.508669783694217226e-02 4.593273099130803505e-01
1.173054496635226110e-02 6.651680037550183888e-02 5.005898328268502118e-01
2.678788161733793374e-02 5.728410945129656928e-02 4.834774940755429129e-01
1.829316085034496690e-03 1.817448434670393582e-03 4.391233601514117346e-01
-1.555684586039022752e-03 4.560193258425824375e-02 4.543537063175983048e-01
2.062751488038862269e-02 6.406268896313488392e-02 4.776035415587817634e-01
2.504690032120250251e-02 6.010181947754465043e-02 4.848208979778533267e-01
-3.544964874756075662e-02 3.148298651927458613e-02 4.448291613419323443e-01
-7.967497781815159955e-03 5.237795885268936580e-02 5.142345442688600610e-01
2.209748971115840788e-02 4.557549606686574911e-02 5.093408710589462096e-01
-6.384383545027776802e-03 4.989994652698333949e-02 5.182277626281485139e-01
-2.940452270537418505e-02 1.293465152744264525e-02 4.405012335778236143e-01
-1.012611363017741628e-02 3.606104828410481439e-02 4.492301574041743795e-01
2.163769740757520710e-02 3.068717826988765981e-02 5.215001180972870243e-01
3.410345866525232167e-02 2.692984602348873907e-02 5.067144574837461057e-01
-9.555864915220185080e-03 5.794699058609144304e-02 4.567919159563180731e-01
-1.252771091823125238e-02 4.708834575553445465e-03 4.377483226800888971e-01
3.307473213649690658e-02 3.369854347350668272e-02 5.033775453156862367e-01
3.278469987470727931e-02 2.275190197741004672e-02 5.146137479508163803e-01
-1.019035869906856698e-02 5.025553445885843490e-02 4.541966398064924970e-01
-3.981060740004378762e-02 2.676274735168973282e-02 4.443696579621024823e-01
1.917194705140762637e-02 3.321102333489685948e-02 5.203948234399400352e-01
-8.270217401632305385e-03 4.131506791946852608e-02 4.515593123210776549e-01
-1.121666639447183034e-03 1.974760775817211572e-02 4.448184238707605376e-01
2.055270429786827668e-02 5.996875100737679432e-02 4.735299118908603000e-01
2.441406978572238998e-02 5.652207088184360573e-02 4.761041777897368488e-01
2.516757509810639559e-02 2.617885256532230531e-02 5.209937543817587668e-01
3.450705964055224978e-02 3.939099672386859458e-02 4.961911185932479929e-01
1.863159439138136961e-02 8.206601881382766250e-03 4.457663925603586041e-01
-9.368270271145336808e-03 -3.162446247544623869e-03 4.365569283953570912e-01
1.810684881828745346e-02 2.530954768748148662e-02 4.528079501093317805e-01
4.545387617250062386e-03 7.282480854208853160e-02 4.727739486324776808e-01
-3.770737131075247578e-03 1.157829522291991750e-03 4.379780241197916979e-01
9.014601507541821629e-03 7.117599449161238212e-02 4.978476021873694535e-01
-2.251235642736713893e-02 1.425486036080533814e-02 4.398296904842101118e-01
-2.485393558384412990e-02 1.094095970369377523e-02 4.390458179499637792e-01
1.393371883535588635e-02 6.826398748336258426e-02 4.957245177456574559e-01
1.068470302223462585e-02 6.035033008546918792e-02 4.649215552511503091e-01
2.157463103179036931e-02 6.084445838426998099e-02 4.759529564990023220e-01
-1.176226975574643690e-03 5.963493399023829522e-02 4.587662237406294197e-01
1.703285200856956630e-03 4.665374856226715827e-02 5.196433737165897515e-01
-1.601114850618961735e-02 4.484539476420099785e-02 4.514653219065816736e-01
1.214375036181925167e-02 7.294994298659632226e-02 4.906632233312996916e-01
3.907617546257058372e-02 2.851270208118274890e-02 4.951761673644718420e-01
3.201207497588930834e-02 4.731801695300291710e-02 4.826966579295465798e-01
1.051081295338496431e-02 6.967405584357362625e-02 4.706618861392641850e-01
-4.026034529505352275e-03 3.267734078873734543e-02 4.490403323915855838e-01
-1.918367212070768921e-02 2.612214688363131282e-02 4.437276391768874562e-01
6.970708710796533550e-03 7.158498989536032919e-02 4.709051392976019157e-01
-6.346555412929701101e-03 3.085786237641505170e-02 4.477540278815380637e-01
9.780768215089991405e-03 4.297537841399595021e-02 5.185929282079415614e-01
2.271531856352976622e-02 3.645182394722766561e-02 5.147589846091846777e-01
1.417795587138157530e-02 5.557759181942382998e-02 5.088956173931442617e-01
1.637934301091309094e-02 7.942230112617187920e-03 4.449874966726518610e-01
9.866715229288822164e-03 7.212114272622320577e-02 4.942994032807589977e-01
-3.163464708102181611e-02 1.796293979546428887e-02 4.416880616388269010e-01
3.794562525010276161e-02 2.413874753348817931e-02 5.024568540019905827e-01
3.403948812881171793e-02 2.296400417047193832e-02 5.099712336098578547e-01
3.058577490463432191e-02 1.931963278203947115e-02 4.570067853418363080e-01
-1.983247696649815053e-02 5.047904148671141650e-02 4.535544504072088201e-01
-1.999038665220378638e-02 5.509821190484279207e-02 4.558342872142423507e-01
-1.130911979180564478e-02 3.823982572404775737e-02 4.498832773223155335e-01
8.793414821270910051e-03 2.548407233669585173e-02 4.496684285704238282e-01
2.352812417103312265e-02 1.941775630573071981e-02 4.522692163956493761e-01
2.681417821743504321e-02 4.955677063248415531e-02 4.999021600055203463e-01
-3.534161475820985117e-04 2.686752139542333481e-02 4.476079978203171827e-01
2.813202915391922049e-02 2.009601890571076008e-02 4.555307775485131772e-01
9.421573629466276772e-03 7.470823505428829392e-02 4.770044085096444286e-01
3.192045429989687211e-02 2.701803543893661202e-02 5.102614278142385551e-01
3.453634873279693568e-02 3.585217557495703339e-02 5.000976099965743771e-01
-3.987742297002245390e-02 3.621455565133326754e-02 4.468083231744591766e-01
1.536782870458572314e-02 5.162800073860057334e-03 4.434733553648557147e-01
2.476712800181052679e-02 4.971790538103376678e-02 4.705771862057150368e-01
8.845168236691399594e-03 7.673239541168820621e-02 4.805257300349261018e-01
-1.505016345439337370e-02 2.612196595052026712e-02 4.443155129560145689e-01
8.881915106245003022e-03 1.738241995014928702e-03 4.407156341287779000e-01
-2.702264928932439358e-02 4.107086204592263340e-02 4.486889479223248878e-01
3.059190449101051312e-02 4.403693950777957250e-02 4.725424514655645614e-01
2.069119274598502436e-02 6.246579111145436625e-02 4.934043975549186056e-01
2.196465618333610925e-02 5.706218885459214685e-02 4.979371786754528406e-01
-1.592506928395139368e-02 1.428655343003566378e-02 4.400055503777492993e-01
-2.057375634055904484e-02 3.139337391366035096e-02 4.454336014659425746e-01
-1.028067651182581078e-03 2.412747453788832014e-02 4.464233195807287835e-01
-2.888935162778267455e-03 3.669100917745351381e-02 4.509586690903308326e-01
2.908253902999904938e-02 4.737821257321737228e-02 4.979218177737193551e-01
1.279324368302709250e-02 4.275876265643269170e-02 5.171226183754934480e-01
2.442466586633029735e-02 6.061764466931345713e-02 4.858420815551064975e-01
3.357571150240062224e-02 4.361877773268092034e-02 4.913654921192119884e-01
3.790364526127849160e-02 3.486554114921044945e-02 4.910053087330292776e-01
3.915483962726994463e-03 7.493312045208053163e-02 4.811795169315303267e-01
6.468640967026286631e-03 6.460165529358372072e-02 4.648625416200143912e-01
3.118338537038294056e-02 3.753103016857442520e-02 5.043914579077949378e-01
-1.200966114522326184e-02 2.227065037420858373e-02 4.435652985951532012e-01
1.521361249029663971e-02 7.217235426208726268e-02 4.806742852905404595e-01
2.018131737767187017e-02 5.924103480083672824e-02 4.979257961903122975e-01
3.900587567113313753e-02 2.901911416179177305e-02 4.948574601366746428e-01
-1.031828590370709869e-02 3.866859884630380328e-02 4.502700398251474612e-01
2.362062067208176713e-02 4.242617639770205479e-02 4.647117066197209434e-01
2.919806011622814307e-02 3.896721820530650582e-02 5.063113653511176482e-01
1.847685432261844327e-03 1.445713630703441763e-02 4.435677333425795954e-01
3.317833745534707474e-02 2.913250562104367780e-02 4.646851248649145338e-01
1.304145914312275154e-02 7.276707574706295367e-02 4.897963033555629009e-01
2.564204862849708139e-02 5.495911294529493701e-02 4.928588294723609819e-01
2.534333776376838585e-02 4.034165901667507298e-02 4.650012887855833332e-01
2.328382681741328689e-02 5.208861105309740835e-02 4.706477477556529343e-01
-1.553668015774152707e-02 4.075878177346738129e-02 5.219288306409054501e-01
-3.141781384789258356e-03 5.490092217841697347e-02 4.567173417635252974e-01
4.075211752184849934e-02 2.782854895612137808e-02 4.897190203473038572e-01
3.162412775310873524e-03 3.152702400839107327e-02 4.504562970483198536e-01
7.843689668332355647e-03 1.023643936989692207e-02 4.435315242151260939e-01
-2.871590547786302683e-02 4.859819265848842884e-02 4.534976430598877672e-01
7.499049551717878667e-03 1.704526543366370606e-02 4.460340571185977265e-01
-3.989897238824111070e-02 2.623363036289355632e-02 4.442656241409325690e-01
-1.108851856961616186e-02 3.719221543150402765e-02 4.495033563015882194e-01
-1.742051376431600490e-02 9.425602538187969823e-03 4.383041062349619654e-01
3.560905772541105019e-02 4.095212923043761721e-02 4.826192214248272716e-01
2.749229337680381483e-02 2.615302031928688070e-02 5.187821316413193662e-01
4.230524009884104736e-02 2.317333379850704950e-02 4.767148570131365393e-01
3.840117172197288209e-02 3.277082354283260279e-02 4.766103210422130143e-01
2.192870412028971247e-02 1.491491638923074861e-02 4.496283557923381746e-01
6.853726655093992162e-03 3.688741695422844552e-02 5.210652304068156271e-01
-2.765868095163909537e-02 1.835548169947737174e-02 4.413726729475401234e-01
2.292593938860492883e-02 1.450867910264731601e-02 4.498735106237805592e-01
-1.235092417113138261e-02 8.314914160599906276e-03 4.387903653213429678e-01
3.345116601282842935e-03 4.587465813760278205e-02 4.559619329035283775e-01
8.207645023399726125e-03 7.612350220471521267e-02 4.834248777134818043e-01
2.525545309484624260e-02 2.200413200193423319e-02 5.228820538560574605e-01
8.779389129603878267e-05 6.056508465726650331e-02 5.076325511053050299e-01
5.040832487198212628e-03 5.191058619520299428e-02 5.137349487100466572e-01
2.857903368579492107e-02 3.897120942912283420e-02 4.667830971339336776e-01
2.979370467067626177e-02 4.745118887737567737e-02 4.956577440638794685e-01
1.220357753535383435e-02 4.824468902376145840e-02 4.604077711352367874e-01
9.022107444562280781e-03 4.711225377568402373e-02 5.163025955511936216e-01
2.528575068042742541e-02 5.973871751735850000e-02 4.830789806617550863e-01
2.268002202345522841e-02 4.986668909672892225e-02 4.683033566447453167e-01
1.028237848648936616e-02 1.976806371108506127e-02 4.478476973038964526e-01
-9.102213875755077455e-03 4.490144799895401384e-02 5.208727623239458593e-01
2.300719827239988691e-02 4.725679664731714802e-02 4.669606977824947158e-01
3.775995254845778901e-03 4.414619670175867761e-02 5.198566297916054069e-01
-4.076904799978820632e-02 2.453929619620984909e-02 4.440126492231543098e-01
4.057877512019746058e-02 2.939543472087240150e-02 4.842139121629694953e-01
-3.750428067470615127e-03 3.471803357052705846e-02 4.499818724530090241e-01
2.221409618920693052e-02 3.266959240843657353e-02 4.582886852907043784e-01
2.762822076624265114e-02 5.396702157056751381e-02 4.882555612370175213e-01
-1.149431335863307889e-03 5.322689195950340568e-02 5.142369955570813556e-01
1.212932834180193917e-02 6.925150537117295835e-02 4.972076972332301059e-01
2.209270228859874785e-02 1.409509423950260076e-03 5.327629844523884550e-01
3.487908144464829663e-02 2.865632841365832809e-02 5.039030503714914122e-01
-2.384305499617434682e-02 4.265395627658417205e-02 4.494800624168872605e-01
4.876665980227847322e-03 5.648239873676930145e-02 4.600562543205740096e-01
-2.475230561281799996e-02 2.531840248648172670e-02 4.432165435458055858e-01
9.244660995220060906e-03 1.089831329362894556e-02 4.441735748560940444e-01
1.057093920813486493e-02 7.141737217340816957e-02 4.959459988278604459e-01
3.081345782580992634e-02 2.044564095811661833e-02 4.577804536516167921e-01
-1.900153044804857999e-02 4.411333017199974005e-02 4.507678979730856961e-01
9.548194823285003838e-03 5.403565867245910953e-02 5.111115106721869639e-01
2.189944487699489739e-02 5.285495039943444162e-02 5.037022118881597788e-01
6.151676064023868691e-03 6.788766756100464428e-02 4.671791325469203393e-01
4.046116281479189558e-02 2.929678561483170518e-02 4.866816260292000096e-01
1.283582914756994930e-02 6.987960379137844735e-02 4.955593403826256127e-01
1.234481091630201463e-02 5.927554200106432969e-02 4.653775980765090248e-01
2.259618064198452500e-02 1.673602009782261535e-02 4.504818714406668700e-01
1.942212067844756307e-02 5.408535817664806428e-02 4.678417822231120127e-01
2.456482254397955242e-02 3.899076893685837764e-02 4.635785460805250668e-01
-1.791491409162468407e-02 1.925362848651479553e-02 4.415535495001426392e-01
1.307894825748205647e-02 3.178436033204176669e-02 5.229053210049838807e-01
8.383138432065728729e-03 5.078053357407843332e-02 5.135218856553993572e-01
1.304888609171360458e-02 7.072492845183264709e-02 4.943129711288420935e-01
7.734826526668392259e-05 5.904562557117326582e-02 5.099941042038270700e-01
-5.820114097455690583e-03 5.178588244182776718e-02 5.158757057259752976e-01
1.266004806800796051e-02 3.010474542253950905e-02 4.529871333842747094e-01
1.690776653362358745e-02 4.447117700423751374e-02 4.612573441306410116e-01
3.422049243551671810e-02 2.945397553826618192e-02 5.043401584598143916e-01
3.009491426963489466e-02 4.907500779033276139e-02 4.920961929763355558e-01
2.623287522520471871e-02 8.637253574918180021e-03 4.490395824046795603e-01
2.611517031483131732e-02 5.376216919293274471e-02 4.762182872131293654e-01
1.149650368432705329e-02 4.496460721404670242e-03 4.421880379587425636e-01
3.324504899769394062e-02 3.658863586577247584e-02 5.017171382951057801e-01
-3.778014945661197638e-02 3.484525779706569570e-02 4.461253641684044258e-01
2.552298078652225077e-02 3.804034157669643895e-02 4.637803414211975062e-01
-1.146018065634429699e-02 4.825356288964556539e-02 5.136997836315948529e-01
5.610761243085880118e-03 7.511268881209502701e-02 4.750765227426112514e-01
4.808889666690360255e-03 7.704489011638242235e-02 4.803948992593394807e-01
3.673908745702497702e-02 3.785592395572445756e-02 4.857574024349103348e-01
2.157541317048130083e-02 5.594739042201973128e-02 5.004961518432571310e-01
-3.338017419043727563e-02 4.448787970131602709e-02 4.516469846737719562e-01
4.830737902985325280e-03 5.910818409947216079e-02 5.092875342668853333e-01
1.566321729982551522e-02 5.330609132749010437e-02 4.648744454701610462e-01
2.828383803227166315e-02 4.797165505114796280e-02 4.990520894004322749e-01
-2.172726098173737366e-02 9.478298143802911871e-03 4.382435979312557239e-01
-1.894796548792946657e-03 3.879798304409103060e-02 5.221220302189396589e-01
-9.983014974858232457e-03 -6.887725796977568499e-04 4.367828952652194063e-01
2.476553161785442769e-02 2.505681150899791154e-02 4.559946399580041554e-01
9.790991369484778467e-03 7.339484073011147414e-02 4.903181169468429079e-01
1.301970995464457256e-02 3.177443325170846260e-03 4.421059057904098699e-01
-2.060448660325599202e-02 4.110747437383732023e-02 5.191222162157596021e-01
-1.955752012481578109e-03 5.760786368116097012e-02 5.083487783449548436e-01
-5.044513902216352444e-03 2.109576908268491827e-02 4.444119139561398257e-01
7.523194205785125460e-04 6.579772327900972051e-02 4.990536571539783695e-01
-3.098124681447107787e-02 3.308564545200132906e-02 4.454584405995274388e-01
1.328266136681648113e-02 3.352568940625055144e-02 4.547684604963883048e-01
-7.907290219616894961e-03 1.750768796994647131e-02 4.427184355755710010e-01
7.992027655788016410e-03 6.696902393694383060e-02 4.672799778149999139e-01
3.351067700085327145e-02 2.379826988235873159e-02 4.618683954161675875e-01
-1.620201877323291205e-03 1.179066443671349107e-02 4.417761121964646209e-01
9.438432743041765341e-03 5.535847735739016923e-02 4.620257228606412525e-01
3.173537935160522516e-02 4.776451980422757176e-02 4.829755138776735679e-01
-3.503744656847750105e-02 3.111974137246912783e-02 4.447397068220907412e-01
1.988559028081828689e-02 2.612265803295194325e-02 5.244614166412723266e-01
1.137341627313559478e-02 4.860146714668529822e-02 5.143692629583275222e-01
1.736139523516365760e-02 4.801556731126851302e-02 4.632773826867159217e-01
7.664666106004132656e-04 5.765901511141228314e-02 5.108413589765032903e-01
-1.623926365343524025e-02 4.365027073879963748e-02 5.208663316824758693e-01
2.546055972733901954e-02 5.663895210167451538e-02 4.907611889516843018e-01
9.293513190312692462e-03 3.400731148534810039e-02 4.536904158775815210e-01
2.883966566551069560e-02 9.236251158654822796e-03 5.271927233626373388e-01
1.299427395427626454e-02 3.678931027595281483e-02 5.196599233070293700e-01
2.288465629938303547e-02 5.676606756002853388e-02 4.964880729091036837e-01
1.982898473657197444e-02 3.075751546368881567e-02 4.560264528946027518e-01
1.462197505935588365e-02 1.435651657367948385e-02 4.470192442734504112e-01
3.042086973039080655e-02 4.862217154185774493e-02 4.781943109617285415e-01
5.069151105908712394e-04 6.099829911612252714e-02 4.600888962549622985e-01
2.221454338708922852e-02 5.618723259697160077e-02 4.726630581836143152e-01
2.590297695588469201e-02 5.876985591848413182e-02 4.830626348913862889e-01
-1.070356790564051114e-02 2.964657663331263932e-02 4.462879208149041488e-01
3.689069550367821831e-02 2.489024461029292964e-02 5.037134798810966041e-01
3.569516533635510441e-02 4.000947165690985075e-02 4.879462352005308201e-01
-3.790187659293842160e-02 2.880494901965695645e-02 4.445571495324575073e-01
2.131470659009958996e-02 6.402825623720055648e-02 4.887707984154006646e-01
-8.239324172513023958e-04 5.615717350266410252e-02 4.575984910489363511e-01
-1.613683700227728102e-03 5.966355608924120424e-02 4.586598293426956130e-01
-4.266114465534635858e-02 3.246935172775776424e-02 4.460446311676399267e-01
-1.045625658845713950e-02 4.110498560661194484e-02 4.510313483131455636e-01
2.211399216147221305e-02 3.229796873256446377e-02 5.191207355601142881e-01
-3.162825025473893492e-02 2.770039771683992496e-03 4.386755264883151484e-01
2.924634123615765455e-02 3.552352883465129119e-02 4.651712081210042093e-01
-1.190138536309747613e-02 1.694425144946276954e-02 4.417751401223439234e-01
1.198306767914527129e-02 4.848481219177090684e-02 4.603992834825852420e-01
3.230894864180274689e-02 4.717276269898689617e-02 4.844971861999483043e-01
3.281479895644931824e-03 4.154045462314875925e-02 5.205627254204551191e-01
4.832756724415221070e-03 6.675019074106773587e-02 4.657361171449187487e-01
3.981826736049180054e-02 2.187692521931983852e-02 4.679266666253880658e-01
5.340819888140835303e-03 4.353274945964252796e-02 4.561243698738867702e-01
3.778299213736519002e-02 3.492043463379331664e-02 4.916605515669670301e-01
7.913752367285781242e-03 4.243910910275931758e-02 4.566762053443277902e-01
7.425094234372989037e-03 7.675707559726334395e-02 4.834429941516253382e-01
-2.139770041693711544e-02 8.083621020909438279e-03 4.378789800309477731e-01
-6.905981935878972681e-03 5.028158642355268909e-02 5.175547835240538186e-01
3.251798204587470417e-04 3.505177750921037449e-02 4.510690537471270245e-01
2.292533501922979118e-03 6.827881472354788150e-02 4.977017229276576304e-01
-2.664410864918715857e-02 5.482976014599851358e-03 4.378789644601790987e-01
1.961073351886525370e-03 5.697434784735481983e-02 4.588236046981062910e-01
2.876311445105844342e-02 3.965337154387768570e-02 4.673557560031441072e-01
1.734954485782479183e-02 9.031873931467182190e-03 4.456933089241836843e-01
-1.511604005967700538e-02 5.030605577985684113e-03 4.373282626850010790e-01
2.236171392444926895e-02 1.880220412007912664e-02 4.512330019289483851e-01
-2.922455491032704966e-02 3.865391289645242392e-03 4.382222226128372200e-01
1.431034623882196898e-02 3.214010278693603395e-02 4.545083242099617338e-01
-8.819428929755238761e-03 3.351927040610774150e-02 4.483902744481998437e-01
5.782281944685709225e-03 2.029927996416864763e-02 4.467922669298064475e-01
7.780513886278034655e-03 4.313778589092601146e-02 4.568646383723540261e-01
1.689073439025446516e-02 3.034881725385717502e-02 5.233430277881171433e-01
1.105805840218761389e-02 2.436526683839623005e-03 4.414265387428479848e-01
2.308501541681251545e-02 3.006181279621196467e-02 5.210200731944095720e-01
6.621881625543238337e-03 6.012248390972284307e-02 4.624527652204521444e-01
-3.259669055324367765e-02 3.453021136694596743e-03 4.389254234929453324e-01
4.095093514466419810e-02 2.815358632364216643e-02 4.855442469192886024e-01
1.484631946088524161e-02 7.051048964378825445e-02 4.915135561686969634e-01
2.700479207770160178e-02 5.318184164635265943e-02 4.922709845012804841e-01
8.030755577772637557e-03 7.633679824993766516e-02 4.834191918290994816e-01
1.875056929793610105e-03 2.989061568311190964e-02 4.493966847626077454e-01
-1.025690329338957256e-02 5.383294999623497445e-02 4.553727014717559030e-01
1.489601942634704787e-03 3.002087454069056471e-02 4.493330230516587864e-01
5.683134915290049757e-03 5.174244157277743672e-02 4.586577640921419841e-01
2.393351660273746948e-02 5.594845157892393284e-02 4.748749846395570184e-01
-1.567454731052275382e-02 -3.369097445457287093e-04 4.367156934173342941e-01
9.843667594154850708e-03 7.077436072481076146e-02 4.710947377820213222e-01
2.558162115745795523e-02 3.424587709872247993e-03 5.322656703478418905e-01
1.399979472958289700e-02 6.136400955398565310e-02 5.039555155436249434e-01
2.794416276074834782e-02 4.307643038556616816e-02 5.055569593777213822e-01
-1.719323868997754343e-02 3.786071951501886884e-02 4.485576282030489526e-01
-1.526342778419674355e-02 4.566375122033054790e-02 4.518489336305575033e-01
1.017272682508948631e-02 6.937935880346161877e-02 4.701694344432357786e-01
2.888790305925040269e-02 5.047735250408923180e-02 4.775349717694841178e-01
1.647993329114532876e-02 6.632965452170648535e-02 4.942884504571200543e-01
3.085645476263357972e-02 4.855362739820445056e-02 4.803968819702239545e-01
3.487780892186099092e-03 7.052991503768271664e-02 4.965527754456368625e-01
-2.236553638426700460e-03 -1.254553383263271212e-03 4.374059511384075782e-01
-2.481730021970525446e-02 2.938864574701976345e-02 4.445174972537619951e-01
1.387202999028948683e-02 5.016396331101671130e-02 4.622905926172873325e-01
4.158101946826569389e-03 5.985281156938966618e-02 4.608262727693263061e-01
1.061146921388740616e-02 2.579579074675269687e-03 4.413662825236051579e-01
1.571760323634071102e-02 7.144797714417308598e-02 4.856312836117931409e-01
4.514096421989567849e-03 6.566383020842432236e-04 4.393769198966857026e-01
1.894291039587870512e-02 6.827980056471109893e-02 4.818681892027688041e-01
2.214217023439202237e-02 5.747641936645245253e-02 4.969025862010099659e-01
2.672952973833362528e-02 3.779679049631961413e-02 4.645834638408853912e-01
2.363757283061463862e-02 2.429674366515500311e-02 4.549084156993336570e-01
2.168264496804473557e-02 4.375409847825711268e-02 4.640854679332567789e-01
-6.732824406113044335e-03 4.250546335121304503e-02 4.522590350336790355e-01
1.499879831187099499e-02 6.192464994448467624e-02 4.687788667370474394e-01
2.026447203654779469e-02 6.414482900049831016e-02 4.916020457322005655e-01
-2.188378224156081655e-03 5.629206091004844426e-02 5.119281929244301477e-01
-2.934450782521437311e-03 3.000729081512940044e-02 4.481770459965802034e-01
7.898347696657493852e-03 4.954166550630761251e-02 4.589424592620759968e-01
-2.090279442489421588e-02 4.242460719199662306e-02 5.186470683108486135e-01
-3.146917832914558621e-02 4.257573691618731643e-02 4.497340012515689267e-01
-1.405129016610373073e-02 1.847693242884856923e-02 4.419354156628166330e-01
1.223589379547935195e-02 1.613196267793979167e-03 4.414400244438983489e-01
9.712154931365738625e-03 1.608534326328261987e-02 4.462981436509579347e-01
9.218264213925065481e-03 4.971884872512594145e-02 5.140113235118037860e-01
2.707705159595256983e-02 3.561418407948008930e-02 5.110303628922951980e-01
1.044255364067745578e-02 6.035946730781906189e-02 5.074423460820908227e-01
6.457204843070107024e-03 1.891556556454093013e-02 4.464542535861189543e-01
2.220086100860330092e-04 4.084258757320177735e-02 4.534023535539096761e-01
1.197269514831874465e-02 6.939373173583966714e-02 4.715114100370879080e-01
6.465296402995443156e-03 5.446471782481412949e-02 4.600270585470548346e-01
4.309932617576765074e-02 2.176608858540444308e-02 4.784003753842624440e-01
1.455288364222945274e-02 7.188238401765935370e-02 4.885567378530669136e-01
-2.964931713593360954e-02 4.344873223658706624e-02 4.500703825982606543e-01
-3.544716371325673174e-03 4.641149199089580207e-02 4.541163888556371542e-01
2.024987882226086944e-02 5.950222195981376416e-02 4.974707833841307547e-01
1.869786620350809628e-02 5.989476346017251485e-02 4.995199766669376484e-01
6.539817445153283879e-03 1.756470881165023840e-02 4.459648962480436962e-01
7.026937584536660855e-03 4.101985928755807337e-02 4.558166771745942869e-01
2.434957107875830584e-02 5.442621499760232073e-02 4.972127337344094955e-01
2.496317512766848060e-02 9.044392025601446367e-03 4.485638294288895045e-01
3.930062800994515299e-03 3.708487531356986777e-02 4.531651140146318868e-01
3.056154521325958606e-02 4.656375521048866650e-02 4.757080993783040501e-01
-1.513410033289229115e-02 4.745032337429767877e-02 4.525694759815915846e-01
-1.668251492546434997e-02 6.318749056502577163e-03 4.375370860090126435e-01
5.629528056775015207e-03 7.244819395178085653e-02 4.721112014438654803e-01
-3.212908131502321182e-03 5.438720349028814717e-03 4.394764556383539689e-01
-2.859492052601435991e-02 3.260618030594593375e-02 4.453228733190747191e-01
4.166847811940278118e-02 2.639585993460085225e-02 4.843213013889862695e-01
-1.119488157203848543e-03 8.007154421619502166e-03 4.406625255841454258e-01
-3.517612602382079456e-02 -1.475825832601355102e-03 4.394217260886911225e-01
2.770054072732267697e-02 7.977651615006017133e-03 5.288409943126660684e-01
1.423440358301469866e-02 6.892197536458721796e-02 4.945421124147789116e-01
1.004608594770004665e-03 5.843437636931726742e-02 5.102672586085099660e-01
3.117534890220459431e-02 3.183637371277561745e-02 5.074228442307271436e-01
9.291044512491851079e-03 6.031174539293002873e-02 4.640903283657109579e-01
2.217475583652081181e-02 3.203806722164648929e-02 4.579350362087946102e-01
4.024572157310871146e-02 2.614218219035020080e-02 4.941501011951408562e-01
-1.565185873765221822e-02 4.414198182943426113e-02 5.207812316320151735e-01
-7.979203009044807254e-04 5.316612834515520997e-02 5.142492924663853993e-01
1.633121163093031666e-02 1.891474198829625961e-02 4.493844740107211244e-01
5.875625081482787303e-03 1.255995056962850090e-02 4.438861035042492298e-01
3.828323218045061316e-02 3.465126694891825648e-02 4.821855163376156383e-01
2.258177407094387468e-02 2.279052917272067491e-02 4.534679070406752999e-01
1.858950085382724687e-02 3.227227166075834208e-02 5.211065561010956859e-01
-1.905503329640769600e-02 2.154469153287443331e-02 4.422382445673768703e-01
-1.222271638141614672e-03 4.288400047496383760e-02 4.536676901306445076e-01
3.713461916216701658e-02 3.460704420966118772e-02 4.944582419548514962e-01
2.213582729821915104e-02 1.635466995195881609e-02 4.501787204213733018e-01
3.579082066130594153e-02 3.978306552036319638e-02 4.792782083351761480e-01
2.523578862185505561e-02 1.677559744571197747e-02 4.519685047021461122e-01
2.628789577009941342e-02 3.634506652497045825e-02 5.117219405462809512e-01
-2.354470908184745637e-02 1.927008767057981561e-02 4.413699533894164251e-01
2.253512862121677916e-03 1.162631711832898262e-02 4.426331829956778319e-01
2.577214869413948367e-02 4.593587823744842147e-02 4.685570987493379858e-01
2.131647814137491159e-02 5.152220960103562342e-02 5.062334824748189188e-01
-1.531192109952124285e-02 2.677717391133373898e-02 4.444659761671098108e-01
9.729550866892505701e-04 -6.104991383776275232e-04 4.381918337502882510e-01
-3.457920671603967929e-03 5.657735548374649703e-02 5.080529371039924635e-01
-7.686005258302474989e-03 5.188274244274632824e-02 4.551356945061637571e-01
2.316990143404936472e-03 6.387589917540184570e-02 4.628789770286584893e-01
1.243313338315528947e-02 5.343142091850509867e-02 4.629667268630067167e-01
2.794557948993512883e-02 2.711411338260764567e-02 5.176092389488486933e-01
1.032059205258465881e-02 7.512169531457277283e-02 4.812979434135740142e-01
-2.836979966999171945e-02 2.345403754182768391e-02 4.425950359015471403e-01
4.395538054082293380e-04 1.511781321315753233e-02 4.434748355256468155e-01
1.650929934186145739e-03 2.943449276217751862e-02 4.491421951407928437e-01
2.806176845696237501e-02 4.792762299857222796e-02 4.998875882429543727e-01
1.220389083337204000e-02 4.322943325741269299e-02 4.586494099080946629e-01
-5.480286794520279441e-04 5.411308588471580583e-02 4.570655690204429855e-01
3.047070568477514355e-02 2.186059008213652941e-02 4.582085955039751912e-01
1.052135684406555437e-02 3.544828258135030580e-02 4.547550815835139648e-01
2.175754448769811819e-02 5.209442546332413576e-02 5.048489940653965169e-01
-3.326938415819133410e-02 2.921483385763918098e-02 4.443140103699695365e-01
-1.391764229877024729e-03 5.035101689790895396e-02 4.558248875757487939e-01
2.899109875136011982e-02 2.666895518886569505e-02 5.166445625159143962e-01
-5.526479597550310388e-03 7.707300629617884133e-03 4.399153198551052912e-01
-1.127229045395476345e-02 6.059578308393628876e-02 4.593753977206419536e-01
3.260656874013644763e-02 3.031199524785200758e-02 5.063464275907760825e-01
3.606560725949516794e-02 2.966095562860000812e-02 5.008591814014178301e-01
8.257093527469821365e-03 3.611161572227428174e-02 5.210668013772387086e-01
9.820175341451964357e-03 7.306520271122729504e-02 4.923438933329538636e-01
4.055906339598102858e-03 2.570863341486080787e-03 4.398196279269829256e-01
7.849780858047984006e-03 1.770566818796703856e-02 4.463818117678154951e-01
1.062630267066658370e-02 1.376579559517825471e-02 4.456869222812432363e-01
2.937358653846053325e-02 1.733708623103548396e-02 5.226039832159958820e-01
-1.070802290328511444e-02 2.023701741702960133e-02 4.431422393536005866e-01
-2.067091269961672181e-02 4.181162344543850468e-02 5.189650094015466619e-01
1.425135613088073655e-02 5.170396004496102815e-02 5.113440717908889210e-01
3.712314726448649044e-02 3.737060299524134349e-02 4.827632763237502678e-01
3.376714162113864798e-02 4.360781422326278495e-02 4.794667248358641665e-01
-1.256615457462833055e-02 2.855697813125143095e-03 4.371896818508014815e-01
3.026872233805292037e-02 4.811262826760515782e-02 4.933594635607132517e-01
8.995412096168332351e-04 3.592647653393182816e-02 4.516333671853562937e-01
1.666066572043449490e-02 5.062356788768639093e-02 5.103132823384224359e-01
3.453071840863490647e-03 8.353043593748037815e-03 4.416729087493797556e-01
1.632495293429105793e-02 6.358111005483625677e-02 4.978295498850919265e-01
2.267360574221374478e-02 4.049543936807160210e-02 4.630339105921530973e-01
1.974465187205122485e-02 2.675887387333679077e-02 4.541309464455034473e-01
3.422439052299656309e-02 1.893443236320681983e-02 5.158485602725558783e-01
3.800712229328850889e-02 3.551589214361724339e-02 4.804316937938967191e-01
4.215145611910248863e-02 2.505295516401765538e-02 4.807581615952227216e-01
-1.767331781161483612e-03 5.791770027380984537e-02 5.073098284774554267e-01
-4.552225077641362111e-04 5.003847454660704380e-02 4.559827737308296269e-01
7.431011134383522926e-03 1.765323975190449812e-02 4.462457384640619584e-01
-1.306733630887364078e-02 6.057610702660662372e-02 4.596848497290225155e-01
2.765158076801131973e-02 5.555489405796631974e-02 4.837254687538249942e-01
3.736255268742597058e-02 3.034805400914157569e-02 4.704405629229350683e-01
1.570628383700455044e-02 6.918554380875945042e-02 4.920740799403416355e-01
3.732985966824301036e-03 3.581467045056872800e-02 4.525802384606524842e-01
2.960447918090386432e-02 2.382981793079327892e-02 5.177585008314375958e-01
-4.839665780822862903e-03 5.953107096210056431e-02 4.577401812608367648e-01
1.037318372575111482e-02 5.939138096133816241e-02 5.080551889910309704e-01
1.738825871238848519e-02 4.345987853065731710e-02 4.610107788575032450e-01
1.185267039930191189e-02 7.421162687331044061e-02 4.780764279692558683e-01
3.171264588354234804e-02 2.772510507978438038e-02 5.100027358398776522e-01
-4.186804748157189199e-02 2.859218203791701052e-02 4.450519836738092705e-01
3.802577891147072148e-02 2.412171373931629517e-02 5.022929931342290377e-01
-1.333761920044442342e-02 -5.320285863157152642e-03 4.364321370731447103e-01
-9.646231806100680900e-03 4.891709372903614572e-02 5.185794909451921786e-01
-1.314830526611136113e-02 3.134943907133886515e-02 4.465911789044638702e-01
-1.345641993167148720e-02 5.955323040462229961e-02 4.587819715750783289e-01
2.245893949268201045e-02 5.776524998734233057e-02 4.958097372028841265e-01
2.011073342690401430e-02 2.525457027829441231e-02 5.247267244216475834e-01
2.573497316369924293e-02 4.161686292440671536e-02 5.084225362594023689e-01
4.077317367315503455e-02 2.904852673204966207e-02 4.833815912249584401e-01
1.113142240790415856e-02 2.398131324646634449e-02 4.497894439098300001e-01
1.019306712485677606e-02 1.775170499693958653e-02 4.470590350909326993e-01
-3.058963599162438027e-03 4.480386258106421743e-02 5.205017081799711010e-01
8.989897112860545728e-04 3.436688436838059024e-02 4.509844385078082829e-01
1.020134705696631137e-02 6.382698878564896372e-02 4.664021140548021971e-01
7.727648847184727041e-03 4.428210060600040049e-02 5.187691270431600277e-01
2.037182929989825655e-02 5.902560537864470075e-02 4.980176830850083780e-01
2.798050047932740952e-02 5.145268239949269545e-02 4.770149354809250508e-01
2.196762456902731642e-02 4.627091608210209123e-02 5.090081139758939610e-01
-1.356242118607841468e-02 3.564643734677130221e-02 4.483428043491452519e-01
-1.323166701031307235e-02 5.759740377919547391e-03 4.379135991633000824e-01
2.087089053658147328e-02 5.459657819555863850e-02 5.032071208974090437e-01
1.010020090753532829e-02 2.456438853388319757e-02 4.497124328949572702e-01
1.323726522672263872e-02 2.536211309276261913e-02 4.510723616884427245e-01
2.424198188661006934e-02 6.136229632001403977e-02 4.824610374336498198e-01
2.810423745385146749e-02 2.996851951148980786e-02 5.143083521581536255e-01
4.110986597506209941e-03 5.171800187029741008e-02 5.141472479681603591e-01
8.724237774366630851e-03 3.191045445010138454e-02 4.525345384482960531e-01
3.843335503632296091e-02 3.375782755551517272e-02 4.898249949726312669e-01
3.594138817372259653e-02 3.781364253197994074e-02 4.941372203726799306e-01
-1.997209826051395132e-02 2.563141814127523066e-02 4.435412545079017166e-01
1.653601030950880429e-02 3.591538690326553235e-02 5.192092341216960616e-01
3.990637788962930754e-02 2.411004116944642436e-02 4.702182331344324506e-01
1.833158469950234640e-02 4.191215849740998617e-02 5.143892472202666877e-01
1.860323214711834608e-02 4.079409074017056186e-02 5.146970370885776136e-01
5.635399632902665309e-03 2.263728166513332210e-02 4.476977048805059756e-01
3.454538427265780448e-02 4.304377617157852803e-02 4.808456940072944885e-01
1.599774264948764305e-02 5.334011152221032614e-02 5.095647818466558787e-01
-3.588895122810911026e-02 2.796721536037168054e-02 4.441423158892245926e-01
-1.544609126455726705e-02 2.815582272115797410e-02 4.448941807875039789e-01
4.567775480526040446e-03 2.068820528165963082e-02 4.466090786954451386e-01
1.719898159425424511e-02 2.515543641171663625e-02 4.523721710174092303e-01
3.535989859616474329e-02 2.232330917077425536e-02 4.626439225724106041e-01
1.772629260071169680e-02 5.979336135658408491e-02 5.017588017278228341e-01
5.351243041055360819e-03 7.355150590457769366e-02 4.732598001253200959e-01
2.083593593019682222e-02 6.435658333572724654e-02 4.896850647817999058e-01
4.230644937133436895e-02 2.420210311083474675e-02 4.860739088981085865e-01
2.492064762991538091e-02 1.153719933083032466e-02 4.495013546804868532e-01
1.187033481323435460e-02 1.542024004913244463e-02 4.466900698888704446e-01
2.225548118558488830e-02 3.583384580324366908e-02 4.600369339599899576e-01
1.636427021870535958e-02 5.820451930669633817e-02 4.678312270788694827e-01
-5.289843610057184259e-03 4.730308016159634477e-02 5.198833127027185919e-01
3.761730043951573739e-03 2.700060391259655884e-02 4.487872913340198999e-01
3.784682423684783414e-02 3.446832226323581078e-02 4.920319454750392008e-01
-2.072595773526295440e-02 2.817911659916344860e-02 4.443002806403562599e-01
