2.187508111397038629e-02 6.427445281287214041e-02 4.858190830570243701e-01
1.704621741196089661e-03 5.373483623375630708e-02 4.578665284638541721e-01
-2.314650314906557989e-03 4.096576725038425515e-02 4.528196590581064496e-01
1.622624378196665246e-02 4.274233844949769379e-02 5.153738057132818406e-01
3.404756415935836222e-02 4.216197783271221494e-02 4.783822680615976153e-01
-2.896686572509526644e-02 4.099223815107971847e-02 4.487420520717914640e-01
3.405892489949618324e-02 3.124122453653755543e-02 4.671706220096211171e-01
-3.276637089337226198e-03 3.018603805975663898e-02 4.483225794856867119e-01
-3.092206653268032499e-02 1.534202067610009913e-02 4.412042992502716032e-01
2.806051474603220297e-02 3.050384746372425057e-02 4.613850926431193877e-01
1.198680272695814251e-02 7.356132132751781738e-02 4.774694430581859494e-01
1.352583727403116817e-02 4.419493482458900641e-02 5.159732932448664045e-01
-3.430920605396034495e-02 2.260227381538666702e-02 4.428316214901333869e-01
-7.203262371294988885e-03 3.245675794469717046e-02 4.484016959214199849e-01
1.189412849725573693e-02 1.501744174255224828e-02 4.466702586408898834e-01
-3.203493849690995654e-02 3.011302157137976665e-02 4.446522396851170789e-01
-1.765247267948283003e-02 3.817708774362972568e-02 4.487788965775968975e-01
3.877525370476047131e-03 7.666869187594242685e-02 4.782821408053685719e-01
-9.959424888747169316e-03 2.638146100764394292e-02 4.454349011505359113e-01
-3.310267217584741961e-02 1.842420839807876447e-03 4.389557160276828518e-01
-3.103025911782444392e-03 -1.468188623054141745e-03 4.373187668802054895e-01
3.475007260443341295e-02 3.725346277692789115e-02 4.989396261414903999e-01
2.695213427523715510e-02 4.860655280453257676e-02 4.730555781039590957e-01
3.057757172762096132e-02 4.796648951866355759e-02 4.781276556778780717e-01
2.445813390454306194e-02 6.077613584950760511e-02 4.827624028772170561e-01
-3.482338666258538717e-02 3.114718860186100127e-02 4.448612953742469012e-01
2.043366336195892238e-02 3.987596318897868725e-02 4.614322953359603074e-01
1.241383139766340411e-02 5.028379628929197792e-02 4.618070962482156983e-01
2.365145952774693958e-02 3.069542730625340887e-02 5.196766454416068548e-01
2.894842620489116239e-02 4.514000164748055433e-02 4.718625703995279475e-01
-1.248303786778912766e-02 4.139422379145215464e-02 5.223161150850715861e-01
-8.098967357418395546e-03 4.446802721759267329e-02 5.213666736781323863e-01
-2.969356903580213161e-02 1.807082976292651022e-02 4.415835536580158260e-01
-5.056601120922798662e-03 5.292052512946673198e-02 5.153756649643185250e-01
-2.994684886149673233e-03 4.160006267073213665e-02 4.529177122941853151e-01
3.706000138711482844e-02 2.321164038694555065e-02 5.047666077481768321e-01
6.266349429714787242e-03 1.005998647418009616e-02 4.431192974108661975e-01
9.152969210065562550e-03 1.748338422603051140e-02 4.467960995316714312e-01
6.098187649370727034e-03 5.746856676175086942e-02 4.613386946577279213e-01
-4.094094542004968196e-03 4.924881145819717809e-02 5.190071417801533915e-01
1.317322058003725718e-02 6.039267100240455766e-02 4.667998402741093678e-01
-3.395028145496256991e-03 4.273637503764170231e-02 5.214758103322801874e-01
5.011981395465220021e-03 2.415610726670768330e-02 4.482595980769966681e-01
3.441116144409152311e-02 3.030540159541074766e-02 4.669371323345559710e-01
2.871883381331550092e-03 5.301442769034407643e-02 5.139532425952318961e-01
2.246984064775551029e-02 2.261849368180163591e-02 4.534945406276442159e-01
7.142533118885359411e-03 5.173397375833677786e-02 5.135430878312534642e-01
3.561136474611427405e-02 3.965255680322765652e-02 4.906346097716584587e-01
-3.210346350606349541e-02 2.363540191784320975e-03 4.387744250949916491e-01
2.902878321048182539e-02 4.132665403273490246e-02 4.688446153828008667e-01
8.221608072728429223e-03 4.342244122903114213e-03 4.414012773948223778e-01
-5.333379132657497038e-03 5.376905247544092742e-02 4.561405507451595787e-01
-2.205675446334673037e-05 5.325519886789865931e-02 5.145073661819908883e-01
-8.186646688234908847e-03 6.032881245164749967e-03 4.390510311151614165e-01
-4.578485527650770492e-04 3.182363332196989913e-02 5.247624200613074663e-01
1.585298725725201724e-02 5.050144167562656272e-02 4.638853379767257645e-01
1.523204751741979827e-02 6.129234137619340994e-02 4.689473139784561817e-01
-1.963496693015896744e-02 1.338841579425969520e-02 4.396596561124611058e-01
-6.769070387736103069e-03 2.968692133750743672e-02 4.473199866278004810e-01
-5.175280885444512834e-03 3.904261015190796380e-02 4.515987647591506171e-01
3.451249683232043147e-02 4.245635195643088916e-02 4.803616565853693343e-01
1.691233639575735401e-02 6.990434860525568395e-02 4.857680025257619660e-01
2.208457709367542959e-02 6.209541262337400780e-02 4.786815447708461235e-01
-2.827006571269561480e-02 1.770600005183031733e-03 4.379392369013082598e-01
-5.714118585270593076e-03 3.466855290084373820e-02 4.496967164596708533e-01
-2.931828554028299838e-02 3.964907323901779856e-02 4.481405501364330579e-01
7.202249934777683188e-03 3.679863845162049257e-02 5.213188401830496366e-01
1.596892397545411624e-02 2.085924156752337957e-02 4.502012195946525352e-01
-1.013799469263829134e-02 1.788895358429111460e-02 4.425688762975232282e-01
2.491579600774396566e-02 6.005817386480934161e-02 4.829828734928845457e-01
4.563606342219632406e-03 5.500014016462825145e-02 5.122102069285352499e-01
-2.571746118127079053e-02 2.048986893525341427e-02 4.417673590275947859e-01
-1.168563160373819326e-03 5.196207719426280958e-02 5.159303025081739547e-01
3.579053124693727141e-03 5.554778681385957179e-02 5.121903243897369951e-01
2.108148287849691271e-02 5.344169766638018348e-02 5.042516332129619583e-01
3.127055207126721442e-02 4.531714489306205157e-02 4.759705495901779826e-01
3.806226024452118856e-02 2.601796596005985160e-02 4.679771361143357788e-01
1.176146702127553109e-02 7.362992815237290323e-02 4.772803762777573788e-01
1.155324740459787343e-02 9.519642062699271157e-03 4.443188204201407032e-01
1.139325249225299486e-02 5.335140579538907857e-02 5.113317565087729388e-01
4.942092523087917091e-04 8.928511179426824179e-03 4.413201990919425888e-01
2.837402468628821839e-02 5.351877061971126864e-02 4.834018040305424480e-01
3.893171271305720382e-02 3.306592392963710741e-02 4.800873401892372661e-01
3.542586416531809390e-02 3.697340097328296465e-02 4.969686493888374468e-01
2.779371039065434146e-02 3.703091734983354061e-02 5.092558876158458370e-01
3.232104611426100255e-02 2.585941061574691113e-02 5.105066986079983549e-01
1.736876977255224705e-02 4.538013423651263145e-02 5.131818285811530211e-01
1.687514376956951445e-02 7.012800013926936971e-02 4.807036798375110553e-01
1.535285736692672785e-02 5.498916649699040621e-02 5.092008875259288470e-01
-2.237584241505712751e-02 1.801644514996671512e-02 4.411038401979852086e-01
-1.931938924407516217e-02 3.757995296518504280e-03 4.370592466638771323e-01
4.779447172578049977e-03 3.319781350475947690e-02 5.241837851224608880e-01
-9.055929252730399864e-03 2.249664893703791704e-03 4.377655657053067806e-01
2.936203799944950288e-02 2.575277249233521443e-02 4.595155151546322925e-01
1.080468756376028010e-02 8.811232912913628812e-03 4.438271552540679621e-01
3.539429315822806288e-02 4.035340403207696158e-02 4.883050508574721116e-01
5.707221018358148504e-03 7.786378348811080763e-02 4.799030379734304796e-01
2.473574054255935073e-02 3.168058346862786395e-02 5.165887364109620350e-01
2.066157941733293146e-02 5.921406491474119627e-02 4.972754722798309879e-01
4.836513232380562459e-03 7.761296141756121592e-02 4.774216369532452431e-01
4.959778710784468365e-03 3.485562342372889449e-02 5.226838289886011069e-01
1.276721031654838578e-02 2.361987361628374582e-02 4.503091259152214310e-01
1.716239456481605252e-02 2.800607329148468994e-02 4.538529154941571275e-01
-2.208809647671896789e-02 2.438094094231424338e-03 4.368222445372771379e-01
2.982156074894110054e-02 4.919087208174353909e-02 4.781366430716680882e-01
2.267484038297125359e-02 5.582336691537969492e-02 4.734541361007577054e-01
-1.446108970065806097e-02 9.434420447542054416e-03 4.387033041475534856e-01
-2.384441009973442202e-02 1.817425600674969777e-02 4.411150291203260188e-01
3.366437880307810576e-02 4.435973420183712823e-02 4.855489109084432098e-01
3.162066300200810920e-02 2.496292018859206860e-02 4.610683175430532743e-01
2.457904911303332093e-02 1.982006306951318228e-02 4.532865824879714900e-01
2.881590987441250834e-02 4.283189846779818233e-02 5.042438479412043595e-01
-1.936101007772026480e-04 8.099796529632675643e-03 4.409232458068859661e-01
3.393029367171854216e-03 7.310980093373592448e-02 4.734877629337858052e-01
1.066591814634566121e-02 6.408834992315740053e-02 5.044689240839297373e-01
-3.303216928823612952e-02 2.536943410967894622e-02 4.434143938126252071e-01
3.335616360410072201e-02 2.220395192429261422e-02 4.610266892592008725e-01
-7.299623125327656115e-03 5.489261549111076888e-02 5.116489305416200839e-01
9.480383209320921920e-03 7.526998969004528028e-02 4.865144251431073319e-01
1.378966466856577748e-02 7.220199597625551191e-02 4.893655992137388444e-01
3.325601540667222356e-02 2.516808674396490975e-02 5.094108471376704861e-01
-2.625007119204666312e-02 -1.019254750566613889e-03 4.373351938076312506e-01
1.167802734085063993e-02 6.016539534073327145e-02 4.657257854051540247e-01
3.850744834025168761e-02 3.193530796975540403e-02 4.926405838920852043e-01
1.576181951885588864e-02 5.086855421711649478e-02 5.109242049163562616e-01
-2.824835906283145251e-04 3.479874310670610232e-02 5.237194562385182328e-01
3.311573834740571751e-03 6.520086933694804743e-02 5.062258901840395175e-01
-1.922672474490229669e-02 4.034782852359138083e-02 4.494119925408266436e-01
3.245498073640805392e-02 4.328737494788868767e-02 4.757046156749735744e-01
-3.080977917092865212e-02 4.354526907726151419e-02 4.504558185369136325e-01
-1.956885606033365033e-02 6.240148021907965942e-03 4.374785176318683466e-01
1.627841119350767127e-02 6.172698274081742792e-02 4.700253882848394182e-01
2.594292591665780037e-02 1.813592955141735130e-02 4.532190019344106147e-01
3.256602280214161010e-02 4.132174399498785011e-02 4.733584764808758116e-01
2.248608559052271694e-02 3.749260168433253548e-02 5.143821130883319270e-01
3.282934807385945453e-02 2.216510232968452523e-02 5.150000147946262041e-01
-6.427961701405323844e-03 1.488913169014127388e-02 4.421739015827047536e-01
1.470171170464134799e-02 4.818701297349329421e-02 4.620782770675173068e-01
-3.028088227940763794e-02 2.098566529847771620e-03 4.383675467673620596e-01
7.285844948989901940e-03 1.847913530590765407e-02 4.466520404833322355e-01
1.824628454951312401e-02 3.591561742800075674e-02 5.186965927281019795e-01
-1.955644465262448145e-02 5.478900406089545760e-02 4.558489967010512789e-01
3.748016871721666227e-02 2.859129529925267046e-02 4.689818343765195796e-01
-1.911155128280676765e-03 5.648957980452519977e-03 4.397958614529323129e-01
-1.871195496813902320e-02 4.356125463604461345e-02 5.167688599512801906e-01
-1.190843746967157855e-03 6.372558938626991798e-02 4.622418047738965363e-01
4.108073433804252522e-02 2.712887993450504090e-02 4.874485770537071994e-01
2.407505982349246454e-02 4.276757430908625923e-02 5.095235930574665284e-01
1.870686720258419797e-02 5.818017133708584983e-03 4.449123099660968195e-01
2.845770674947798590e-02 1.537951454641125863e-02 4.536969491315633318e-01
2.035810182213936004e-02 3.772594299562082726e-02 4.601313980318444963e-01
3.345391821248235031e-02 3.749097458149838746e-02 5.010117692162276981e-01
2.273803633408669721e-03 4.429875831472195047e-02 5.203859772804328987e-01
1.137256877801862479e-02 7.461077836945066710e-02 4.814589419808022464e-01
1.460235679694101008e-02 6.628960693140428795e-02 4.716216582261089640e-01
4.002186580833277246e-02 1.999445428229527921e-02 4.671255159486735753e-01
-3.884476101927872294e-02 2.436280266329303099e-02 4.438225964551776315e-01
4.022534853261792998e-02 2.089608004890239693e-02 4.683981126906799353e-01
-1.689752562756469557e-03 4.836967504900680642e-02 4.554286899542115963e-01
3.188499563179306162e-02 3.578181278428162887e-02 5.039773099529529787e-01
-2.915773849169326845e-02 3.048598414681189580e-03 4.381879995232332292e-01
3.938392476301091905e-02 2.775212544975416348e-02 4.733888572895144642e-01
-5.641076487532928167e-03 4.670515587297084659e-02 5.204839303644447357e-01
7.427830090126010670e-03 7.551125719477669307e-02 4.768618950177577753e-01
-1.729603888018713120e-02 4.847997491244776525e-02 4.530068786887949672e-01
8.489928144549373223e-03 3.124123274459352645e-02 5.249632043893726063e-01
2.044651582135000034e-02 5.214292324895368480e-02 5.068310353340661489e-01
2.824245169724378876e-02 3.375205042906558039e-02 4.634948438566324214e-01
-7.302014322844016178e-03 2.357820113533940637e-02 4.449893649404933482e-01
-2.389129316892391400e-02 7.723616680810353394e-03 4.379686339743858459e-01
3.641585975050749824e-02 3.521626249473648607e-02 4.743451923947420990e-01
2.605933506116102100e-03 4.865706513052096838e-02 4.566615608120586089e-01
3.645474941921532375e-02 2.546437832645061586e-02 5.039277337115897204e-01
-2.575201819194544370e-02 2.793212814877249831e-02 4.442257304475832891e-01
3.027193107503640263e-02 4.520357856760721937e-02 4.992164223775390486e-01
3.371239753473441458e-02 4.439741037849774530e-02 4.813183272934480339e-01
6.304393064635349306e-03 5.781478498335849980e-02 4.615928865829259653e-01
1.843317545122187540e-02 3.527706863153958622e-02 5.194501345012527693e-01
-6.308448006327490101e-03 4.856103622989896285e-02 4.544902317935418101e-01
1.534995452491444423e-02 5.205159009881325100e-02 4.643544434499343176e-01
2.322947745452617896e-02 5.311864456296838677e-02 4.718998000668556125e-01
-2.563422114247734633e-03 3.463981884529955535e-02 4.503855218484936196e-01
9.627792952733861889e-03 6.933636046231819727e-02 4.997156039135834948e-01
-2.807727094410555208e-02 3.824806879906772483e-02 4.475956974959005019e-01
2.335988359585417992e-02 6.012827964225875982e-02 4.903465300831305607e-01
1.215798274547069506e-02 6.945349551989665748e-02 4.720660560428954766e-01
-2.339701651889377135e-03 4.771490294631807599e-02 4.550556805791707848e-01
9.282711691489599001e-03 4.166306778670542804e-02 4.570946325709503988e-01
2.400360231510193648e-02 2.464939642916304241e-02 4.555034026612730935e-01
1.235411531177011552e-02 1.781971373824480995e-02 4.478869695365940151e-01
-6.341789090175799573e-03 4.541428500243512717e-02 4.534412765141422885e-01
1.621910411726308621e-02 6.875371531254721724e-02 4.758152762566744687e-01
-3.637479688615116724e-02 3.727243064559977725e-02 4.470098427500399652e-01
-2.228163523124056591e-02 4.571583552288660535e-02 4.514651710927304884e-01
9.062694123584716724e-03 3.986703240765687023e-02 4.563241096011482756e-01
1.813382353496533275e-02 6.660096331197792874e-02 4.763612679929301597e-01
-2.654271211920206444e-02 3.031666681358586440e-02 4.448329410697176023e-01
-1.962712535387590995e-02 3.989925138569345997e-02 5.207471249059790752e-01
3.400571403658839836e-02 4.214436260202805706e-02 4.929056919981102403e-01
4.110231180433496917e-02 2.703564993771295083e-02 4.788660878197353865e-01
-1.573696630468112909e-03 6.485787718681121361e-02 4.630323885594038735e-01
-2.335813746902076597e-03 5.834864097144081690e-02 5.061216316405516835e-01
3.196378537897216071e-02 2.210801532780674178e-02 4.598408665171018206e-01
6.752565225294625273e-03 1.692090539402853894e-02 4.459061330802601697e-01
3.690680853803481043e-02 2.306794162671165632e-02 5.051224093173707352e-01
5.100411501244266586e-03 6.153916388208242189e-02 4.626419757805393385e-01
2.243354417419417268e-02 3.762458899075721980e-02 5.143017492805218582e-01
1.947641930574080249e-02 6.731250559298919411e-02 4.821876986478776939e-01
3.594199652519170646e-02 2.456453016972453413e-02 4.648141369634086750e-01
1.802654084966648015e-02 2.640799574437910704e-02 4.534552446719001817e-01
-2.016794660332000069e-02 3.423083981996700997e-02 4.467696847665023618e-01
3.206481144655970970e-03 3.731935219625145267e-02 5.220753950110851305e-01
-1.652043855793947080e-02 2.734678574144877583e-02 4.446099102947887460e-01
3.335239864392618159e-02 2.217833798223437999e-02 5.139120732876352182e-01
-1.389082923542508952e-02 4.391790689386085300e-02 4.515614318577197417e-01
-1.932503222405643900e-02 4.734475312782630840e-02 4.525188768808268147e-01
-6.069621788098158652e-04 5.344051612595188822e-02 5.143999901953356657e-01
4.037920900798737389e-02 2.871130579568206484e-02 4.782113329453224759e-01
2.429697614598271341e-02 3.673364488348288687e-02 4.622880420158651527e-01
-3.301576152059298996e-02 2.336480982650627689e-03 4.389680781636015050e-01
9.899303096308804603e-03 6.631202379102708877e-02 5.023712784965421729e-01
-1.682975474326967036e-02 4.445355647664464560e-02 5.164816941538415973e-01
1.101069924013157141e-02 4.022611065851480761e-02 5.195282337538782436e-01
3.035370827601453075e-02 4.931460901357070242e-02 4.818687715379171843e-01
3.497022583142889163e-02 3.805982725989152937e-02 4.968015798036449771e-01
3.618128065021739698e-02 3.667510002434025418e-02 4.758228544107995228e-01
-3.910567220530972166e-02 -1.314100126905077930e-03 4.403188720104871390e-01
1.467836699385873488e-02 2.604096693796221010e-02 4.519992669176471356e-01
-1.189568576060488249e-02 4.363229171018805780e-02 4.518136872307129126e-01
1.093557896738205082e-02 2.962235524620573240e-02 4.523753600802314923e-01
-1.751620057970022099e-02 4.906437900869820706e-02 4.532362009747148424e-01
4.213631008283034302e-02 2.500725414839897673e-02 4.817229627143690407e-01
-8.833841065710931750e-03 5.395767332738351379e-02 4.557682546738129337e-01
-4.787241114528048742e-03 -1.631674805977143157e-03 4.371074186287298713e-01
3.684808746250327338e-02 2.431738856215752073e-02 4.655678816453310276e-01
3.197100770417302812e-02 2.472544936732637075e-02 5.122699361047342581e-01
-1.188903178643325835e-02 -1.104477937360493888e-03 4.367513578406273522e-01
3.650657492289090256e-02 3.852911101237058156e-02 4.828525228836568206e-01
-3.397542608591062191e-02 4.036699347792187947e-02 4.488378664584355970e-01
4.811011430298548983e-03 7.363487222656363296e-02 4.736053485611559921e-01
3.141084372883044817e-02 4.607643094502793940e-02 4.772750279426137276e-01
6.582248950440975667e-03 2.475545146804027097e-02 4.489554381653636517e-01
1.461522143160965889e-02 2.255024115574978671e-02 4.504765204107987198e-01
-2.971080422230337574e-03 5.113704641645625687e-03 4.394720431974536434e-01
3.844564152605148971e-02 3.330668759810976459e-02 4.906644846143518035e-01
3.718300595768103678e-02 3.075261384745833076e-02 4.709120195305686041e-01
-3.491690982208806027e-02 3.245718541376661076e-02 4.452974009845557246e-01
3.877581028367712429e-02 3.188970220840082331e-02 4.916979874969350517e-01
-2.569131542088058662e-02 3.007313007083809928e-02 4.447908804801088412e-01
2.620662953011598795e-02 4.567017095546581362e-02 4.690966802652967171e-01
-2.758783162608681450e-02 1.009171713499665279e-02 4.394457348518207018e-01
-3.970798015450727192e-02 2.989990388287853962e-02 4.451380771571667450e-01
-1.316168576500638225e-02 3.351789537630021215e-02 4.477153165654420008e-01
2.898935236322014788e-02 4.652513283197622779e-02 4.735634975718490680e-01
5.080892591602318396e-03 5.144237535156562929e-02 5.143796559018040115e-01
-5.495398288495300862e-03 4.894044713944415564e-02 4.547985463571688203e-01
-5.624444079718481093e-03 2.374769908450375527e-02 4.453583848557890468e-01
5.883252581389726565e-03 4.489931201542096684e-02 4.569987407973652438e-01
3.924148237884830803e-02 3.231980035814707025e-02 4.814832225175871838e-01
2.874357119711697800e-02 2.578797241360136772e-02 4.590632176011451571e-01
2.938503492157568467e-02 5.108846739623015831e-02 4.820829176063277655e-01
-2.150762787918638827e-02 4.148883323192117251e-02 4.494772805113598779e-01
-1.361225584533084891e-03 6.647753865053179778e-02 4.642773457825180028e-01
1.702097624847315541e-02 6.902433393996300348e-02 4.779477779682769767e-01
3.523113280454208407e-02 4.026145191032604043e-02 4.912484231252710609e-01
-3.014872765216300779e-02 4.377240990576179366e-03 4.384820968519815843e-01
-9.400002094976493000e-03 2.020509853940181261e-02 4.434843561768792020e-01
2.255627120268753616e-02 3.952802354356945574e-02 4.626999638451358421e-01
-1.061651768462346969e-03 1.692129722440707806e-02 4.438894910277298989e-01
1.672375276704768723e-02 4.003966053003418096e-02 4.594055090345773307e-01
-7.950709352085055803e-03 5.977836089563606792e-02 4.582788950456522237e-01
4.222557259248727046e-02 2.445511576590926259e-02 4.848835536362189891e-01
8.151287062257131857e-03 5.767643216115421467e-02 4.625999162941906162e-01
1.598561526011433101e-02 7.026673595128828109e-02 4.776385940934319008e-01
3.248810000598776476e-02 3.471290735212804318e-02 4.678087413779287163e-01
-2.224298666731718867e-03 3.897763667193147874e-02 5.224836304066613479e-01
3.451279644654822731e-02 4.160154870741376854e-02 4.789035197411614098e-01
1.485113805264850345e-02 3.454544005598154943e-02 4.560900481403859508e-01
-6.437649575620819388e-03 1.922457240898114289e-02 4.436455932763033738e-01
1.713635402087687262e-02 6.880805401329850857e-02 4.893721321755242770e-01
-2.566647834772389780e-02 1.143070806828338538e-02 4.394622375167152595e-01
-1.054021764917325785e-02 2.935721658367399650e-02 4.463469889074331287e-01
-1.884060908570381158e-03 5.829718326295686009e-02 5.071874507363368645e-01
-1.295139483898302777e-03 4.914121195160985056e-02 5.189070282844496784e-01
-1.013818650419245036e-03 2.081540083135175606e-02 4.453617675436566392e-01
2.916871850821730477e-02 2.131146727895456838e-02 5.201426388413984414e-01
3.326668054952111597e-02 2.156178106906574132e-02 5.148657334690320830e-01
3.047432749562345097e-02 2.567719204923918364e-02 5.152443885529842671e-01
3.914795867710881699e-02 3.044976240907327700e-02 4.922575793633047203e-01
3.584408308500820761e-02 3.570884506173207379e-02 4.735489720740618247e-01
1.933450026380817421e-02 5.026799826762772677e-02 4.659708687070726607e-01
-3.342246541610302719e-03 4.662983029892548564e-02 4.544562353837586777e-01
8.973283653408197641e-03 4.298812681941480834e-02 4.574720339004991754e-01
2.831711875234653106e-02 5.347867193726090623e-02 4.825921393730916997e-01
4.160327812136521003e-02 2.549212191184775309e-02 4.878475807328022107e-01
1.933337219670777651e-02 4.627439947591164421e-02 4.640898788086919580e-01
3.074289096900913176e-02 4.218319516896116422e-02 5.016385336952552398e-01
-1.263968188173233802e-06 5.174605247686055176e-02 4.568102928650413230e-01
-2.020166549837077580e-02 5.837925910365581589e-02 4.592231166298241796e-01
1.210650607755697772e-02 6.568883780009682205e-02 4.691343705693886146e-01
1.620480276333974463e-03 6.384065060613328124e-02 5.064918685663938325e-01
1.820745694758131583e-03 3.233072031414416930e-02 4.505581056684117014e-01
-1.202477658542460380e-02 4.924147583928863842e-02 4.537073306514931570e-01
-1.522188291346300397e-02 2.843369929570842627e-02 4.451472029628008031e-01
2.038949621084849839e-02 5.553222596545763501e-02 5.028138813662061946e-01
1.596779108912771070e-02 2.106460482688446781e-02 4.502852714821755087e-01
-2.618469832175781414e-04 6.479824576478794562e-02 5.003072398735829429e-01
4.727508995015605557e-03 7.221848407862047070e-02 4.917434263115416648e-01
-1.520141144853145998e-02 4.453021437775925295e-02 5.146220908605304567e-01
-2.364097388552173495e-02 5.062656400670462534e-03 4.372642261416090914e-01
-1.289701156675155010e-02 1.096916828324957099e-02 4.395260718314186188e-01
-4.563143628025589406e-03 9.995765786228922450e-03 4.408512336092398343e-01
7.406353119898516531e-03 6.649328757044437044e-02 5.038892318890121347e-01
1.154119350220493730e-02 4.464579076645006778e-02 4.590887424032973341e-01
-5.002338999794258070e-03 1.278946563404605337e-02 4.416548948376508577e-01
1.334546160476465446e-02 6.723568702239302031e-02 4.978001376242627840e-01
1.043460081505394668e-02 6.091231198412334902e-02 4.653830182675763316e-01
2.315684278908358359e-02 1.999595574024867067e-02 4.525118563798331550e-01
1.832609486714879138e-02 3.638806894998743158e-02 5.183636041646122461e-01
7.890358581408832631e-03 2.831429579927140922e-02 4.507622159123905736e-01
2.003024676955481725e-02 4.151478333827069572e-02 4.620436134486221591e-01
-1.810162150639641962e-03 3.313497367959388623e-02 4.498987747161340423e-01
3.291028018768475671e-02 2.021290793637373767e-02 4.595780616597171520e-01
3.232647481671550860e-02 4.370471432321278160e-02 4.957325522665617101e-01
2.449651511429214168e-02 5.511707791604601725e-02 4.754078147397811649e-01
1.980836863523085384e-02 4.205841274089357901e-02 4.621859883964065663e-01
-5.960216029740617906e-03 5.302173584395714068e-02 4.558205875332200785e-01
-1.165448774125936449e-03 4.013009066211334352e-02 4.528779339921121805e-01
-1.227262349769731899e-02 4.561279360985718428e-02 5.212569890458209620e-01
1.687730366471849180e-02 2.982541971234776990e-02 4.545940278490480657e-01
1.969022590112484358e-02 5.321121903109946732e-02 4.678480684884040453e-01
-1.160136826086680464e-02 4.597007581717754005e-02 5.211338586226744729e-01
2.953165221158432930e-03 1.832734222213927740e-03 4.394286934329892369e-01
-1.696311930221459582e-02 4.203450332533514855e-02 4.504510460686911855e-01
5.201095858961130719e-03 3.178868097805331860e-02 4.514667916025205674e-01
-1.192498468984229051e-02 3.768243852913519959e-02 5.231612815112449688e-01
3.013634769318624534e-02 4.438745958469847430e-02 4.726432050431132459e-01
4.886039323402126267e-07 6.234096286048131791e-02 5.056156671165715766e-01
3.747065751039259374e-02 3.616115152450774528e-02 4.829378855667577630e-01
-2.571663615073607051e-02 1.837046294342449537e-02 4.412529876588763833e-01
-2.043790812969508222e-02 2.041952058907391468e-02 4.418835422438134319e-01
3.802069468048524352e-03 5.541128004277070390e-02 4.594087585506813065e-01
2.378500743889661387e-02 6.055547278395369271e-02 4.793380857856940902e-01
3.758846681537178491e-02 3.282130729898712074e-02 4.948788145193209198e-01
-1.271061482708977716e-02 1.109208988177347484e-02 4.396127365100446771e-01
4.208463107851030671e-02 2.409182963750345144e-02 4.878100432205187409e-01
-1.930409275436923387e-03 4.159389435336350443e-02 4.531835763307824338e-01
2.031244565960787715e-02 6.228326432920031769e-02 4.758359887155681478e-01
-4.371926946580844894e-03 6.350288950447872949e-02 4.615334975130690465e-01
2.836341414021141191e-02 2.456414040099150903e-02 4.581198648250355832e-01
-8.404265646892606495e-04 2.704549376655907694e-02 4.477051115673150727e-01
8.470811377051159358e-03 7.593938840757702424e-02 4.833495249565493701e-01
1.614295647907879657e-03 6.691332789476375775e-02 4.991144931691636200e-01
1.631885006477266226e-03 2.593195049674141498e-03 4.394202002215287228e-01
-3.602617218456740517e-02 2.567181223152998661e-03 4.396490735046405529e-01
1.551863271380784538e-02 6.718752964909346925e-02 4.729842227564555190e-01
1.218700833396384187e-02 3.941408650625338045e-02 4.573489201731655296e-01
3.603967269791114036e-02 3.984493397533030168e-02 4.819912553660917753e-01
-3.201857255533439167e-02 3.162951074471380408e-02 4.450504144140383644e-01
1.813927724675406736e-02 3.648246218746144243e-02 4.583335836626915571e-01
-1.081604325823212233e-02 4.067317818257064517e-03 4.379568323776526495e-01
8.689772434417370253e-03 6.607788152683663485e-02 5.035684305141759909e-01
2.254492587797542885e-02 5.802130126159803919e-03 5.311780273512998196e-01
9.138654826178976105e-04 2.198184495343441167e-02 4.462689593972912205e-01
1.347355786740368593e-02 4.854926573856436361e-02 4.615581230999319939e-01
-5.877579121038976548e-03 2.188449832989308903e-03 4.381183236456795971e-01
-1.359320413626536120e-02 3.601383638956544980e-02 4.486530057768368107e-01
1.036572992297664711e-02 3.327623564631253250e-02 5.224626510000792701e-01
-3.009778937030456805e-02 4.892206544260015860e-02 4.540558564169408506e-01
2.274641444636399737e-03 1.590253493193873394e-02 4.443249714175359633e-01
1.119613583490404810e-02 5.752329498901929961e-02 5.090166954808950095e-01
1.039093256553806632e-02 2.905707063843395582e-02 4.519325958712790414e-01
3.556297561702655152e-02 3.643416346080675244e-02 4.971992531501899792e-01
-1.781926046903226785e-02 5.679823026796523844e-02 4.568106427709682227e-01
2.820401772414617148e-02 4.397465051787155521e-02 4.698906438091975390e-01
5.186471039054090480e-03 3.135206173379962574e-02 5.249669562746042129e-01
3.988512856418532232e-02 3.035323240806013512e-02 4.872373830899740521e-01
-2.072029681115950331e-02 3.497564723586137070e-02 4.469871693826218406e-01
2.770022442508167024e-02 3.377358481997008027e-02 5.115466768932995789e-01
-1.829666867520566426e-03 4.173483209004532485e-02 5.216328615194687490e-01
3.000081294386263905e-02 4.922266029292834966e-02 4.786237643598184044e-01
1.895147136243943015e-02 3.313013599890569233e-02 4.570403185786256484e-01
1.325430336017956526e-02 1.302013620649021888e-02 4.462178273804153772e-01
-1.023926865243058280e-02 -8.470684862350136637e-03 4.362301873040627109e-01
1.408789025029456507e-02 5.407622108836988850e-02 4.645377844265740630e-01
2.636893016762508618e-02 2.568904136389354304e-02 4.574968808196476222e-01
-2.433609163689741048e-02 1.869877490486481289e-02 4.412632475808216381e-01
3.977968555700928804e-02 3.110547202822985802e-02 4.821398676162113039e-01
4.957608904550067294e-03 4.216545706214633316e-02 5.203606666048432583e-01
-1.701498424291580935e-02 5.646898908643093601e-02 4.565531855160545605e-01
8.367933683581105925e-03 5.536206208930930656e-02 5.109180078129769154e-01
1.987980625018819641e-02 2.868607618948550500e-02 4.552553571000855781e-01
9.452461489993579241e-03 2.973450153228304402e-02 5.253484021616223743e-01
-1.624532675468192550e-02 4.665022314819485677e-02 4.523245647983965556e-01
-2.535522986732119052e-02 -1.004842903868990653e-04 4.372218729149341954e-01
1.168292209856311090e-02 2.039907150859858811e-02 4.486832972209419679e-01
1.304998264026985960e-02 4.476371489125439973e-02 4.598431759902255056e-01
1.108765432735130466e-02 4.039157951142612057e-02 5.194773140478150530e-01
3.109252413591720443e-02 4.229975360328259298e-02 4.717899708765370126e-01
-6.708031835384558987e-03 5.388801652129190239e-02 4.559677263784218115e-01
-9.437715800683059084e-03 -3.955655677017362939e-03 4.365227220539465436e-01
1.160191985303835743e-02 3.107430970147909144e-02 4.532719951035372175e-01
1.023053116219766433e-02 6.599031566693157325e-02 4.678487620547106540e-01
-8.930022242452335252e-03 1.779216682790837542e-02 4.427421417633771172e-01
1.630840445089746030e-02 6.547670163510230235e-02 4.955521225594207158e-01
2.562042339353915246e-03 7.136431170976863247e-02 4.926653665649544100e-01
-5.681825233146200853e-03 4.432141268895473107e-02 5.212117702232804684e-01
3.436046156720989203e-02 4.277954678981427811e-02 4.856109085641941436e-01
-3.593425403764349824e-02 6.137967323088949507e-04 4.396225829555623354e-01
3.022962926521306770e-02 3.532950590977923522e-02 4.661422028519383032e-01
9.715599745255929127e-04 6.671607942316530593e-02 4.980893260097090658e-01
9.728621449112321781e-03 5.633934911722275618e-02 4.629289427377819011e-01
2.220364433512482701e-03 6.410654954927683113e-02 4.632874023559643839e-01
-2.353302206837537547e-02 2.301180726587675682e-02 4.425553166263263560e-01
1.661206976114132372e-02 4.324926213332404984e-02 5.149491735918991786e-01
3.420303744751732045e-02 4.082186299463185647e-02 4.944185054715347638e-01
1.954819433117859981e-02 4.549349859133761109e-02 5.114628153914761999e-01
3.619253700224146775e-02 3.267569097310007997e-02 4.705449549996109093e-01
2.753882601085737292e-02 5.489387695693861285e-02 4.867693139363039045e-01
-2.310627738367113798e-02 2.383468739605579603e-02 4.428531802105972748e-01
3.430082926616882799e-02 3.862727161151022215e-02 4.980737092938508082e-01
4.372824421755437847e-03 5.970507325022224310e-02 4.612267871299385313e-01
-1.679759593057475464e-02 4.203492589450634476e-02 5.219032268698550192e-01
-3.492350295633551462e-03 5.885738548150772076e-02 4.580999569580153086e-01
3.241894663518111314e-02 4.353326489873157040e-02 4.957154012606606597e-01
1.068821456982756504e-02 2.966906328414942173e-02 4.523159175317165714e-01
2.510077664337126424e-02 5.027663640618428714e-02 5.018226892368121694e-01
2.707960058030967412e-02 5.641847493130781876e-02 4.839642762603175719e-01
2.944727388948453761e-02 4.910751092325903872e-02 4.936282429511389402e-01
3.601746995697245428e-03 3.246972007934898624e-02 4.512325834782061618e-01
3.368111709909217370e-03 5.407910992456067129e-02 4.586973711528915532e-01
1.193219274474630748e-02 6.264172787382503438e-02 4.671532862698812294e-01
1.522392988583437523e-02 3.385382371365252500e-03 4.428240760175209401e-01
-1.079787722374766362e-02 2.883437843663056582e-02 4.460678023716564411e-01
-1.549110504764609000e-02 3.896107016857749961e-02 5.225628791129013351e-01
-1.149024040402308808e-02 4.829048081634477324e-02 5.127557072489258294e-01
2.727164730091427569e-02 3.500603540915214057e-02 5.111716522692931752e-01
-1.593408396507810243e-03 1.777212465806431510e-02 4.440767506458922487e-01
3.366472023920130674e-02 2.884658991025777081e-02 4.652568791936938508e-01
-1.746547126235304184e-02 6.007378580013009867e-02 4.635330802261502514e-01
2.198466378357067860e-02 3.940575796185791235e-02 4.622415555518383234e-01
1.362151751726597103e-02 7.332389512604434167e-02 4.806000067970958023e-01
-2.834352568768436914e-03 6.814035550072948533e-02 4.664885389843409502e-01
2.061748426570269091e-03 6.836167287127320469e-02 4.662054842880029581e-01
3.392425295344708713e-02 3.146086509296906059e-02 4.671725889469139914e-01
4.665672136314661864e-03 5.506401886863608597e-02 4.596880885407748640e-01
1.216186803903431674e-02 8.965183737344936676e-03 4.442507262220337649e-01
-8.124713034266732668e-04 5.674310806808298413e-02 5.119107290315998426e-01
-1.294597087578261462e-03 -5.905293273040174498e-04 4.377932194073685945e-01
-1.422775783454438905e-02 4.361683998490572395e-02 5.216939457362731458e-01
2.276657688084201409e-02 5.448921802909454520e-02 5.003418839424333964e-01
1.580621519052817156e-02 6.515703822753397823e-02 4.718776633553107835e-01
2.030456786183911302e-03 4.997486528946470247e-02 5.164369214935176089e-01
-2.028842990655780124e-02 4.051416789016720754e-02 5.202344931925675375e-01
1.903551432470222248e-03 2.032856714853607284e-03 4.392827186216053392e-01
-1.888184163828077189e-02 8.003888913341304298e-03 4.379808412960217723e-01
5.438718501616821369e-03 1.290886185530677743e-02 4.440071397014796473e-01
2.279179961918147493e-02 5.426953046144500359e-02 4.723396310513404139e-01
-1.143129575291909616e-02 4.926142441934911603e-02 5.151484582909487964e-01
-3.526755585789945885e-02 2.443756619819522150e-02 4.434128062196605047e-01
2.936777447003895494e-02 8.160380320173226537e-03 5.284019635791517011e-01
-1.679619504972209784e-02 3.567704285902999900e-02 4.479110406242803322e-01
-1.643745342996031505e-02 4.490455948367929467e-02 5.209717751067048930e-01
3.426739680445563957e-02 3.274357953741879879e-02 5.018646685566948706e-01
-1.494688933636712652e-02 4.483729753461752898e-02 4.517450167765145741e-01
-3.833747522035532013e-02 4.088256303881099285e-02 4.504344628710829634e-01
3.297311234427362236e-02 4.125904688273666909e-02 4.977311616271840600e-01
-1.271078792735587729e-02 5.820777320434777913e-02 4.573922117597986614e-01
1.228448669461931764e-02 5.101940784360830400e-02 4.620945788524487008e-01
1.614027258511429100e-02 4.118306825385305292e-02 5.160615566150202893e-01
2.205035311574677845e-02 1.522902483675753552e-02 4.499192892619203188e-01
1.245999216097566642e-02 3.712631866306884826e-02 5.198894440055692456e-01
1.141022965828518247e-02 7.422463300001504345e-03 4.434173178832053752e-01
1.978048575170750223e-02 6.690804315378159894e-02 4.824472198919519950e-01
-2.369781681318760581e-03 5.849989707515575871e-02 4.582609919214569172e-01
7.500438786980158888e-03 2.990320759873317524e-02 4.513760968892765457e-01
-1.471165960648719833e-03 5.953656286133254122e-02 5.063181287362137351e-01
-2.994836963049709276e-03 2.139404555335929631e-02 4.450779518973952409e-01
-9.228042441492010153e-03 5.914810140614839423e-02 4.578254126161573900e-01
-7.053412396843091597e-03 2.264686946733355036e-02 4.447283673191871345e-01
-1.163531425299724371e-02 2.112384030214143824e-03 4.372071998846990826e-01
2.448559486309235395e-02 4.248750473008003348e-02 5.092632998864300431e-01
4.021378074698552657e-02 2.980224634905972655e-02 4.806486312917639392e-01
-2.605814125364176725e-02 5.037794137186652615e-02 4.540881368687958997e-01
-1.293249435121590803e-02 5.635869154027840083e-02 4.563433639309666390e-01
-6.005944641511651999e-03 1.633328460075306882e-02 4.427438028473594800e-01
-1.203178785447851784e-02 3.098334139176547528e-02 4.467790485318008376e-01
2.557225797890833735e-02 1.042673000119089671e-02 4.495332754078362192e-01
-2.509106343468433045e-03 6.770455274999284678e-02 4.649311529662386588e-01
1.822766845494866797e-02 5.205887583324173007e-02 4.661109594041911164e-01
2.121488266297048148e-02 2.319166419364502435e-02 4.532535707620014565e-01
-3.177291569440286040e-02 3.130700790373729808e-02 4.449712969290037234e-01
3.999081980139392728e-02 3.064545748300388436e-02 4.820446481735623512e-01
5.099356210705419459e-03 5.338463704768940665e-02 4.592288725997691334e-01
2.686158121864579487e-02 2.294693953136379277e-02 4.563433186389631580e-01
5.982618397270890107e-03 6.405542974866132444e-02 4.646302871235196696e-01
1.010487742569469820e-02 2.714501929504305189e-02 4.509863085731591337e-01
8.074131656960852055e-03 7.448754300679942542e-02 4.874874939461349421e-01
-1.637978433548385043e-02 3.154940939216279577e-02 4.463457634487524306e-01
-6.730133434787110083e-03 1.793204598499430896e-02 4.431634358813063002e-01
