-9.529989065083840222e-03 2.326014640863065600e-02 4.445995878102376175e-01
-2.199097049275550338e-03 3.108468800907634999e-02 4.491319289280347182e-01
-3.693126183016481011e-03 5.039655825175202303e-02 5.186542540015411928e-01
1.378818222111369285e-02 6.373871264728069030e-02 5.011516459757112685e-01
1.077991756014652809e-02 7.362568710340347544e-02 4.907091621168172546e-01
1.356933964287914546e-02 7.262320225981183652e-02 4.883805309523320815e-01
3.659836340476702032e-02 2.661982913728272102e-02 5.023715238510484404e-01
4.285613159756510027e-02 2.263599708616252648e-02 4.810410122613447137e-01
4.158206397479597555e-02 2.543719573236312426e-02 4.871752907797429200e-01
4.228106152972113847e-03 6.954648551114660238e-02 4.999924498541780671e-01
1.948503481331471943e-02 3.459034672459429527e-02 5.193183703297270526e-01
2.874642526838044540e-02 1.007552459710862360e-02 4.517864794998278088e-01
1.059758454626636738e-02 4.100202619768331114e-02 5.196783176816324179e-01
3.360525031115892819e-02 3.737958324299451435e-02 5.007947957113488835e-01
-1.517993884053227575e-03 3.547061091356035201e-02 4.511228478203354042e-01
6.310205877524366694e-03 7.679863645676852923e-02 4.834153462383203315e-01
3.763022667312106162e-02 3.188409990527255738e-02 4.956874214660866307e-01
3.006079907144785721e-02 3.735798148208228919e-02 5.060285398393011835e-01
4.541539627641539255e-03 5.074226903519207799e-02 4.583973751776531658e-01
1.582615286689471185e-02 5.841122959546316690e-02 4.682208891385848393e-01
5.833436557693184171e-03 5.758303700723454294e-02 5.107657379085662752e-01
4.834150780436950907e-03 5.883659488979091357e-02 4.614768648920230532e-01
2.655701477461169455e-03 1.382200615531965077e-02 4.437462834924905120e-01
-4.032344048596008673e-02 2.481156587192929336e-02 4.441799464114641882e-01
3.558257808880962297e-02 3.985346043018138384e-02 4.852983618130703447e-01
9.522445890982455391e-03 2.997799309893771878e-03 4.414006661254835095e-01
7.112234592655082392e-03 7.633199096387276172e-02 4.777478720192989137e-01
-2.134440424571698233e-02 5.795160499960846923e-02 4.592401398298217585e-01
1.017686700379696798e-03 6.961258348221338599e-02 4.682830342315869032e-01
1.293747072581967993e-02 5.990063543566308962e-02 4.666821843269522985e-01
-2.269753268896040899e-02 5.318651581065812067e-02 4.553925681737204245e-01
-7.438558110413762831e-04 3.362167879266195897e-02 4.505268359760421504e-01
1.947817805362401719e-02 2.240740880557257758e-02 4.522489550407641778e-01
3.388777059832210302e-03 3.782001454186750822e-02 5.221717649228955205e-01
2.810644082858253234e-02 3.676090342356232166e-02 4.655436870247414705e-01
-1.970039402236227130e-02 -1.970900628057992154e-05 4.366983711101328214e-01
3.097182523369584189e-02 2.721644181350526756e-02 4.619942129637525374e-01
-1.925169437252412588e-02 2.379877078014428979e-02 4.431807069182683301e-01
-1.009897633464308143e-02 5.115474559115192055e-02 4.550223307263140393e-01
2.468766864275376977e-02 3.938956405038120806e-02 5.109765651110482754e-01
-4.983381142297671311e-03 3.727009086805594534e-02 4.511600917044887860e-01
-3.097354029925955543e-02 4.521508180743304822e-02 4.519058182816889091e-01
-1.859967762246404581e-03 1.223769158752757887e-03 4.383913991084076867e-01
-2.151024214104962570e-03 1.684153623291931995e-02 4.437170133373367076e-01
2.598121710927217554e-02 4.689908931451224755e-02 4.702016839216578425e-01
2.003036775710749159e-02 5.650801554282405131e-02 5.022098812249938815e-01
1.407972761931542902e-02 3.718233024079590360e-02 4.572589090337633166e-01
4.198885632155420489e-02 2.498663551147988632e-02 4.842094655825847083e-01
-2.082791201007861207e-02 3.132137682978354543e-02 4.456414842299455392e-01
-2.556751312727078423e-02 5.156941415297415510e-02 4.548158224876599487e-01
3.035354924801176094e-02 4.674905481720897926e-02 4.764467935503475804e-01
-2.497659512998572431e-02 5.093315003603796770e-02 4.544158431395763365e-01
2.358765008035755562e-02 1.303303812033569133e-02 4.498220380712175115e-01
2.022773714503166981e-02 5.243038154225466291e-02 5.068503947568769874e-01
1.833246447222067546e-02 6.226082379675274003e-02 4.732309006471385748e-01
2.563911013001072062e-02 4.091605245784556838e-02 4.661419624108790183e-01
4.140637038117479189e-04 6.733068627352546687e-02 4.973331787399630222e-01
-8.149450356171008408e-03 2.627268799587882328e-02 4.459038275031690923e-01
-8.778451447958246501e-03 1.840574465069547139e-02 4.430832510571298677e-01
6.104961269281896155e-03 7.287339787966118365e-02 4.726378009224341259e-01
-7.334824992097123408e-04 6.880692238565590257e-02 4.667646505320955930e-01
1.097012656298369110e-02 4.367827970993569398e-02 5.179680367269505759e-01
2.642873363093802865e-03 6.657292705401926525e-02 5.038298741112345880e-01
-8.618582458601031782e-04 6.460814328823516473e-02 5.003338902056038151e-01
-9.527490452140102706e-03 1.263802687743033164e-02 4.409820804300284003e-01
1.118341604840058720e-02 5.220234813480535696e-02 5.124251307450419235e-01
2.890054766372108022e-02 3.074753679964289249e-02 4.623978863694844232e-01
-3.458547403817397586e-02 3.743772346978743726e-02 4.472356911154861669e-01
1.367866945756070554e-02 3.987367272769230808e-02 4.583582232542061652e-01
2.841015866392969380e-02 5.250228221170592791e-02 4.805234429742762936e-01
-1.830535807984650168e-02 2.486483423900068962e-02 4.436776168897280659e-01
2.569694568784586242e-03 5.301580948893070203e-03 4.405940347978177241e-01
1.083357877554592952e-02 6.920453690796389556e-02 4.712146635090130320e-01
3.108668848999786988e-02 2.753862146513869416e-02 4.622811804318888163e-01
8.990492056121030667e-03 6.407078510794860481e-03 4.425027108472345816e-01
2.815802695701204519e-02 4.088187733959140063e-02 4.681633419962996645e-01
2.598387950218248449e-03 7.422809918623489434e-02 4.786903711249053672e-01
1.531307883991348505e-02 1.451552957979528741e-02 4.475117906917732702e-01
2.649616204340846451e-02 2.648539996042799036e-02 5.197803527286712910e-01
-1.822462011702855739e-02 2.213334521041875752e-02 4.427080048597256678e-01
8.401352392773822966e-03 3.883783219295130346e-02 4.558975858663107394e-01
4.343252481873887717e-03 7.118246837666923621e-02 4.965798919665075362e-01
1.505707353716182091e-02 7.084808411750379009e-02 4.772129980110623171e-01
-1.036333075632415827e-02 9.526749720659430723e-04 4.371708919038341246e-01
1.000814154707290599e-02 8.436758510739427244e-03 4.435583847465170426e-01
3.739950715464661346e-02 2.324203033438974886e-02 4.656392925233396318e-01
-1.512025034882896659e-03 3.596392263524575417e-02 4.513122542171988383e-01
-2.731783843932631545e-02 4.223572177703276143e-02 4.495222451041387401e-01
4.114977005409399535e-02 2.593873291305422157e-02 4.774971313185315536e-01
-3.558029960504026368e-02 4.404540007303028165e-02 4.522196249167450555e-01
2.498069208124430868e-02 2.930758985482431744e-02 5.195504360903421270e-01
-1.540078053526819021e-02 1.861678818385308423e-02 4.419396457977682879e-01
4.064618360265909169e-02 2.780213611828921683e-02 4.885327410486370314e-01
4.681070798821226030e-03 6.268460827211649877e-02 5.077348952511665514e-01
-8.616512384616269171e-03 5.022024933296671129e-02 5.186715645512270934e-01
6.037983500944981048e-04 1.695025889306149905e-02 4.444308021715080992e-01
1.948210645123498591e-02 3.308430007676711054e-02 4.574292906896071376e-01
1.752524043108766652e-02 4.945511023638482495e-02 4.646726947756008586e-01
2.923072416701471762e-02 4.869201538127044399e-02 4.947316800060136965e-01
3.879193167336446313e-02 2.817897379357944820e-02 4.726510179297443992e-01
-2.087593187537623365e-02 3.667270158161824861e-02 4.478216100168077585e-01
1.988618839759692669e-02 1.450831495781077472e-02 4.489781851085373199e-01
2.064414996782515041e-02 5.674663235881612783e-02 4.718433243930217902e-01
2.241213466445625413e-02 5.932060262482694718e-02 4.767321456833568116e-01
3.116411338265132405e-02 2.520492013102999806e-02 5.138459139154717414e-01
-3.438301591136362634e-02 1.968992992303197215e-02 4.424502091442310547e-01
-7.385490479449779988e-03 4.960380906547490198e-02 5.194914469637421650e-01
-2.608321491515213156e-02 4.217680768954907428e-02 4.495077104133056722e-01
-1.849694577811256992e-03 4.306235926543040826e-02 4.539626451833609355e-01
-4.639129979108240313e-03 2.230162107696245788e-02 4.451572772659185273e-01
4.780421788625093156e-03 4.591502001267601385e-02 4.571024233254457614e-01
3.622003452415937380e-02 3.233890288343074793e-02 4.988708620095027024e-01
4.322140982652033017e-03 1.985175358616309872e-03 4.398738172625769050e-01
2.263265871564072024e-02 6.505465435077063992e-03 5.310064970334231749e-01
4.361051858494026205e-03 7.772084824640550227e-02 4.786803260350746547e-01
4.205217960004641042e-02 2.432257133996679199e-02 4.862222167159708230e-01
1.238014073284048576e-02 3.507740542942848483e-02 4.555828716319306193e-01
4.102367513546210931e-02 2.684870313841179051e-02 4.786192127012153241e-01
1.113641290056347453e-02 4.905475348180476231e-02 4.607665013255935471e-01
-1.530421237855449090e-02 6.028065336980759081e-02 4.603920420748365272e-01
3.486105990635264551e-02 4.221293180443164844e-02 4.824721527464205240e-01
2.953663402547388600e-02 4.997887590127297885e-02 4.799476828735561584e-01
5.586363451411753469e-04 4.370280952197520830e-02 5.211886052541100378e-01
1.178263749617595481e-02 7.061814556378528951e-02 4.961504534495438379e-01
2.134377833280605430e-02 3.546361335316381563e-02 4.597335136271262224e-01
9.882927787790984908e-03 7.215627914444204538e-02 4.945682400649838439e-01
-4.235463924836479349e-02 3.178220333708707546e-02 4.460415044731085854e-01
2.760612467525895911e-02 5.215041284116608139e-02 4.779518280366981120e-01
2.901831984133532161e-02 2.223752412474308549e-02 5.196557022262573433e-01
1.172991127633245603e-02 5.412885631741690129e-02 5.110273304080881207e-01
-1.419939279354636569e-02 4.134645575577074184e-02 5.228524844557866924e-01
2.877112852476742741e-02 2.487656638316830537e-02 4.587281936390817938e-01
2.224663031001688010e-02 6.049405962824075389e-02 4.775936374462123046e-01
-4.515986618745779918e-03 6.367269908262450373e-02 4.619055195284940130e-01
8.661854575278803842e-03 7.114022309420478529e-02 4.988134493069686926e-01
2.457408881191007130e-02 4.462826418620947921e-02 4.674043610550011607e-01
3.433232540579947423e-02 3.475061024008063715e-02 4.698349833441524681e-01
1.164812994763682504e-02 7.306999944810330105e-02 4.911708338582345679e-01
2.538363274078000650e-02 3.086609950664685395e-02 4.598775345492076561e-01
5.087027226109682235e-04 -6.712261100755949339e-04 4.382052242155642374e-01
2.422251608026696965e-02 5.235527780769078099e-02 4.729753488546621365e-01
-3.301810642087001091e-02 2.922043740783911159e-02 4.445382979819288427e-01
5.917021749451998464e-03 4.863884442356318505e-02 5.174132811875875593e-01
-1.013462139328881115e-02 4.994576727518439119e-02 5.119363551695594872e-01
2.342296115523141709e-02 5.661405397083048296e-02 4.756571019058207228e-01
1.748541847511160541e-02 5.529426282333431419e-02 5.076395080041163910e-01
2.023570047387159877e-03 6.976106158696830650e-02 4.679534890006147307e-01
1.472470275607812643e-02 5.091966245551546311e-02 4.637255941142299220e-01
3.177752146302584291e-02 4.584595342074933300e-02 4.785774543045372975e-01
-1.706404724867873098e-03 6.158076384918745316e-02 4.605321108388423235e-01
3.020161475819983093e-02 1.729489456283692800e-02 5.221377449259565484e-01
-8.891008772772577423e-03 1.787311951969935628e-02 4.428837280118219089e-01
1.020218492627916577e-02 3.090849056868846811e-02 4.529209786586747000e-01
2.087295342336624795e-02 2.978820973789744753e-02 4.563623118219964359e-01
1.838873449940879243e-02 6.503144899385036870e-02 4.933887716933902934e-01
2.989793078421502590e-02 4.305939527074570394e-02 4.713880662709492020e-01
1.730457045557162385e-02 6.453009156818870218e-02 4.737230878790566480e-01
3.063826339758003378e-03 5.188358388095921231e-02 5.150581770695479289e-01
1.559612076193021488e-02 7.127066660569125744e-02 4.855434770271292999e-01
2.483061166775134276e-02 3.299457059923653623e-02 5.141477923983288623e-01
2.290753310940541951e-02 3.014725937057857047e-02 5.212236204916618210e-01
3.718180244239147059e-02 2.796721894158609584e-02 4.685193635768946097e-01
7.555799405776551878e-04 4.940074168165717317e-02 5.183566437594311349e-01
3.048554176229927026e-02 2.165600122851758097e-02 5.182367650470234288e-01
2.928591553374823575e-02 3.646688407499566742e-02 5.074924643841625116e-01
-2.310580642022376507e-02 4.527558510328434649e-02 4.513611722309050500e-01
1.304037662019915181e-02 7.309767017391906319e-02 4.882958920780590129e-01
3.233769459115467398e-02 4.204372234360775201e-02 4.742533391947022503e-01
-3.011514022706850841e-02 4.262083609003969320e-02 4.498129156949786100e-01
-1.328939040361348627e-02 1.487482728073081205e-02 4.409477630793803837e-01
6.911861507667468874e-03 3.368590908105865978e-02 5.235897068458190695e-01
1.957271561320843289e-02 5.493778849356906364e-03 5.311556932806575926e-01
2.857471829395815191e-02 2.397286983326585991e-02 4.581375467752060726e-01
1.598725964735286595e-02 6.552145867354480790e-02 4.726444195730218345e-01
1.798948468928290509e-02 4.860699776840977926e-02 5.107068236696497010e-01
4.151864176384424676e-02 2.458695433544069373e-02 4.899864025123172873e-01
-2.565164827514335513e-02 4.594733855962060409e-02 4.516943467252279576e-01
8.779330044634421279e-03 4.651030699954795955e-02 4.588131292961518115e-01
3.463828824655219851e-02 3.599596150919242427e-02 4.713010191310066377e-01
-1.859673843942025520e-02 3.862352327094981108e-02 4.489886414571987450e-01
9.035298390357065015e-03 6.767861951845352553e-02 4.687757068157292206e-01
-1.359137278517941368e-02 4.060739315545504324e-02 5.229401846466132930e-01
2.034951613240910950e-02 2.568429113987009613e-02 5.244864195961596032e-01
1.970574881959524620e-03 3.602890979445146774e-02 4.524435128903797065e-01
-3.839656764510850778e-02 2.268671940859157826e-02 4.434894732681287643e-01
1.756833327207577185e-03 5.429641689345039018e-02 5.135598336366669070e-01
1.956101431107560434e-02 4.769781861039328746e-02 4.652241555385387417e-01
1.160256047488964805e-02 5.498907565327346147e-02 4.637565489788209594e-01
2.439953748199383959e-02 2.424741458908672917e-02 5.225492028442081383e-01
-1.028724581976755113e-02 1.552910554112681835e-02 4.418313475249957545e-01
-1.482792114346135823e-02 7.533960544517392249e-03 4.381921392698929774e-01
3.502474222688185118e-02 3.382024793076385955e-02 4.699219636704808356e-01
-6.293322510439741321e-03 3.643134178112181210e-02 5.241529815151740879e-01
1.376496221640418835e-02 4.383109984994690983e-02 5.163382535830450815e-01
1.902547028180779851e-02 5.857666704475963937e-02 4.710454082569403567e-01
-1.738874385772523970e-02 5.009354363570865665e-02 4.538944503792222140e-01
-1.766297114356793138e-03 2.516437671726812556e-02 4.469177477228405970e-01
1.812501554222589739e-02 3.609080339603015775e-02 4.583591192929796776e-01
-1.735852236172329144e-02 3.879931056250304766e-02 5.218165531056755402e-01
1.707576092044858773e-02 5.854095724732193834e-02 5.044106062877289354e-01
1.124927772150401302e-02 5.395556517334571672e-02 5.112739859221880900e-01
3.292757709783030590e-02 3.852402729976703993e-02 4.711596101573653494e-01
1.608172548547365244e-02 3.756115228532118377e-02 5.191630214087022965e-01
5.086474681577769601e-04 1.047885835374073350e-02 4.419883014684781730e-01
6.610046613619201088e-03 2.067191295752077856e-02 4.474613670938736854e-01
2.712169479671404371e-02 2.673143257013226026e-02 4.587081589440636376e-01
4.056232848547210168e-02 2.465712559236039880e-02 4.954699567467514831e-01
2.062396680978215852e-02 6.415097339420167133e-02 4.902064447795379531e-01
1.078543586485103054e-02 6.010561448085988134e-02 4.655013759206158008e-01
2.366671253439373360e-02 5.155871963919304857e-02 4.715045558493378697e-01
-3.955523337615936275e-02 3.899786194274511980e-02 4.493293789069680577e-01
3.723639431329568011e-02 3.379527643818928256e-02 4.753724016236301475e-01
9.438579225619239330e-03 8.292675093043735263e-03 4.433468597470636707e-01
2.107956408556384276e-02 5.327775436500569589e-02 5.044722520527173959e-01
-1.952490892674958733e-02 4.339140084728092261e-02 5.168090671873553088e-01
8.234557861371633730e-03 1.571843665904811005e-02 4.459943814441082455e-01
4.197425426386970637e-02 2.248222746550293180e-02 4.754475750139021129e-01
2.517515126391122599e-02 5.939842500314056889e-02 4.843450902819342874e-01
3.491070889504011704e-02 2.412564089366547523e-02 4.637173122836072969e-01
8.606717134169350816e-03 5.772538449025594459e-02 4.632098691253599410e-01
-4.688552931731526478e-03 3.057984818497200274e-03 4.386175105996885093e-01
9.166513628510357739e-03 3.862802334591296238e-02 5.205014243635446292e-01
1.347906192730635375e-02 7.234785079703115462e-02 4.895673082697579725e-01
6.293390474801611491e-03 6.325023830527039259e-02 5.070939065108048815e-01
2.871679226354830264e-02 4.601672754918045838e-02 4.728830401050367893e-01
-4.932362130844334530e-03 9.267188524227519455e-04 4.379040060103085996e-01
1.085966197808282789e-02 5.608933332859527415e-02 5.100692870264545986e-01
-1.195911456573169572e-02 4.819589727828035158e-02 5.131180848717549203e-01
2.842798613772139216e-02 7.856679973852876905e-03 5.290538812616735198e-01
4.614437358306499801e-03 7.752486729205934624e-02 4.807344785671231469e-01
2.303928593777839276e-02 2.481943526181382836e-02 4.551941442438479646e-01
2.154501090344102324e-02 5.676861172427136171e-02 4.991224022805947347e-01
-2.636859275554321452e-02 2.255574259521683084e-02 4.424451874782112104e-01
1.336030289645815522e-02 4.986236256382391846e-02 5.130877437325840340e-01
7.063007742403148992e-03 7.418061093294008035e-02 4.881504595973608640e-01
3.833366822805544388e-02 3.002877491882080876e-02 4.737294487892469430e-01
-2.457439865130775156e-02 1.615667437090307149e-02 4.405841586396413434e-01
-3.241535176571024024e-02 4.093647953728104909e-03 4.389777971061119000e-01
2.756214791842243050e-02 4.464895298045516020e-02 5.049182697994140101e-01
-3.387046362845680045e-04 2.746031156864627357e-02 4.481589024648152120e-01
1.109389492966961557e-02 4.455160566511499887e-02 4.591044597490838708e-01
3.906858909572481775e-02 2.939600136425755961e-02 4.935383030178913666e-01
2.427152316733253296e-02 2.586720069519832590e-02 4.565064888126827980e-01
3.280918736646879635e-02 3.496403837191525837e-02 5.028738743442877634e-01
3.683205431129972507e-02 3.426857965065562700e-02 4.748328147515968878e-01
2.238325776630810046e-02 3.022588078192731467e-02 5.216862598885156910e-01
-3.078180109361641076e-02 1.494702831924907792e-02 4.411783654471832516e-01
1.538950225777275041e-02 5.662142014703376580e-02 4.670096801801758013e-01
3.836843756147165913e-02 3.400528787746743414e-02 4.813775897220047284e-01
-1.700126449904563672e-02 1.506545821368752633e-02 4.403291632111975829e-01
1.001588091326652274e-02 4.628992350571534131e-02 5.167227106290790406e-01
4.056712584131088456e-02 2.591970394389334076e-02 4.919849506855309418e-01
1.620895155939474155e-02 6.189019953571309879e-02 4.704256207600421291e-01
-1.175011000587348337e-02 4.539969913855732009e-02 5.218146561761982660e-01
1.505940741664362793e-02 4.569417581336815588e-03 4.433202870886955305e-01
3.695489584229030844e-02 2.646155489212852902e-02 4.673144545672296979e-01
1.305121752773701765e-02 5.310527779877410176e-02 4.638200534492740723e-01
1.413622342291758448e-02 6.455628371017979594e-02 4.998013285165229802e-01
2.476766154730211320e-02 5.811188947692651208e-02 4.789782454311500848e-01
-3.974540429508025864e-03 5.839088816250220110e-02 4.580876790178441404e-01
-1.536415427410736320e-02 4.290285168096882873e-02 5.223720457046102661e-01
-5.287257148974150792e-03 4.892430849875053361e-02 4.550496091599140480e-01
2.659523621237131277e-02 4.850520337814973049e-02 5.016137112439550405e-01
-3.309625571108770758e-02 4.306257755097713663e-02 4.508124104256904796e-01
2.940576028795248431e-02 2.117797559453882261e-02 5.200401903360769573e-01
1.494340713845916137e-02 6.452084926497167472e-02 4.711064263915470396e-01
2.469489391697472433e-02 4.907151923964536699e-02 5.039174211014284532e-01
8.258549877942125694e-03 7.514603394882482523e-02 4.868743896041211050e-01
2.490022453549500456e-02 5.759160163057646525e-02 4.787137029583268255e-01
-1.399397582154329744e-02 4.055948887046009060e-02 4.505367434757718281e-01
4.784985877866799499e-03 6.956870746777167602e-02 4.683707493759788898e-01
3.228744280781873505e-02 4.088054275944249388e-02 4.726324678290060866e-01
7.175970505393881524e-04 5.975375129098922655e-02 5.101160613761609453e-01
-7.968589028853435147e-03 4.031331525745420613e-02 4.516950771266562970e-01
2.186690920527548793e-02 1.696779865410569590e-02 4.505716107448219376e-01
4.079309363702834229e-02 2.545919785505041180e-02 4.754867254587351044e-01
2.983610960504813267e-02 3.844936315090758533e-02 5.056728714309429717e-01
4.137798890709770694e-02 2.545523591168654190e-02 4.776239172186604320e-01
4.251241349072810809e-03 4.951449016390407215e-02 5.167841005817318534e-01
-1.425462804752299951e-02 6.063426404622108967e-02 4.620916766863886194e-01
2.021570736570482002e-02 6.458060552265830478e-02 4.904959775372911834e-01
3.114729032741068299e-02 3.482385748496581723e-02 4.668635632537753155e-01
3.107963144506047451e-02 4.478754946090943156e-02 4.753213835597909220e-01
3.095509340105454324e-02 2.325203425046592012e-02 5.165765441012069026e-01
2.601008376103532572e-03 6.569447138156571386e-02 5.058298258072639886e-01
5.514187417446672103e-03 3.809506434731302349e-02 5.215106878089409426e-01
6.106841643721666255e-03 3.877944929886575909e-02 5.211359897510116079e-01
7.012160975207045246e-03 5.786094546071877259e-02 5.103015657274730943e-01
2.125838491751229353e-02 3.450627615655037228e-02 5.166608561475400929e-01
-7.941949453034021986e-03 3.349042483979010332e-02 4.488763423131067465e-01
-2.582643481552666931e-02 5.751348776901873266e-02 4.616363435581529728e-01
3.979462681709884653e-02 2.859740446384912912e-02 4.764443732165437040e-01
2.843508269327475052e-02 4.435067234586477503e-02 4.707762733721812531e-01
3.798592940337735396e-02 2.414508741119735652e-02 5.022060064673964375e-01
1.621526472903941224e-02 5.074632823503145984e-02 4.645267456211379375e-01
2.171101066172644554e-03 3.290663285573664637e-05 4.388000390917366489e-01
2.463499150003532756e-02 1.567254226598027364e-02 4.514140472406653615e-01
9.533391446669073691e-03 4.840186287373644120e-02 5.158596689517132017e-01
2.956471737526637084e-02 2.949231503275040814e-02 5.123720739791031153e-01
1.585664755598950593e-02 6.774820506536763376e-02 4.934676698188942834e-01
-7.395958883163755888e-03 4.250948936266934347e-02 5.223031864844844829e-01
9.362645803718061890e-03 6.040761382065415463e-02 5.081899731952869148e-01
3.289888669661357110e-03 4.258220670490193982e-02 4.555443387733711935e-01
-2.447323819611217297e-02 1.039249429917272517e-02 4.389022212634202669e-01
8.216009829350634855e-03 7.638260702796954849e-02 4.784498114163623916e-01
1.628164313444234804e-02 5.949774818906167217e-02 4.691520865980912114e-01
2.325083817463043101e-02 4.465266405612609846e-02 4.662780981744598097e-01
3.634695520773462141e-02 2.703230870672914191e-02 5.024455729045262942e-01
3.702574045969797122e-03 7.539677683664376684e-02 4.772765537477405839e-01
2.468448308408122474e-02 7.887499283578437714e-03 5.300714951301402911e-01
-2.243314975793933227e-02 3.015394744356723541e-02 4.450987114058279071e-01
1.716606858256745916e-02 6.027689262118191699e-02 4.702691951890349831e-01
1.803200953463333575e-02 6.899910632179452608e-02 4.822309893052688090e-01
9.591752868146601746e-03 7.343994683678380098e-02 4.917559339962730425e-01
-2.932260553237182529e-03 3.805401799458390383e-02 5.233158631638498148e-01
3.956441426498809311e-02 2.684328691282050414e-02 4.732678581817048036e-01
1.390639704199476447e-02 4.840187813521361349e-02 5.134994474420965238e-01
-2.227636446764441960e-02 1.673357098969167206e-02 4.407574734464349553e-01
4.706978460064345678e-03 3.317942191103318006e-02 5.247167570821170690e-01
2.846157402607261272e-02 4.859409845762173441e-02 4.757149834067634364e-01
-8.493441009937207969e-04 6.015450395520561405e-02 4.596019827916565936e-01
-4.843480589308312920e-03 4.105090991828343888e-02 4.525796152275055051e-01
1.908658664790182508e-02 5.667522414005499165e-02 5.034783352437816051e-01
-4.047156829038997539e-02 2.357103960785618055e-02 4.439281180951547556e-01
-2.006712621609036545e-02 4.591558680556643429e-02 4.518639662293088555e-01
-2.558758045157293742e-02 2.870722704311769093e-03 4.375343564627143800e-01
1.831882202918093741e-02 4.520326248545140230e-02 4.631392900304384663e-01
1.686188181727381330e-02 3.860704898835577020e-02 4.590278877765300858e-01
-2.286220755065737631e-02 4.309456743556620145e-02 4.501157543942935213e-01
-8.056626620738643538e-03 4.911929572571544639e-02 5.198818814557883972e-01
4.367281805683761661e-04 2.099897930635376275e-02 4.459307335484151702e-01
3.157113998207686234e-02 2.099101411272465828e-02 5.173518687473408484e-01
-3.288682278158535505e-02 1.972323358554254821e-02 4.422760857537588186e-01
2.570465097095965892e-02 3.588887814716709007e-02 5.126164466696828681e-01
3.522529711367731325e-02 4.037706521331135834e-02 4.895026892028105925e-01
-6.394170750241662433e-03 2.216462590938374916e-02 4.448080864243397214e-01
-2.665679848909303581e-02 9.072791459929001323e-03 4.389058606461333500e-01
3.120409830178179009e-02 4.330565215494673603e-02 4.736059573136159884e-01
3.101241693914405170e-02 3.404926803068927116e-02 4.662669217005660505e-01
2.138196613653850151e-02 5.326700165979804391e-02 5.040121430650739143e-01
-6.492869263393794693e-03 1.705922819583841760e-02 4.430213697169523290e-01
4.164931341043863477e-03 3.488420021423054018e-02 5.231663456116427691e-01
4.178433110068545397e-02 2.491077684831374123e-02 4.869384711185736347e-01
4.432212353973917496e-03 5.746981580746371443e-02 4.608423222990106760e-01
3.550430628635611180e-02 2.858652332705433063e-02 4.672126469432266171e-01
-7.615543892116013666e-03 -1.182076185277190512e-03 4.370175516066788779e-01
3.144336382872427171e-02 4.471745529415197679e-02 4.759703026513768531e-01
3.619551120684941919e-02 3.605562227954188514e-02 4.952240642411505633e-01
3.242867763683733584e-02 4.614054155961706122e-02 4.818065587686470308e-01
2.782554708935096321e-02 3.682905355970534506e-02 4.653642488890103457e-01
-1.578269351321554340e-02 5.333292137325725685e-02 4.551921622633293141e-01
3.909833624520393097e-02 2.438404395543222053e-02 4.692096994946980404e-01
1.495986129155335055e-02 3.730186020568404537e-02 5.195236694488757356e-01
-1.940974113670452042e-02 5.933642509290489725e-02 4.615748528086262570e-01
2.167641469822383093e-02 5.671945452119019071e-02 4.989276733027226962e-01
1.521502793714064883e-02 1.756589287329766297e-02 4.487905639630128118e-01
-3.814275122438693516e-02 -1.338385164401664903e-03 4.401479752586744398e-01
-1.234539807460369870e-02 5.188188084344580453e-02 4.548794549688681133e-01
4.041217487341566134e-03 3.441525224704323344e-02 5.235641311847389900e-01
1.129870115453934440e-02 7.203709659902518547e-02 4.936512490922774776e-01
6.255930961374267345e-03 2.409992928303349158e-02 4.487567172240420343e-01
2.122773486156898093e-02 5.643181810385499569e-02 4.723941728473506907e-01
1.963945749725525512e-03 6.442688662907448960e-02 5.071595098114436428e-01
3.047808115057506345e-02 3.629693085521524393e-02 4.672173925478486645e-01
-2.380638690056754991e-02 3.837355115343452083e-02 4.481321678008948761e-01
2.036848400266079787e-02 5.495195592188494016e-02 5.035590260051017175e-01
1.738034254421880892e-02 3.771929400955105482e-02 4.588211042735210188e-01
1.621751296023521069e-02 2.034262523500017170e-02 4.502167815249248917e-01
1.745598604883633748e-02 2.248539642909714448e-02 4.514254637136573267e-01
7.354420799073014756e-03 6.297692545425995214e-02 5.070096334185626441e-01
-3.198024194997124703e-02 4.326929138132726976e-02 4.506541682227970802e-01
-6.871634369255349983e-07 6.146883071266767695e-02 4.608728523503290431e-01
8.441919770297415249e-03 3.902914792900592095e-02 5.205730708822259301e-01
2.096758770850752629e-02 4.830990111613081561e-02 5.089428495333975233e-01
-3.274565597435629555e-02 1.196139723428287470e-03 4.388569753873367008e-01
4.988950823970205893e-04 5.489807708711878093e-02 4.580740755135476738e-01
-7.592383160809018303e-03 5.201747455943501325e-02 5.163015145724491051e-01
-4.060915623928069984e-02 2.391392287126663935e-02 4.440165854556230030e-01
-4.180845826246956144e-03 1.385239594584884541e-02 4.422497286061883859e-01
-5.106241100670505864e-03 5.813607441779387874e-02 4.577579589910909519e-01
1.618578914615078496e-02 3.193698339233570077e-02 5.223463320885705086e-01
2.155276616201406287e-02 4.426270712304399002e-02 4.648286134254522306e-01
5.330044910751858406e-03 7.062725775339001588e-02 4.694583477399171256e-01
5.889410553133308558e-03 7.623030584376390417e-02 4.834474392096191342e-01
1.776559786918252212e-02 5.577138987913526913e-02 5.066234398694369201e-01
1.215751940187690880e-02 4.071312732066199869e-02 5.192132880300668329e-01
-1.960462762883996221e-02 7.045600677810915854e-03 4.377640957549074896e-01
1.812949029080743180e-02 6.860108905755842035e-03 4.452974083348357759e-01
-2.561560165869625812e-03 5.059839948756749556e-02 4.560762943675643610e-01
3.476201831764575562e-02 1.996419113513509327e-02 4.611452611638749421e-01
5.528353433181627460e-03 7.154589446044035128e-02 4.966368398006919538e-01
-1.572459180366714629e-02 4.633827036297656632e-02 5.203302810957557423e-01
-3.821033010848618166e-03 4.667739591708546659e-02 4.545823390622849569e-01
-1.358058787717975058e-02 3.041048245527681534e-02 4.463842451240822573e-01
2.395271823074804352e-02 4.687731751594267221e-02 5.077236203868522590e-01
1.675113820758148200e-02 4.820213859129036937e-02 5.116959055148339042e-01
1.595380529558404481e-02 6.967124489671350229e-02 4.903255558174312578e-01
-3.854075368505741062e-02 2.520610580919752444e-02 4.440548748533333923e-01
3.061217973278094681e-02 2.824275500735175248e-02 4.622698012252789979e-01
9.727140847734883165e-04 5.824569088036182785e-02 4.593998112558043689e-01
-1.097758400535385828e-02 3.711825360908591748e-02 4.498577400980432461e-01
-4.028155285968972044e-02 2.232322621077371082e-03 4.413339897124017863e-01
2.743908037812408870e-02 4.005416805519955437e-02 4.670908963306608652e-01
-1.464455425488915205e-02 4.464096921294970211e-02 5.218533709685524435e-01
2.281825272499806573e-02 3.060604006131253246e-02 4.580611987595867851e-01
2.142702065517241433e-02 4.733992273296189213e-02 4.663618615410040080e-01
2.662909053426452261e-04 5.263295127141712909e-02 5.154085356349706881e-01
2.252601352424339620e-02 5.092008384494913636e-02 5.050962911820442436e-01
6.634494144215919917e-03 7.731477377806594831e-02 4.783449435065966204e-01
9.886113524710401189e-04 1.804184053402450513e-02 4.449459131019853353e-01
7.483186838408078384e-03 4.797903981629939724e-02 4.588397834517173868e-01
3.771851138166813604e-03 5.709631665420931285e-02 5.116045565589397714e-01
1.824190864171120960e-02 7.017262802357550865e-03 4.453923729381223939e-01
1.777242927529590344e-02 5.425415213358728006e-02 5.082955275727012445e-01
2.842531194087375562e-02 3.226562853261425584e-02 4.629714894096682576e-01
1.352782420985954720e-02 6.462900007507796363e-02 5.005130107699915509e-01
1.933588904601718853e-02 5.835981985992621385e-02 5.009705530931224393e-01
-2.097049931382975740e-02 1.037655205108053980e-02 4.386510708732054287e-01
1.722922639791076016e-03 4.052379491000698830e-02 5.217163940899773866e-01
2.530835439468116441e-02 5.254259571275354118e-02 4.980829272714634715e-01
2.186200884652582041e-02 5.046234754999058547e-02 4.685938524631202973e-01
1.338575725805844080e-02 3.526796518258699248e-02 4.560606040850024301e-01
-4.894324612081358064e-03 5.214877819313948337e-02 4.560045029803935779e-01
-3.237933829799821868e-03 5.851446325763067641e-02 4.583050968633200495e-01
7.776351834302953035e-03 3.443443324541697187e-02 5.226021372749126703e-01
-1.567659674449841875e-02 5.413046946845067459e-02 4.556510684248816778e-01
-2.607042355811443630e-03 3.869515975446726624e-02 4.521494548776451294e-01
-9.162839537441099316e-03 3.108449085193196182e-02 4.475471013040672186e-01
-2.870121347740675621e-02 2.718107714946451856e-02 4.440893933399812643e-01
2.702775886693216043e-02 5.059308256861435454e-02 4.971290807805444634e-01
2.255075760948741653e-02 3.806239276388142384e-02 4.621191313942585865e-01
2.151093143288277526e-02 6.218376915731109456e-02 4.917592836807664902e-01
2.732740626363154915e-02 5.523309713793128628e-02 4.826393126372972575e-01
1.813683622861084199e-02 1.650586224734803403e-02 4.490918536151574103e-01
3.225687183043497025e-02 3.993171441758516099e-02 4.715033584208996320e-01
1.603963935509047922e-02 6.214953298668324244e-02 4.999671589905252955e-01
-7.011036233345147896e-03 4.569740304252414148e-02 4.536126341240353521e-01
1.973149740167159244e-02 3.855748932585247035e-02 5.156024713966863571e-01
-6.785237170391211076e-03 5.516442401326864670e-02 5.104011412070018627e-01
2.064262228960408313e-02 2.767266269558690817e-02 5.239349482041729678e-01
3.487008023418940172e-02 3.035621555757570325e-02 5.023563673220045045e-01
-2.573613729065131819e-03 1.221069866310087876e-03 4.382917856039562077e-01
-4.467342643370734306e-03 1.723029897991852806e-03 4.381988052185202820e-01
-1.220698795216643498e-03 1.509080634426034073e-02 4.432877605931779263e-01
1.582841680138559123e-02 4.404917494756616786e-02 4.611101974799998726e-01
-3.127086639391085665e-02 3.606680436590703476e-02 4.467814442220764959e-01
2.229024973120288799e-02 6.358846033123370656e-02 4.847507049457224215e-01
-1.499400384521034843e-02 4.600203659470000067e-02 5.213400575445241714e-01
-3.075218189243560107e-02 3.902230227413862329e-02 4.479438900110196964e-01
1.776890136067380346e-02 3.451059063447530634e-02 5.203048793107309944e-01
1.671250001364557591e-02 9.059675177316574290e-03 4.457225169138879228e-01
2.967922292743796660e-03 5.088672008192481749e-02 4.577642916460106237e-01
5.465091485335459368e-03 4.620937996288527333e-02 4.574870657174291977e-01
4.092861327922697051e-02 2.811627583307803671e-02 4.830405204753528969e-01
1.020682027811940784e-02 7.076550028611906795e-02 4.978771879051250293e-01
-1.429084355281691650e-02 5.842765994937180324e-02 4.580404892831383967e-01
3.103671964310559389e-02 4.887797291138068490e-02 4.865974387226472686e-01
1.487034275125359920e-03 3.153815668978079273e-02 4.503129906245638137e-01
-3.416295774538365831e-02 4.400271510521447382e-02 4.517955011454787839e-01
2.853300854801692904e-02 5.184567267133398383e-02 4.889793181219509455e-01
6.546781771023499168e-03 7.486961291333386892e-02 4.761002390203558088e-01
3.190508558902509922e-02 4.668809028014038465e-02 4.807044584030615852e-01
-9.694840306896898227e-03 3.875564948783739166e-02 5.234689451525087467e-01
3.543879725931974034e-02 4.083929071986219794e-02 4.811234046801389774e-01
1.525677657538654537e-02 1.724207527666177936e-02 4.486630829709884472e-01
1.412797032813595081e-02 4.526197726168892932e-02 5.152062382581831246e-01
1.620989258055370238e-02 4.486164292079805604e-02 4.616293480231538071e-01
3.477386258007480330e-02 4.109876325750169701e-02 4.794515481581125282e-01
1.934760153690526230e-02 2.960276991737478477e-02 5.238840955871969518e-01
-1.723717778995461844e-02 2.329422754817184714e-03 4.370357233943235054e-01
1.798506628014695432e-03 2.437887771295714490e-02 4.475526168663215287e-01
2.798435746556312415e-02 5.090100299518095228e-02 4.942217123250109978e-01
1.106553151572072478e-02 3.747807788012998131e-02 4.562215337225942191e-01
-1.780348148903396904e-02 5.449281899069160356e-02 4.558744778536245601e-01
1.754628196393388101e-02 4.308774159598699471e-02 4.614686237811504999e-01
5.330983633882427526e-03 3.688832365577414396e-02 5.220746949091346067e-01
-1.105813863314220047e-02 6.062705027774808325e-02 4.597215863159589966e-01
3.548845551550755539e-02 3.162353406427573232e-02 5.004387092743991516e-01
1.420560109045767173e-04 3.329733145598567923e-02 5.247939583534141361e-01
1.803240604068241312e-02 3.962244354042114558e-02 4.599563712984475194e-01
-4.949042723520716280e-03 5.313000683189012668e-02 4.562858195883298107e-01
1.906396705912754772e-02 4.819951430369637940e-02 5.102156466287921521e-01
-1.177063686084728333e-02 4.644647144929146820e-02 5.214731052711218950e-01
2.429664479385938367e-02 3.929087644666098833e-02 5.115918642244566827e-01
-9.177589670108609113e-03 4.096285099858791579e-02 4.516571332080253076e-01
9.636121794947643399e-03 6.611596556087022403e-02 5.029861539736096843e-01
1.610898645445944105e-02 4.842064020245692713e-02 4.632892653382695847e-01
-2.937040147279783298e-02 1.368891307229473837e-02 4.407246759702708183e-01
-4.270631667119611716e-03 4.110668696296190805e-02 4.527076977648947231e-01
3.403891171204766891e-02 3.062631765320094832e-02 4.670242035489766685e-01
9.881471960182493589e-03 7.494320006628908681e-02 4.874259617267474032e-01
2.151484855935328552e-02 5.686871383385879580e-02 4.731166427743954128e-01
3.681270439831470231e-02 3.675846848311187937e-02 4.920010034897698836e-01
8.314907970757380584e-03 5.843293417436496232e-03 4.421160632145745839e-01
2.173560390658270391e-02 4.275959247580222305e-02 4.641446070886213193e-01
3.764510267626020035e-02 2.562437285059292538e-02 4.674579097337251410e-01
1.136278413354346178e-02 7.454387083928915025e-02 4.809979967328713024e-01
1.058647582552242616e-02 3.849665594484306952e-02 4.565233030556167249e-01
-2.746857507928592533e-03 1.043719841602450127e-02 4.413406734253196850e-01
3.019127930329035259e-02 3.733510473170893046e-02 5.058174860367913306e-01
