4.045616523403205295e-02 2.438879894105601409e-02 4.965801860993906969e-01
3.302709899457996479e-02 2.114467260128284620e-02 5.155040396944879921e-01
-7.027139840693780171e-03 1.056633157170344846e-02 4.408007613924508905e-01
-3.277419809970005121e-02 -6.687803326544594293e-04 4.388325847557083548e-01
3.846622236819495499e-02 2.926169596319316835e-02 4.956846267715047660e-01
3.196420597557868368e-03 6.090839223092729682e-02 4.616809558556822513e-01
-2.104185673638345536e-02 4.533705598613608362e-02 4.516619371825911777e-01
2.031197439657562998e-02 5.736833854210503236e-02 4.722600755768965874e-01
1.605830983590894948e-02 3.288193161986900648e-02 5.219301195227258328e-01
3.096935382515471694e-02 2.712674804060030004e-02 4.621543488624831886e-01
8.486696833907816234e-03 6.611584996695187011e-02 5.040449050749301607e-01
-6.272018024994468165e-03 4.863684984181382981e-02 4.549610921522621032e-01
-1.109031595814853957e-02 9.422761404371553587e-03 4.395809187376427118e-01
-1.953151647239851837e-02 3.854775578405110481e-02 4.489737872580307765e-01
3.199668793461768468e-02 2.866177210959007515e-02 4.640223436733612039e-01
8.091561350657194840e-03 7.067242056444161813e-02 4.997522547191634024e-01
1.526148021193763499e-02 3.656457057593105048e-02 4.576334035091980112e-01
3.068974573204101206e-02 4.437516263674279315e-02 4.994036575587058047e-01
3.526465770154092044e-02 2.921458285953048434e-02 5.023967855938484828e-01
3.414573497877176900e-02 3.728478957964551782e-02 4.723908300031550711e-01
-1.071110204780871718e-02 1.897784227781461677e-02 4.430440609373118566e-01
3.863488437137133774e-02 2.417084612911949218e-02 5.006314240346153577e-01
1.293031549347952759e-02 2.909025104191860847e-02 4.531306194046859637e-01
6.340336284206704413e-03 4.060904539810425255e-03 4.410379278839731132e-01
-1.912035834206490814e-02 3.326446273943217680e-02 4.468539448252239477e-01
-3.068875908420195392e-02 1.586682981266108322e-02 4.413751777966591905e-01
-3.412808996106415915e-02 4.062734465426714320e-02 4.493682276057223146e-01
-1.507416853596894521e-02 5.164627984537930108e-03 4.375475632272883830e-01
-3.491432023152083591e-02 2.785692294972724053e-02 4.443028164920440615e-01
9.967349139597328836e-03 4.406629889197620498e-02 5.185049613836615334e-01
3.281702019041206342e-02 4.239410429643813288e-02 4.760530304951337000e-01
3.702840144668985423e-02 2.273608016722907313e-02 5.051692451522370453e-01
2.367448489264764588e-02 3.540453262573649978e-02 4.614947744242970940e-01
-2.081943580137988678e-02 -1.980092959031481969e-04 4.366749963101373977e-01
4.667676461880508609e-04 3.410535300218506954e-02 4.512879916177399142e-01
2.902862964739630694e-02 9.134507727970404486e-03 4.517153932833761765e-01
-5.259813126948119019e-03 4.880844309892491684e-02 5.203627659713208065e-01
-1.117103980321541151e-02 2.347961206676073970e-02 4.444846497230739435e-01
2.727499459829608661e-02 4.685487455511973265e-02 5.025603160475100584e-01
6.586937160161534383e-03 3.517907095863181954e-02 5.227916158913907818e-01
2.758882091162135133e-02 1.032500879348958664e-02 4.511652710141682565e-01
-2.627117491432130400e-02 3.420255213562656271e-02 4.464703631517015214e-01
-5.908639174805341461e-03 1.256368666010638027e-02 4.416131788317155249e-01
2.900226115909202568e-02 3.083018034461679560e-02 4.627497253917139952e-01
-2.038842217288472022e-02 2.152150099688367527e-02 4.424460378410752237e-01
2.272619471229367707e-02 6.025170723778704163e-02 4.916147233576204090e-01
3.588228261675978359e-02 2.933236220741577971e-02 5.012477764477266673e-01
-3.384307392149112081e-02 4.439954945855657809e-02 4.521419877799802145e-01
-1.053134180296245309e-02 2.712303600111675220e-02 4.458284248410722683e-01
3.342817792263992616e-02 4.105437917837758549e-02 4.960878388597286248e-01
-2.976427103601871765e-02 4.358478551295782988e-02 4.506460200949506945e-01
3.413575141578650135e-02 4.338361164322460800e-02 4.835489903072944795e-01
4.636195641074637025e-03 3.119598361998514313e-02 4.513484172553723917e-01
1.966744672755847689e-02 6.675594528084122237e-02 4.858829108891415949e-01
6.547957628414625975e-03 6.261475903129715137e-02 5.076181570813689259e-01
-3.744115306061806397e-02 2.704325983989808863e-02 4.444141281775793595e-01
1.864492892302181681e-02 6.807487560126376791e-02 4.843918083799285679e-01
1.791644262364407852e-02 5.730953957989928793e-02 5.045999264052503097e-01
-3.896656888943086927e-02 3.777615627917471630e-02 4.482872030678917152e-01
3.891724452241532989e-02 3.262827653723701649e-02 4.809085578910115011e-01
6.534666803697929127e-03 2.785605090661089078e-02 4.504814205763395529e-01
7.322458363643760508e-04 2.983318846006292879e-02 4.495473944762320984e-01
1.885553685577784355e-02 4.488057356319190283e-02 5.128522876115086948e-01
2.702897181163930324e-02 5.554446717182842663e-02 4.826572243529058670e-01
-1.203994088853720286e-02 -4.986220601682566159e-03 4.364592772336373105e-01
2.074240251264746621e-02 9.259640107217258914e-03 4.473165931939941942e-01
7.976126010377580788e-03 7.607762144650556668e-02 4.842956202088563589e-01
1.932687295672152333e-02 1.074462552355112330e-02 4.473656117344346206e-01
2.389325613705765156e-02 4.708119010758868989e-02 5.077925954728814695e-01
-8.621666666159655268e-03 3.578787714466338116e-02 4.499171059790288973e-01
1.132577434496020996e-02 1.914369360989670935e-02 4.483566939821653219e-01
-1.801685706460844777e-02 3.982585323702567126e-02 4.497427853649398344e-01
9.636526913284764947e-03 3.771252213578613066e-02 5.208947765248256312e-01
2.336713650267811110e-02 3.590151709446867678e-02 4.615694056063138206e-01
2.611194867732005015e-03 6.827851742352811226e-02 4.668257701705492702e-01
-2.385353785676525007e-02 3.660991060963353361e-02 4.475893069829983695e-01
-1.002432754430439624e-02 5.019163401911892058e-02 4.548633026594778861e-01
1.519110161373355555e-02 4.218431108260606993e-02 5.165373946339738565e-01
5.590161027472633284e-03 5.682543435979045543e-02 5.114976739525808336e-01
-1.664281909389344737e-03 7.683010035390212995e-03 4.407044207880199682e-01
-1.643375037414904899e-02 8.474821592329904313e-03 4.382795082082570626e-01
-3.341675478224093859e-02 1.080617165804088854e-03 4.390101171788387546e-01
-4.214035809632623447e-02 1.793804270300157445e-03 4.418630864113030077e-01
-1.279977157443138889e-03 5.938381837191333140e-02 5.107267141137725730e-01
-1.010744181694634390e-02 5.121671311165380824e-02 5.147542799946422942e-01
-6.914551720272280738e-03 2.883996862769265535e-02 4.472316096006480612e-01
2.605577022809089927e-02 5.758733774803405370e-02 4.863293064153030310e-01
1.019020272548343264e-02 3.153073036992831701e-02 4.533819270909019150e-01
-1.049191310385058640e-02 5.158130768016947615e-02 5.162720860159580871e-01
3.788758734570112086e-02 3.451277059935466129e-02 4.873859319775875609e-01
-1.200923722346897843e-02 1.830550497182676165e-02 4.425361355478927838e-01
2.486192331374794187e-02 5.037817646793954496e-02 5.021179267057805928e-01
2.382608723458077074e-02 3.717778850459706880e-02 4.626910480245314816e-01
-9.930026973605135532e-03 4.507235075137283609e-02 5.222198449536831211e-01
3.567115381928818996e-02 3.893898857220761539e-02 4.918977430411209939e-01
-1.888901338022182935e-02 5.959384287308977513e-02 4.624970550683424331e-01
2.449274053375705834e-02 2.802676909298979641e-02 5.209118229222832186e-01
-6.527656765610908175e-04 5.711394177767711855e-02 5.124281464142685927e-01
-4.716424459823656892e-03 1.220606811531471745e-03 4.380718725106488853e-01
1.584502272184566685e-02 7.315699421771577025e-03 4.448739436068498421e-01
1.658066990919490613e-02 4.468651938042820376e-02 4.619340603308426663e-01
1.015952631777432280e-02 7.503895127174695090e-02 4.816095263769784030e-01
4.140282997968890155e-02 2.467443147190206271e-02 4.900632184690726367e-01
-1.698218204705557316e-02 7.541669453032475226e-03 4.380238526805560473e-01
-2.730676657249326081e-02 2.648230655419115537e-02 4.438971181632302976e-01
1.427440523811437934e-02 6.326075372764866644e-02 4.700482973440622825e-01
-2.742944863670971137e-02 5.061506847003323720e-03 4.380652244304339415e-01
-3.310509123881437421e-02 3.696263810035903263e-02 4.472171689198246036e-01
3.415298582998131313e-03 7.150004656246569668e-02 4.945009772260854364e-01
1.103495375306036246e-02 7.379145245859528024e-02 4.903218466384153817e-01
1.320380691962218939e-02 2.862579640096621705e-02 4.530138574578280175e-01
3.507219720649843581e-02 3.332838613327969435e-02 4.699176438422668078e-01
-1.233483677156439230e-02 1.505470625637230463e-02 4.413073642789945850e-01
3.109322514839040971e-02 4.384321691391925013e-02 4.989844785197142807e-01
2.529740657628915673e-03 2.141906908509239038e-02 4.467461962807346421e-01
3.327236048219798376e-02 2.222910686095272773e-02 5.139281325651149368e-01
2.177310871183794211e-02 4.514748296484630968e-02 5.104231913645708163e-01
4.164982113453042506e-02 2.572763418871854002e-02 4.817493566344501210e-01
2.486505231744173469e-02 3.251780726695483598e-02 4.606662214436931246e-01
1.988005708960225229e-02 2.033255280537091605e-02 4.512572084380313542e-01
-1.395468020445566650e-02 4.627856045542681068e-02 5.218728630788636025e-01
1.399422248288158775e-02 5.625396177383144847e-02 5.092833060366067643e-01
1.632761855164350379e-02 6.774877797948361535e-02 4.756565246664472557e-01
3.335978503853697513e-02 4.235874267102340135e-02 4.776214038798762829e-01
1.787710325333852907e-02 6.886045806725300811e-02 4.844462940742370050e-01
3.475067459137655412e-02 4.133123048660090199e-02 4.868621292356899999e-01
-8.725463770031869140e-03 3.902738579187907397e-02 5.237946238744760619e-01
-3.918777986257596102e-02 3.958779693464967164e-02 4.498778980070218814e-01
4.358326153461558605e-03 6.015998848982168773e-02 4.620653643435913005e-01
6.226971579308709925e-03 4.595768103989004288e-02 4.579469740836309977e-01
1.966611557688558581e-02 4.988565064931834575e-02 4.666176585909609376e-01
-3.168904101843038335e-02 3.873459103033548290e-02 4.479615507376737416e-01
1.729247323043535400e-02 3.505043309945114066e-02 5.202953825087247575e-01
3.379606647278462356e-02 3.892346673940824675e-02 4.988422768038722754e-01
3.384833778256186865e-02 2.254248020563726085e-02 4.620617950293064435e-01
2.172803341439858218e-03 7.131174393792651112e-02 4.937668033594439509e-01
-1.806420504975733352e-02 8.676638450409356051e-03 4.382981828589496143e-01
1.476874160047780653e-02 7.076624116922491936e-02 4.771175614384919883e-01
-6.309899659308440198e-03 4.079586287821494045e-02 5.229687072849092955e-01
2.402031865303819874e-02 5.900224767285708327e-02 4.900056460882363241e-01
-2.523712064033424400e-03 5.443301046083198758e-02 4.574535218688614568e-01
1.390250596422121405e-02 6.692511444563059575e-02 4.721771957008903953e-01
1.948679852231580828e-02 3.724764091620417356e-02 4.597740178128076893e-01
2.169610341221058641e-02 3.123523695897282779e-02 5.215369246981942375e-01
9.027569769270642891e-03 4.400685208901903428e-02 5.190657192719693169e-01
1.545193267292530558e-02 5.274106314749552570e-03 4.438102200210565229e-01
2.629724566554238890e-02 3.169966802811931272e-02 4.612337441970101315e-01
1.915841477366234460e-02 5.922946146644356841e-02 4.999727232728337079e-01
2.995315725365243001e-02 2.150256551396240168e-02 5.190610225943802503e-01
-2.769865916480181156e-02 1.489868211035248573e-02 4.406903896272840737e-01
-9.906902900478457841e-03 5.157705907688511435e-03 4.385933902472382573e-01
2.593610281859033001e-02 4.387621905475634632e-02 5.078287558597983642e-01
2.094629357525299579e-02 5.555955929550521200e-02 5.019634837350032130e-01
2.582498418401279680e-02 5.303006367535073595e-02 4.958734978428750440e-01
4.584547461436574295e-03 3.941285462712956073e-02 5.216089177242237973e-01
-8.509376871200643663e-05 6.488589632684388375e-02 5.027782890381413683e-01
1.631622379605900119e-02 5.460471533054991888e-02 5.092298830401058574e-01
-3.347400239891160090e-02 3.371140793294020305e-02 4.460276755772713542e-01
-9.866466624736336399e-03 -1.825293116212706309e-03 4.368107643849749033e-01
-1.312094429178423463e-02 1.308240596301231927e-02 4.404288207980560643e-01
2.394064139907469725e-03 1.694635848489622204e-02 4.449912383309946318e-01
3.889288858983853958e-03 7.310141780151906132e-02 4.735953428407650434e-01
2.915543612698710124e-02 4.047234049262454086e-02 5.053122274317261020e-01
-2.318962038840049339e-02 9.230307148008452811e-03 4.383580310268059277e-01
2.890043044669498087e-02 4.740609954234271950e-02 4.978553786626888078e-01
3.714526242789871480e-02 3.530483904020430969e-02 4.925807698022679482e-01
3.899913676650386407e-03 6.269510370811927358e-02 4.632962137200983821e-01
-2.459568271116029103e-02 5.084268883515182663e-02 4.545361293584858076e-01
4.913441676779439077e-03 8.010765689880605320e-03 4.421343064589620675e-01
6.572159975066398443e-03 3.053302614942528248e-02 5.257310255619139783e-01
2.415925468855283434e-02 3.161392176608211063e-02 4.596754213725839922e-01
-2.041319419330542978e-02 3.250808385810124990e-02 4.463236674097883494e-01
2.828478739655625879e-02 4.295133376258183922e-02 5.049586082538485288e-01
1.505972436207152730e-02 4.814684973373602184e-02 5.130606850101984140e-01
3.447062015556624868e-03 4.932104403075032034e-02 5.178981562931933569e-01
2.450277483125351541e-02 5.010422989160556034e-02 4.717130245530124499e-01
1.187144002502235444e-02 3.116029856617032537e-02 5.249299014323550727e-01
2.789504060020216517e-02 5.362078682835598464e-02 4.822862301322638490e-01
1.479396117860704019e-02 4.565692522358015537e-02 4.614925369815718881e-01
7.912463680773600475e-04 4.492063298199466814e-02 5.211384751067523746e-01
-1.689553255633726575e-02 6.020136637683957265e-02 4.630299120798960222e-01
3.086289891210939815e-02 3.877766835666827949e-02 5.039286647555570875e-01
2.204180523788679819e-02 3.795570758902546554e-02 4.619238179040921488e-01
9.282872805833036756e-03 6.951855633413689395e-02 4.706771570361971690e-01
-3.628734144581884091e-02 2.198069969095646503e-02 4.431429302573734463e-01
-4.911718088145569650e-03 3.707751124953441446e-02 4.512770982725581859e-01
9.237282951432321254e-03 4.633956037400736166e-02 5.173297581472945383e-01
1.884514179690308100e-02 6.782160711691533062e-02 4.852431258228798172e-01
6.127833599428087093e-03 5.053862404830838234e-03 4.413331528914211654e-01
2.230030595172480777e-03 4.903779195292434084e-02 4.571336286629980594e-01
5.599027285887556594e-04 5.978290730583876722e-02 4.601665414678157706e-01
2.069433658875341475e-02 6.407333936669772079e-02 4.898887931109671134e-01
1.981166672948663984e-02 6.261805869594069818e-02 4.945311555176858942e-01
2.932564311747434468e-02 2.188738201629607943e-02 5.195730528172227691e-01
1.449807084477434949e-02 4.443762944787611052e-02 5.157425325670028649e-01
2.356777999687144354e-02 5.653486569404271578e-02 4.953017192653954570e-01
1.865154633512102617e-02 6.579392187717351959e-02 4.917451602333904326e-01
1.043089433457488127e-02 -2.870631512537696536e-04 4.406868046910940584e-01
-1.957230276868360264e-02 5.675101047116253017e-02 4.574702218989059044e-01
-1.406502681297231230e-02 5.049848718661639063e-02 4.544578403837996050e-01
1.125769079066563615e-02 6.860436233861004485e-02 4.713618373025980635e-01
6.409967786091961411e-03 7.507837962734227599e-02 4.870108517584439412e-01
8.683027882411792353e-03 6.151257705332367764e-02 4.652997570868105393e-01
9.774097920784723462e-03 2.185446783427805184e-02 4.489494167825944793e-01
-1.416001101915526084e-02 4.679607708278013534e-02 5.155982320701357757e-01
-6.999065567451188963e-03 3.450424544437830088e-02 5.244355027753011544e-01
3.096129186146072410e-02 4.626379365481500527e-02 4.774334659384428248e-01
2.681870438842450660e-02 3.704405366706028935e-02 5.105267871136497382e-01
-1.153279986110292317e-02 -5.810805371569852194e-04 4.369090367183282031e-01
1.651223895603020145e-02 3.313982293291722978e-03 4.433085692015001911e-01
-5.819119818291949159e-03 4.996590844269747228e-02 5.195901902153281515e-01
4.164324383429645476e-02 2.547003886093957004e-02 4.854286584682626082e-01
5.163824942775777603e-03 7.792882370755163657e-02 4.807775189741189670e-01
-4.600092452633082127e-03 2.933328677942770996e-02 4.479665067694761360e-01
2.191960138545601469e-02 5.276920217639036181e-02 4.706075245558153930e-01
-1.858036741346821841e-02 5.251408739622522026e-02 4.549574083338251973e-01
3.357853340966329009e-02 4.183261051219315518e-02 4.774069938982620220e-01
1.809333100371036604e-02 6.654466642495768247e-02 4.915416216125793047e-01
1.875774651547876606e-02 5.856796717937889224e-02 5.017530322133624265e-01
3.373108511682863103e-02 2.738862141969600900e-02 5.068776160454349089e-01
-1.307106847831982985e-02 1.692681466406723012e-02 4.418045528637806751e-01
2.642495845815252126e-02 4.502091326960849793e-02 5.063394953404783960e-01
-1.740094806992503393e-03 4.936964279501554476e-02 5.196456358253966901e-01
1.541700183583504316e-02 6.216140683865752081e-02 5.008475994761942829e-01
-1.124538685284224258e-02 2.637018597212572452e-02 4.454397003635769403e-01
-3.143015013428985226e-03 5.294084763434961372e-02 5.164053574760060217e-01
2.031783906612450591e-02 3.639583770849419420e-02 5.169279767204258969e-01
-1.664161794473326475e-02 5.855730591959865117e-02 4.587972041697674919e-01
-1.818463329634495418e-02 4.944950460906596956e-02 4.537405842842304193e-01
2.809515944720065647e-02 5.264244426160091805e-02 4.795285813832024790e-01
1.403828992796266918e-02 3.884894973596859230e-02 5.195846400444831259e-01
2.504415339778795230e-03 4.831368240395066127e-02 4.570367338881569652e-01
8.019095180708302878e-03 7.141306908115861718e-02 4.984015492677468795e-01
-1.887101928108117846e-02 4.524580041219279647e-02 5.191014179138530027e-01
9.309107314896137436e-03 5.667501912292435828e-02 5.104608616686759914e-01
1.077855427326553789e-02 6.161760957191343702e-02 4.665655355924791525e-01
1.449499232899711595e-02 5.740670265632304148e-02 5.085785062458026973e-01
6.991199247668185464e-03 3.477468736644739877e-02 5.229116097490426052e-01
-2.927101708251354101e-02 4.602394548744660058e-02 4.524188802071741344e-01
1.462581767957431451e-02 5.028077215162190389e-02 4.636160353763538744e-01
-2.798642266746832578e-05 2.844334757067690928e-02 4.487880486208606357e-01
1.753822134638772720e-02 4.387606000204857803e-02 5.144533135280520142e-01
3.704802543961040889e-02 3.699509465732032237e-02 4.815047190928216092e-01
5.211551766480004497e-03 6.771210055403889538e-02 4.675082511914373518e-01
2.719880419347887879e-02 3.932413865797997066e-02 4.666939719391394181e-01
2.087774505236586128e-02 5.712577972656964626e-02 4.999204334933145533e-01
9.946914654979155390e-03 7.387557349357050385e-02 4.904316190440114465e-01
-2.091014298305735042e-02 2.024305754463485724e-03 4.369079907162109477e-01
2.009891638053787691e-02 5.727505614710692861e-03 5.311952671753789046e-01
3.420089326679207758e-02 4.251776216616684478e-02 4.805827932669046731e-01
2.824191637374657768e-02 3.166718549814631634e-02 5.118220145592792258e-01
-4.048417995734467784e-02 3.594404666583781577e-02 4.471042752869286430e-01
1.834340594903448654e-02 6.821838782840143611e-02 4.861838013907589517e-01
-5.484789696872174880e-06 4.828425413622294132e-02 5.202518059613938650e-01
1.424212659201174770e-02 4.177500372091591703e-03 4.430251345213344627e-01
1.908446450147946536e-03 1.321591055593268095e-02 4.434406164570216524e-01
3.230368879779810937e-02 2.392168042263414368e-02 4.615176147854475608e-01
-2.024792847645472127e-04 5.126712874755141175e-02 5.169088723156948229e-01
2.238159700655005871e-02 1.924964341704900328e-02 4.519471354060077273e-01
3.644650086089458452e-02 3.746801499464019053e-02 4.904695430743376550e-01
1.227054547447354108e-02 7.028013210381334197e-02 4.735257263149152407e-01
-1.863036424695158066e-02 4.409741235646499891e-02 4.513921656555421325e-01
-6.323106396144468136e-03 1.560116291847044381e-02 4.426379259078257467e-01
1.203229378190825635e-02 1.959822286854631581e-03 4.417451030926431432e-01
-3.796821558856151163e-02 7.184042414812171450e-04 4.403802118665072762e-01
1.778550627246159102e-02 6.869155565368646743e-02 4.812770053152456984e-01
-1.909284751655499282e-02 4.516502378837854853e-02 5.201524106569346273e-01
-1.154633646874697953e-02 2.026604047117767232e-02 4.433260855265879208e-01
-7.691860264094189242e-03 1.092083374089602987e-02 4.408027393208961420e-01
-1.238055595361323667e-02 4.257549881702686612e-02 4.517975709834882170e-01
1.947052583120119015e-02 2.124841401182007636e-02 4.516488160543044028e-01
-2.312904469326474213e-02 2.615684952999664317e-02 4.439621327350353752e-01
2.286250396602697993e-02 5.624532718653352942e-02 4.972000908473039882e-01
1.372877495568461392e-02 3.649428657553626526e-02 4.569883754935867848e-01
-3.423065179141426134e-02 4.135607995341223503e-02 4.499894897664899474e-01
1.879341697625872346e-02 6.061433632343801031e-02 4.982496450925468223e-01
-9.616253542817414235e-03 5.081514535050786485e-02 5.119244133063406421e-01
2.445728046146100274e-03 5.325471221093302371e-02 5.146339486703789268e-01
5.880898380121879140e-03 6.065349006306971352e-02 4.632141962124273760e-01
2.909741832534752312e-02 2.746958292983515959e-02 5.154567674373502495e-01
-5.371562856243914177e-03 1.853805793672253996e-02 4.438242370304911200e-01
-1.495186444684744667e-02 -4.208844970200658307e-03 4.366292836755863438e-01
1.595755396650788346e-02 1.618987525235093816e-02 4.485173872518263272e-01
9.255942410950101715e-03 3.335607608161336030e-02 5.235426663495248434e-01
2.448847729684458172e-02 1.016479740592258693e-02 5.274489224689117295e-01
2.036043355879767897e-02 4.038916330628977702e-02 5.143024922380696751e-01
4.191750400300531948e-02 2.457933779526257079e-02 4.799732974859921564e-01
7.430001137889455376e-03 5.108459786355287746e-02 4.600194253351469476e-01
2.349750436912377213e-02 2.368477959968495403e-02 5.234529430071362954e-01
3.930953600734754527e-02 2.598220421816857528e-02 4.718609508937565700e-01
5.581879567285435301e-03 7.095444430500862099e-02 4.708102067077475916e-01
1.371515667957465094e-02 4.464566698588075949e-02 5.160303890220196976e-01
3.634778963999922563e-02 2.510452871031628591e-02 4.660119317107824788e-01
2.259233855777932273e-03 1.440713548151910210e-02 4.439746413417707815e-01
1.520732217509649167e-02 1.764184222896679217e-03 4.424886342640457215e-01
-3.385188227894909280e-02 4.442022130324242007e-02 4.521596169030436818e-01
3.421917644734055047e-02 2.981782336393848376e-02 5.038799725661378126e-01
-1.998614034313977647e-02 5.218075332567668687e-03 4.372853934072820636e-01
2.812764734743489897e-02 1.944827619998814802e-02 5.225171722773022109e-01
5.575809684727455438e-03 7.087307195903246038e-02 4.703619514932402268e-01
7.242173910671938220e-03 5.492974157807284027e-03 4.417891512214698890e-01
-3.597922593544034160e-03 1.504807334251218216e-02 4.428596480132569457e-01
1.953837456113987833e-02 3.934107085058442810e-02 5.152258427163327603e-01
-3.212927239172252286e-02 2.630530464202875812e-02 4.439085034882065961e-01
-3.140607677943730441e-02 1.723138007205710087e-02 4.417270344267134052e-01
1.507017539833737339e-02 4.047520831858738427e-02 5.175192514094812957e-01
1.377909632902498023e-02 7.141316150446384847e-02 4.767944741693795896e-01
-1.767289455011575999e-02 4.058505608282873822e-02 4.501105833030212833e-01
-2.753895343226701528e-02 2.489631378103545137e-02 4.432799114946545105e-01
1.284833940416923656e-02 9.614597275032776835e-03 4.448999623979170703e-01
1.543500750962830282e-03 6.645968058542219004e-02 5.024535856399012790e-01
-2.344325942972505170e-02 4.486935493714563211e-02 4.512855417008607151e-01
2.308014673950273352e-03 6.422178882137910549e-02 5.076935033039651213e-01
3.095397265965533704e-02 4.571116604703661518e-02 4.953942863055915136e-01
2.085213802199747252e-02 2.088469423987345322e-02 4.520141650286300106e-01
1.680666779923413977e-03 5.969532641767293091e-02 4.604930672575457962e-01
1.182793688836345294e-02 1.577908868600429171e-02 4.471961549437661332e-01
9.730667967348220759e-04 5.575203987537995232e-02 4.587801956930890879e-01
5.857971325537498011e-03 7.330209640212305422e-02 4.896084464128830360e-01
3.052369369633846623e-03 4.818658850076960876e-02 4.572329732981188499e-01
-3.917626652238453792e-03 4.629727768029333335e-02 4.546516604040289344e-01
-2.249002247921727538e-02 5.832344884264457907e-02 4.609406739022006705e-01
3.414586404924145613e-02 3.316081640613199877e-02 5.017103585187148163e-01
3.208987245262087673e-02 4.216471287832312953e-02 4.986149931441352101e-01
3.072762663975564523e-02 2.646237538072229722e-02 4.615582132063655307e-01
-2.481519673161837469e-02 5.081129897924235167e-02 4.545381244657176190e-01
3.817704985857418853e-02 3.000315973522465346e-02 4.736507741438079622e-01
-3.499295997259484897e-02 1.187542556653689270e-03 4.394088956439944349e-01
1.062155926100166563e-03 4.273226892292616985e-02 5.216230997513461309e-01
-2.292215402804866076e-03 1.006901491958575763e-02 4.413867306412307401e-01
4.899860628493255509e-03 4.966528665876296378e-02 5.167911446434871880e-01
-1.345653984620095479e-02 6.701635029007314837e-03 4.383278515287850619e-01
2.282035310283677190e-02 4.215943494466201091e-02 4.648038834266201569e-01
1.789481797507104163e-02 5.833051563427119751e-02 4.700670621604537969e-01
4.014002828588294353e-03 5.977641708157729189e-02 5.099077252833892349e-01
1.409056408969934157e-02 3.858622413897080938e-02 4.581233364081954695e-01
2.131335082951611726e-02 5.065010505450440875e-02 5.073871555571511927e-01
2.369590204644588145e-03 6.948887874105497131e-02 4.984199737021628440e-01
9.682167731552253007e-03 6.705305394989032053e-02 4.688906093173042522e-01
1.391736890269355820e-02 4.553327727340961834e-02 4.610331903250207142e-01
-1.878131314959666925e-02 7.589375660849090495e-03 4.379986705688640458e-01
2.299076299153621911e-02 5.173655157748889566e-02 4.711107771497418106e-01
-1.663516395385877811e-02 4.548129194702086459e-02 4.522144292610230099e-01
1.133671246665909210e-04 1.779895367411189061e-02 4.447504612729281659e-01
1.778896745076080643e-02 3.070116865750571744e-02 4.557571690754024796e-01
2.988236644613418216e-02 1.950770624183612023e-02 4.570639338150056519e-01
-1.296999268974714532e-03 -9.242167351679736464e-04 4.378072226479485241e-01
3.761915942081769243e-02 2.012243814383634158e-02 4.639826536336161822e-01
1.758314669398388860e-02 2.977046993086387289e-02 4.552134996741953321e-01
1.130388327879602514e-02 6.129101591887926165e-02 5.073997077465940420e-01
1.087167470403342662e-02 7.460057502545965058e-02 4.787511137019799246e-01
-1.660569700940331146e-03 6.331398033420755633e-02 5.025991947799050008e-01
1.618494614203692950e-02 5.176880968949832545e-02 5.105760827791204770e-01
3.664357845057895219e-02 3.489948987780321782e-02 4.755342092465560944e-01
-1.658625690122113305e-02 2.695929157307345655e-02 4.447273372413051429e-01
1.366845678483425038e-03 2.508954374020427348e-03 4.394903661205757928e-01
2.832362789719899271e-02 1.373191031120000322e-02 4.531853805228478471e-01
-6.941317584232349798e-04 6.031948564312461514e-02 5.103192102862179613e-01
-2.481190226655441075e-02 4.504924638525469038e-02 4.513296891347273188e-01
1.566601480269172800e-02 6.343863728892072673e-02 4.990461087739119228e-01
-1.622832831771355011e-02 4.088289573771242136e-02 5.234903996715424279e-01
-1.234746781017906359e-02 4.953244601677313230e-02 5.164617313388744080e-01
-3.301681426747427733e-02 3.464328971151363346e-02 4.463744257786832481e-01
3.054033217686042898e-02 4.347441806880578824e-02 5.009790381298125928e-01
-3.620286575209336662e-03 1.655365139994255733e-02 4.433957931698365718e-01
-1.271140590531202701e-02 1.951555784764019003e-02 4.428545533662469613e-01
2.966126005694675119e-02 4.154961769508361269e-02 5.037150430499701681e-01
-2.739919486765952147e-03 4.607137181975645701e-02 4.548718504535235740e-01
1.803736067134902032e-02 4.127823140790047585e-02 4.610613629739205854e-01
3.819004028713393617e-02 3.294448428018706410e-02 4.918819230931238962e-01
2.278922547543442423e-02 5.722481151416640432e-02 4.756799800997431049e-01
3.630198566756596273e-02 3.787237292607550931e-02 4.889113654560334754e-01
-2.588902627876265433e-02 2.899566735115294280e-02 4.447407107842675789e-01
2.111832079267302736e-02 1.978582249712414545e-02 4.514647430662724892e-01
2.666286300964883574e-02 5.267057917992408467e-02 4.773604548149996685e-01
-2.426472136737900867e-02 3.253417852269321203e-02 4.459776165132562920e-01
1.381140564223206670e-02 4.754341730361889146e-02 4.617914991452655160e-01
1.286661511517285181e-02 4.876365885372622132e-03 4.429444267518059530e-01
1.145186072709607900e-02 5.005509999440788810e-03 4.426366529641148073e-01
2.624306388836306417e-02 4.901761626513669208e-03 5.317488799230682961e-01
1.060548630531459383e-02 -7.415712506229250878e-04 4.405849675519549202e-01
9.995222850496062253e-03 1.980404955761040295e-02 4.482020253186215775e-01
1.211054449285806772e-02 6.502218614062520163e-02 5.019979760965612714e-01
-1.050375807294967080e-03 2.778200039966707488e-02 4.482555640188244372e-01
-2.589522158482851152e-02 1.493786323091215486e-02 4.404371165695880608e-01
1.285366615227048412e-02 6.172383752026516790e-02 5.052851427627107483e-01
1.675007545000309350e-02 4.347283258166582259e-02 5.151139577910287537e-01
1.241744690412895438e-02 7.094586213809739306e-02 4.949138378443382336e-01
3.403372269548552570e-02 3.011177466977608616e-02 5.039464255134071813e-01
2.468233550141531174e-02 5.303752786730395186e-02 4.986190183965805156e-01
2.579757420026967604e-02 5.788307890862112726e-02 4.818880635490931374e-01
3.649884385000033010e-02 3.758014193212062121e-02 4.867296905077704849e-01
2.088653185735647039e-02 3.738137938825671774e-02 4.607585953162507963e-01
1.372309973050928056e-02 6.984430115499705438e-02 4.942139794697721911e-01
3.922009001480305374e-02 3.190631912481718679e-02 4.821768262253103843e-01
3.926466044716773324e-02 2.822116239794618398e-02 4.939156561527405231e-01
1.794325132419249003e-03 4.888322506133064779e-03 4.403844976588410787e-01
1.211058910835848684e-02 1.256775251278884065e-02 4.459488265134943785e-01
1.172089487532684653e-02 7.221100996354219703e-02 4.931263015808614036e-01
1.153985792794214905e-02 6.314808896409351835e-02 5.048154641906439366e-01
-2.766513297654062814e-02 2.467200752894952581e-02 4.431941822333084757e-01
2.565864533777242537e-02 5.637654316758594630e-02 4.897940777922927813e-01
5.825768736476529333e-04 6.226982744598655306e-02 5.091100542521690420e-01
3.516138041228848016e-02 2.959708541062308282e-02 4.677345518953159864e-01
1.405574060911132100e-02 1.589630041982755329e-02 4.478882246883648666e-01
1.123259521244685151e-02 4.290277977382703223e-02 5.185175538877315748e-01
4.018294456306861773e-02 2.892804827333844350e-02 4.790490218317688953e-01
-2.763390223923630276e-02 1.116859023026321208e-02 4.399456392392781523e-01
2.503570404579476619e-02 5.477165269983728241e-02 4.946716898667309348e-01
-2.683401412518042831e-02 7.245211641404599237e-03 4.384829393407306819e-01
2.092663436909630512e-02 5.872355251240601176e-02 4.742728957800928513e-01
-2.370830143757616734e-02 3.545854146689896708e-02 4.471477137066459662e-01
-2.528710796656455373e-02 2.757781587242042962e-02 4.443655110054657853e-01
3.500617446971043822e-02 4.006966000532350552e-02 4.925544767856556705e-01
7.509297571363003632e-03 4.335134956891282393e-02 5.200597562795767903e-01
-7.532063127480561129e-03 2.094669131170713572e-02 4.442972391909612573e-01
1.359057139961723781e-02 4.037040232251066368e-02 5.187074406950116234e-01
1.491435920568811441e-02 7.187631574509394106e-02 4.857591622481023941e-01
2.249889522477351717e-02 3.754089064313444885e-02 5.146423223438734151e-01
9.822556714394550109e-03 2.247002618241401156e-02 4.492104315900831701e-01
2.737105012836336601e-02 5.070886919623623923e-02 4.959933617346120038e-01
3.375353380079282317e-02 4.283728532366604808e-02 4.903573708949203191e-01
3.529474687267735583e-02 3.961934785008904697e-02 4.920521982875731282e-01
-1.154678610089764079e-02 6.414347088088830865e-04 4.370447397374283560e-01
2.502809774436418055e-02 5.328702861870215912e-02 4.974183011618150685e-01
-4.264910696430994699e-03 2.187246313440908280e-02 4.452001315262066328e-01
2.621074811351187944e-02 5.731234419354674925e-02 4.864348389057760458e-01
-1.573671217548560861e-02 1.272730773193612996e-02 4.397108933991021318e-01
2.910097733552680088e-02 4.638510133956764980e-02 4.997450023720936274e-01
-1.953798815289781513e-02 3.787551908272972570e-04 4.367838294715018499e-01
-1.845576076279829142e-02 3.071062137032335923e-02 4.459440824725219854e-01
2.718253472219948896e-02 4.417267533008069347e-02 5.058836334464468232e-01
6.823897427674115515e-03 4.397685805431227751e-02 4.574926404717222228e-01
6.839316796191650602e-03 6.168570022622520826e-02 4.643577338041879887e-01
-8.801588942297204621e-04 3.925933662477771452e-02 5.229987850593558196e-01
-3.705191309987127674e-02 3.596919116473821371e-02 4.468004751749170000e-01
2.369673695691688897e-02 6.016318363451683693e-02 4.885681821741891251e-01
-2.274016076790093960e-02 7.735213733058054694e-03 4.379018374190171148e-01
-1.608815700727730252e-02 -1.249246024860173679e-03 4.367199950944118947e-01
2.023840173562586192e-02 4.043303485860815644e-02 5.143546395783730185e-01
9.894753304476172628e-04 5.886040821911379256e-02 5.110545233041575708e-01
3.639819879812009051e-02 3.465562422568060214e-02 4.745399157317171102e-01
6.205086406862420773e-03 3.023499310580623697e-02 4.514350366931749181e-01
-1.445396037348976349e-02 4.717518803259104082e-02 4.530935926367256061e-01
-7.596962733499357245e-03 4.102889093922940100e-02 4.521990275960733885e-01
-3.437897372042283267e-02 3.224637789156059586e-02 4.454795197902840509e-01
1.257592241232744629e-02 7.089609195246152074e-02 4.947476569583691974e-01
3.768630859912153880e-02 3.301627028833997030e-02 4.936791148217996583e-01
8.827392403732526455e-03 1.958945402110169598e-02 4.477847166385413025e-01
2.932436961397287545e-02 4.028474845619870598e-02 4.689933123801961479e-01
-2.344433994702935925e-02 4.162394148627324153e-02 4.495638353582149249e-01
2.664931927673133694e-02 2.561102780710588361e-02 4.579984010559509655e-01
-9.322468066129928344e-03 9.742019550407191378e-03 4.400547870021341290e-01
-3.521588619931820957e-02 1.411454435972696450e-03 4.394671276187873121e-01
1.531831380582005658e-02 4.677730787843456528e-02 5.139834965702054781e-01
1.474168486281925844e-03 6.758541601953053923e-02 4.990209171206879124e-01
1.339035468380657921e-02 4.629097735742910419e-02 4.610600003702478578e-01
1.223778701274694236e-02 3.072839204795265247e-02 4.536770774468692480e-01
-4.923014545361491072e-03 2.977690994617102072e-02 4.480853430583105479e-01
5.644080588392964663e-03 5.817391115341252056e-02 5.107919372127536217e-01
1.681024301462356180e-02 6.713307457289149904e-02 4.929564699017637275e-01
1.999328373972265871e-02 4.424237420979119928e-02 5.125114019425524026e-01
1.569979598121191977e-02 4.981784381217781860e-02 5.117651952715515096e-01
3.182060006035968003e-02 2.832578277977770842e-02 4.636525339463043460e-01
3.685433372036103078e-02 2.864553035756180546e-02 4.688283363985031316e-01
-1.512530527114508243e-02 4.674486678659597882e-02 5.171446565128908768e-01
-3.361495153067384223e-03 5.849406079729057434e-02 4.585153276916354992e-01
4.686989051604929443e-03 4.599747944230254265e-02 4.573262142391131824e-01
-1.270404491754021335e-02 4.879880882110813889e-02 5.196893612145015995e-01
-1.217387531731947345e-02 6.105718825409771344e-02 4.619637994912514367e-01
1.227374756134557397e-02 5.375304234195223824e-02 5.113847248571473658e-01
1.073068709439706399e-02 6.025170468077653552e-02 4.658378848102408543e-01
1.114665946061818222e-02 6.595201527615131287e-02 5.022173001878514897e-01
1.196979889226982945e-02 6.514863479146515424e-02 4.693811460099155397e-01
-1.689460715458947562e-02 1.885201389214857803e-02 4.418482988658777866e-01
-3.364401166249160642e-03 5.451473152654160576e-02 5.147094852535445408e-01
3.768978461156129861e-02 3.514929647926060691e-02 4.841385428472104180e-01
-2.885501825928835085e-02 3.033040775885646051e-02 4.450223337150140956e-01
-2.287318308346542733e-03 4.168714805572013710e-02 5.224360890050392392e-01
2.909035223188231531e-02 2.646399086475730716e-02 4.601330023377186995e-01
-3.526719651425467596e-03 5.388715820896715358e-02 5.154317243564311424e-01
2.167468032026285268e-02 5.053960014632820352e-02 5.069504842318782734e-01
2.711087732418507659e-02 3.467147328876014900e-02 5.116889588243255238e-01
1.533780525158123451e-02 4.901325139038732737e-02 4.633883405258745203e-01
3.454419137498264403e-02 1.778754017570863613e-02 5.169219480656481736e-01
1.328384458282638389e-02 2.538618822150788892e-02 4.515810341965316721e-01
1.277752271703495694e-02 4.114490021693067989e-02 5.186176789337154647e-01
1.803783261036900898e-02 3.001905962628608968e-02 5.241036967985512884e-01
-2.459299448714378361e-02 2.095571059135365941e-02 4.420907626763427856e-01
7.929695162914817547e-03 4.184815488913823378e-02 4.571195380445923773e-01
-2.043941166333784060e-02 1.259882759755306079e-02 4.395152379551762190e-01
3.287898985941109520e-02 4.198392038642757146e-02 4.963242520058054330e-01
1.245108925798619169e-03 5.031246362886407364e-02 5.173456027647426181e-01
1.058603027054758235e-02 4.590692173371528628e-02 4.595946858566947735e-01
9.247084798593220231e-03 4.122498950156067155e-02 5.201514646660105878e-01
1.915757224119189056e-02 6.740568570009948524e-02 4.849083945535412332e-01
3.049563998762317568e-02 1.922203842742684771e-02 4.574476859744348034e-01
3.145116523420133509e-03 7.721727363511932118e-02 4.796363961853454816e-01
-1.013748345082424521e-02 -1.564965982630663662e-03 4.368317865799874467e-01
2.053177321039881958e-02 2.831228966009533693e-02 5.239691073740044835e-01
