2.655943897096942410e-02 4.223210987888229712e-02 5.079080844311528731e-01
2.316370968987158108e-02 2.789375848208243414e-02 5.221860683956641713e-01
3.169853524096530968e-04 5.211080637254884851e-02 4.578730544919321632e-01
-5.760140378905979040e-03 4.296458958069721695e-02 5.230803335995041214e-01
1.001846759978091209e-02 4.700319984312905514e-02 5.170043866158856583e-01
1.056734366352744293e-02 6.416572621030965096e-02 4.682213856151075104e-01
4.089564658617360479e-04 3.128437349179275656e-02 4.503197929846063374e-01
-2.545955365049768979e-02 1.204418921117705356e-02 4.398456842760860019e-01
6.528320707487478107e-03 3.871914329408126815e-03 4.411606602370301555e-01
9.907132449201783760e-05 5.222046886168102420e-02 4.578470181455244203e-01
1.210761073452686423e-02 3.741744603148378784e-02 4.570933629748395455e-01
2.713905527327155690e-02 5.411175488987073762e-02 4.884662042442418639e-01
1.243720327379662857e-02 3.095971833404237081e-02 5.253737473252799717e-01
3.091297432713202564e-02 3.366237757297847744e-02 4.665230779660325955e-01
3.852372264342377589e-02 2.435385712392032498e-02 4.685848373119765320e-01
-6.201753139343589571e-03 2.653319483986883026e-02 4.467394252129996968e-01
1.662860789842723896e-02 6.985760609809532617e-02 4.853699292297510293e-01
-2.875881447685732506e-02 1.408753593293300341e-03 4.381076575015633856e-01
-3.399200538546845451e-02 9.961266877324143759e-04 4.391809336629711180e-01
-2.786474435096888275e-02 1.194848723275302067e-02 4.403258628235184879e-01
-4.056696321017970452e-02 -3.208249863526275482e-05 4.409912886661037090e-01
1.555445783339855399e-02 6.658054180876446515e-02 4.954718834343003198e-01
3.929753227357660889e-02 2.730049973776715183e-02 4.946635223227502931e-01
2.710475287825309110e-02 3.720225669942212043e-02 4.656280151330904338e-01
-1.072274548502519763e-02 4.226349034937497418e-02 5.236564410133506264e-01
-2.639428746616265947e-02 3.701620021292449658e-02 4.477998457841986246e-01
2.241536493162656074e-02 1.642672432349167287e-03 5.330354405777364413e-01
-1.317668602926590216e-02 -4.605912435585302403e-03 4.365787184445829028e-01
-3.253259723745593329e-02 3.266960532515573307e-02 4.458754746447431971e-01
2.144975754139944943e-02 6.317914331674943929e-02 4.807670847169721040e-01
2.138972630386952803e-02 5.058475226183368340e-02 4.690169921686113130e-01
7.660448695499759604e-03 2.676029626348300390e-03 4.410729168621323470e-01
2.601145094401087488e-02 5.343486892069167216e-02 4.776437242171698849e-01
-2.224895983410758726e-02 9.564500356781744858e-03 4.385493727145273746e-01
-6.903886140536372173e-03 1.271563355175372653e-02 4.416536900223890227e-01
4.146084157204722037e-02 2.533894278442161765e-02 4.797387596415722544e-01
-1.431240890512119630e-03 2.751988511941726862e-02 4.482966721568313329e-01
2.153631362948497247e-02 5.595046725577217106e-02 5.004845849792807222e-01
-1.310005631015369668e-02 2.032053391171005641e-02 4.432290340796817274e-01
-1.690784214982709449e-02 6.430896510096704641e-03 4.378324083182890125e-01
-6.794831627343711142e-03 6.298455940544614440e-02 4.619387646744388398e-01
2.745353822947924766e-02 2.987521854616171160e-02 5.162064605957945584e-01
-1.516702952596548932e-03 7.847239595132830814e-03 4.409164970611362255e-01
-1.737674965921705977e-02 1.991778088577964706e-02 4.423032039149877304e-01
1.561215690139088758e-02 4.996334972154076182e-02 4.644504792698894158e-01
-3.171447236541994480e-02 4.298974854492418340e-02 4.507530887624612848e-01
2.268451970529359457e-02 6.242564247993701715e-02 4.818764347439635221e-01
2.970039509495275495e-02 4.410571731392712996e-02 5.018227726483348583e-01
-1.461277103972920786e-02 3.523917175725155976e-02 4.487116682550730262e-01
3.065131143809351338e-02 2.819614255313568352e-02 4.628310736522634472e-01
2.034863347092776692e-02 3.652549882441846058e-02 5.170399231490527825e-01
1.146779826446078787e-03 1.220128850032395525e-02 4.430305739385516084e-01
-2.322813092487040904e-02 2.088246920083727722e-03 4.370907994392453366e-01
-1.751508009898340712e-02 5.692028473625689727e-02 4.575164601272208031e-01
2.593820445743865583e-02 7.541327953527348672e-03 5.304047695013103247e-01
-3.717994752126325270e-02 2.338639056416886436e-02 4.437347723871024052e-01
7.544380766471749621e-03 2.727661033902956805e-02 4.508188406830911377e-01
3.049976062484808376e-03 4.318923683871274399e-02 5.215528859709178677e-01
-2.270368715239300117e-02 4.100724063611638909e-02 4.497327747646908680e-01
5.596691575737975516e-03 1.376758573808847721e-03 4.401932412846879528e-01
1.100392784854940798e-02 7.399816763333852410e-02 4.902126709543109251e-01
-1.762304116894561692e-02 1.387591258156314553e-03 4.370345407797265325e-01
-2.803482618799566298e-02 1.378095421514753498e-02 4.406699588771900711e-01
4.167031436262832143e-03 5.605036829871351545e-02 4.608708782947717464e-01
3.819128551402858202e-02 3.060818160705420024e-02 4.947482862613916677e-01
2.702293007178762502e-02 1.803578310777399427e-02 4.544852761359034488e-01
-8.107974790094354955e-03 2.086810776691601019e-02 4.443569789315510721e-01
5.811265198619271558e-03 7.257077536632369763e-02 4.727383654076295350e-01
3.049346975517214231e-02 2.372384233052874172e-02 4.601333839322089281e-01
-6.385782622492007163e-03 3.160315470064695847e-02 4.488017665140376367e-01
-6.040047865603199138e-03 3.477157154063473948e-02 5.251127858771839074e-01
2.059557781090648812e-02 4.845637577361489035e-02 5.095184755924699882e-01
-1.793453356967364062e-03 6.469593228952853770e-02 4.998847820035819400e-01
-1.355858875048798068e-02 2.923195633778544189e-02 4.462140893202629077e-01
3.968180539052629241e-02 2.333553423502428281e-02 4.705143489461985906e-01
-4.955993834606257920e-03 4.773090325171119169e-02 4.552304302235785083e-01
1.404493162937128087e-02 6.948703042108467232e-02 4.750072907798466026e-01
-4.211216263980278179e-02 3.336363867681858830e-02 4.467083342178427841e-01
-8.065653501681750714e-03 2.728668078789175250e-02 4.466404136351284637e-01
8.179023726827975085e-03 2.448496092283802134e-02 4.497929759893999346e-01
3.624938093627385477e-02 3.850105006513249856e-02 4.824955683260176431e-01
3.127213233942015280e-02 2.522907505800496553e-02 4.616635797099865046e-01
-2.735797922213997063e-02 1.357400391686566267e-02 4.405173492136580382e-01
2.241311060332068852e-02 4.916462436592447527e-02 4.690782721658728893e-01
2.824539665720181628e-02 9.693966819745613445e-03 4.515789699132123913e-01
-3.998766078614996583e-02 3.766906053914218649e-02 4.486726042762345101e-01
4.110118213233691919e-02 2.478849117289487480e-02 4.907069866974955730e-01
-1.875876384807374786e-02 3.653791620961365644e-02 4.485202141364403872e-01
1.764416058877693941e-03 6.883477997724160580e-02 4.990380750145773647e-01
-1.004595452021480630e-02 3.531598182362236105e-02 4.497017189519426084e-01
2.579507554616002063e-02 4.084504462408746622e-02 5.089314938449748249e-01
-4.592197199097668159e-03 7.764201213210789390e-03 4.404179064110021469e-01
2.736360067789079045e-02 1.142222213459902561e-02 4.516849647440921434e-01
-7.539675234248400214e-03 5.530611791487698159e-02 5.108312097262084350e-01
3.089720348808823631e-03 7.042022100585221267e-02 4.701097238662907407e-01
2.417725279289859031e-02 5.907304067440987544e-02 4.799727569044832109e-01
-4.785304990187516823e-03 3.109406903347500251e-02 4.489433470061467979e-01
2.068770551702801136e-02 4.304344269248440435e-02 5.125845773015924589e-01
2.859263870452479969e-02 4.833112601830035632e-02 4.764106619690517408e-01
2.031380171043920338e-02 3.530127237552462688e-02 4.595738161138537836e-01
-3.555972062162773145e-02 4.145886519280625460e-02 4.506673086648697035e-01
-3.198067012331748393e-02 2.443205396990177219e-02 4.434628298530983725e-01
8.254890982101865948e-03 6.575867477088502555e-02 5.050014767455538456e-01
-1.040813961380956075e-02 2.506942077948233830e-02 4.453825710064833188e-01
-1.589837628139215489e-02 1.382207371820809612e-02 4.402261296880562447e-01
5.928504864924459550e-04 7.047573425257228075e-02 4.722186393601583987e-01
1.647171699001330133e-02 6.536364092758660538e-02 4.743501600365214177e-01
-1.114367412704901812e-02 4.864333340483226881e-02 5.218795492312006123e-01
2.659189654310991496e-02 4.509019685516653386e-02 5.060834635896497291e-01
6.091710637790683294e-03 1.388863503358531669e-03 4.403147377578259802e-01
5.376389761541118875e-03 6.534831607661915898e-02 5.064403407126293333e-01
1.429123311178451608e-02 5.161668003382789693e-02 5.121905213902616660e-01
-1.143398503215969052e-02 1.126991060007547819e-02 4.402620430955463959e-01
1.958575001405352123e-02 2.172539474454450101e-02 4.522189763675581453e-01
2.203496750725775222e-02 3.879097766109596696e-02 5.142219222748435348e-01
3.609743756488244942e-02 3.784668442698088664e-02 4.915783633187160162e-01
2.793277381745321725e-02 4.933174219510474273e-02 4.967779814867019916e-01
-3.088109421678798816e-02 2.916228819949864132e-02 4.448521482199984667e-01
9.102536532241389464e-03 6.608985678849332857e-02 4.683949494503682476e-01
5.682767654923946699e-03 7.328435464492420726e-02 4.738383274558850000e-01
2.433808069666466845e-02 5.734678070095734076e-02 4.786524544455395547e-01
2.060371164111049480e-02 4.564249815430332369e-02 4.655909803744812669e-01
5.826674483357371058e-03 5.840904945431348722e-02 4.626824849546424256e-01
1.382631545069822401e-02 3.478362585642263971e-02 5.217114856105375953e-01
4.108722406611041433e-02 2.615263533727920850e-02 4.791216600460381780e-01
1.795465053894179652e-02 6.201640266609771690e-02 4.978565264107246979e-01
4.147711660075155404e-02 2.312500167532178033e-02 4.925927965451666890e-01
-6.134915012085124034e-03 5.197537428250767477e-02 5.186584589178556692e-01
3.478330310888906596e-04 6.652486284149999873e-02 5.002234691182368964e-01
2.957802183021214157e-02 3.428409395940740928e-02 5.081125467378662108e-01
-1.133770035990656509e-03 1.271816064222474826e-03 4.386975502395294435e-01
1.116059591589588576e-02 7.303649249455020087e-02 4.921534893901328700e-01
2.678806926459149917e-02 1.616257607641879632e-02 4.534339569943084958e-01
2.899141761897170919e-02 9.582054666875998439e-03 5.273489421867374460e-01
7.913122438374785989e-03 7.232825537095421975e-02 4.967395673878794438e-01
-8.767959948234144499e-03 5.414184166801826181e-02 5.123075661046578855e-01
1.764049238371553918e-02 4.348084532397699514e-02 5.148789087918598240e-01
4.722360853248531824e-03 6.750477039315562477e-02 5.039467974118990723e-01
-9.260579193209833235e-03 6.058475165383676170e-02 4.598573682081514291e-01
4.133451212584378365e-02 2.576239605868041113e-02 4.800353223339940967e-01
1.088283285636337111e-02 3.664497504120146215e-02 5.214576114576904287e-01
-2.834276163974357859e-02 3.854178806845307004e-02 4.482818434402780494e-01
2.286966640225568045e-02 4.264549924414386128e-02 5.108735644768755968e-01
3.431392481417969847e-02 3.761222944809239355e-02 4.739412449249886250e-01
-1.128459258455713835e-02 1.077049875866972588e-02 4.401120960783683200e-01
1.987530656795495967e-03 1.102462470316890007e-02 4.427920627697614631e-01
2.809000762174378510e-02 2.238665093751008445e-02 5.208819232932975218e-01
1.965745406530828437e-02 6.366318380707894353e-02 4.776753196305950633e-01
-1.290438757376501967e-02 5.003441810065589745e-02 5.187215500952243596e-01
1.125366005177154752e-02 6.932321315227360503e-02 4.984477082575803353e-01
-1.640025332656771043e-02 6.599233587115298574e-03 4.378888967616167416e-01
-1.493876923457629520e-02 4.175125595479374507e-02 4.513475593936699393e-01
1.049924384924963948e-02 7.248707449834916605e-02 4.938820972454269209e-01
3.792277003494474996e-02 2.821910131691246493e-02 4.711606073046072929e-01
5.774364323287943003e-03 6.297141157538685419e-02 4.649969879476651968e-01
5.041793517728501055e-04 5.039122081946794535e-02 4.574295751003264465e-01
-3.073139586956174975e-04 3.293358939708721997e-04 4.385330136922677702e-01
3.193985410058018670e-02 2.252814908717127793e-02 5.160072525912224872e-01
-1.902912691547705565e-02 3.979502057404924603e-02 4.498503222799264956e-01
3.726125490510766823e-03 5.964870678157004752e-02 5.106071101015897673e-01
1.729251459785029546e-02 6.074375787607879523e-02 4.714198303533794765e-01
-2.338567380907172200e-02 1.755488758971566685e-02 4.412186168455315416e-01
-3.212646285456397660e-02 4.509485085607951166e-02 4.524255712557591069e-01
1.348051845873926048e-02 3.457243325914215182e-02 4.562444316183884019e-01
1.583203604298571293e-02 2.772190139040278320e-02 4.538120632171691038e-01
-2.707392428482386162e-02 2.348117202855654756e-02 4.429839436324690682e-01
-4.035125141244334454e-03 5.619471629943417756e-02 5.139555306168390736e-01
4.220496074294877338e-03 3.684907161750016619e-02 5.232566489138607002e-01
-1.198674576130650052e-02 3.775553206886144569e-02 4.503649562428805875e-01
2.524934925258468313e-02 4.795192379116665349e-02 5.045458884155976653e-01
-2.321840425362394281e-02 3.162124051395652502e-02 4.459289011971956374e-01
-7.434344080720908104e-03 2.095926816198085199e-02 4.445084946985538576e-01
1.957694384062106871e-02 5.136780713130349729e-02 5.087809546544717065e-01
-1.390100644340722807e-02 1.171634586303220427e-02 4.398655021221856698e-01
4.118587327725741626e-02 2.574175836271916026e-02 4.786168757769574955e-01
1.912511145545200270e-02 5.856353114734848958e-02 5.011656110999374025e-01
3.971909548209208440e-02 2.803143520100248587e-02 4.920873729657513906e-01
4.078152908225827350e-02 2.681337540673107284e-02 4.785996288560107614e-01
1.095701663389634685e-02 4.664883525053980379e-02 4.604315028734697890e-01
1.308584417396162387e-02 3.889771367635577043e-02 4.581889069155097305e-01
9.331094616268374720e-03 1.298087044165732555e-02 4.455370783608190166e-01
-1.970963176106575038e-02 3.788073353415103567e-02 4.489363859678413560e-01
2.441774314493753636e-02 2.357549363781404755e-02 4.558060012745308032e-01
7.220581815748854104e-03 3.490091649481855823e-02 4.542862180188577681e-01
3.098277579705981458e-02 2.805581750865905263e-02 5.109385191333440934e-01
4.499436895123720692e-04 3.287075219014296001e-02 4.510086700876491106e-01
3.199882878512580464e-02 2.976573250554140002e-02 5.077940578523600923e-01
2.317857205546465169e-02 8.094779856108194616e-03 4.479612482080062574e-01
2.767102176679023945e-02 3.453839713870707206e-02 5.108862082035666718e-01
1.755166185923136973e-02 2.517215734313211703e-02 4.532808956556687585e-01
-1.106316723311476409e-02 2.313699490350965785e-03 4.375875411477999077e-01
2.855930175032565105e-02 3.966590680350150916e-02 5.068853457694317832e-01
-3.632542418070043751e-03 5.809050768189041175e-02 5.118890608342888671e-01
1.280924126443635722e-02 1.896604297138784062e-02 4.489633239244367191e-01
-5.835377316206357204e-03 2.051724243109818643e-02 4.446281338269640893e-01
1.957311463064541693e-02 4.274496701204733018e-02 5.140471243935699208e-01
3.167963592555039093e-02 4.581010829906624615e-02 4.930878973250587549e-01
-1.005572139956959279e-02 -2.364319807265706681e-03 4.368247623433792470e-01
-7.238054620140807471e-03 5.104137556465533632e-02 5.197639868722381262e-01
-1.095640284239938686e-02 7.775775550698336286e-03 4.392664173961431384e-01
-5.085286695682044583e-03 5.195814623570814417e-02 4.565020693304523980e-01
2.099303856307502270e-02 5.632239274859422024e-02 5.010150336154003403e-01
1.223158120770180025e-02 4.543612099684363019e-03 4.427731043356304408e-01
9.020129358457577851e-03 4.003562342653122635e-02 4.571308970519427084e-01
1.287401422993798145e-02 6.883892258061051483e-02 4.732877640744417858e-01
-5.427704860523453051e-03 3.904771626596754974e-02 4.522402292571601756e-01
-8.956082562377421299e-03 5.238211631131621526e-02 5.172665939971931026e-01
2.516815185385387274e-02 1.631449294448857057e-02 4.524206659030577393e-01
3.088522980625923314e-02 4.141797873090698190e-02 4.718781321508126458e-01
-4.339931795818174377e-03 6.128708632861945560e-02 4.603743638828415308e-01
-3.262301706629421039e-02 2.845509687749867012e-02 4.446542235486580785e-01
3.864592040616682267e-02 3.275007482848704687e-02 4.845561037105877711e-01
1.869306638942758864e-02 6.753951338833641405e-02 4.878108805034886974e-01
8.958418122362983571e-03 7.066699719933061674e-02 4.996237046492129075e-01
2.574123958208761678e-02 4.497902848295135675e-02 5.076449993713177955e-01
3.703142412916810011e-02 3.636957618929374803e-02 4.832094398886238040e-01
1.331085737129651149e-02 5.259065397809895015e-02 5.122824376322127060e-01
4.515359648156545835e-03 8.911807435227764307e-03 4.425376317847470320e-01
-1.661283480385775460e-02 4.883975903798251639e-02 4.539392721127628039e-01
-2.981545558763421325e-02 4.000864831375751385e-02 4.488533043963112146e-01
2.044554115827485613e-02 4.075404781440657848e-02 4.628030032408624317e-01
1.896620937214191227e-02 6.708934777527068849e-02 4.820025566643150738e-01
3.374587888821011655e-03 6.894949171423317424e-02 4.681157170553377211e-01
1.801371378843509216e-02 4.602000233575796045e-02 5.128966190168935402e-01
-8.852646323660227565e-03 1.441945232552072249e-02 4.419598787971243392e-01
5.941502829265987891e-03 7.115578586651745419e-02 4.712401071130544183e-01
1.384890040339613326e-03 5.110288429886663403e-02 5.171497051922814281e-01
2.202617582597737184e-02 3.192838479249587164e-02 5.204130728999631916e-01
-1.996978684766629458e-02 3.724889712396737412e-02 4.486270119632098652e-01
3.140292675751533980e-02 3.946665802096644554e-02 4.709105608140759514e-01
2.507852297118886090e-02 3.320488626944530230e-02 4.615520948812477098e-01
1.503039519243762855e-03 6.522407164945288882e-02 5.069765975442673822e-01
-2.217281961670046139e-02 1.580940259929558209e-02 4.406729194898935664e-01
3.219785473767782132e-03 3.786693822640207346e-02 5.231027422374585623e-01
-2.098146727632879682e-02 7.212642484656907500e-03 4.379128521513921402e-01
2.039455068612633717e-02 6.314532025830243978e-02 4.929119762247846648e-01
2.154921247372440160e-02 1.812978776623415042e-02 4.511995776735997499e-01
-1.575945341219987458e-02 3.286711577128523243e-04 4.369786331641812849e-01
1.814173278227858982e-02 5.571561954676339939e-02 5.063043518832008871e-01
2.711935055487938936e-02 5.321241580608886135e-02 4.899728301925387330e-01
3.055734677403694130e-02 4.932384338558770676e-02 4.891742717532795437e-01
2.371857555847299570e-02 5.987643942058368945e-02 4.800509655177847002e-01
1.690814237444542706e-02 5.067175022079749291e-02 5.108741282166957554e-01
2.416134166638425618e-02 5.943322063917062803e-02 4.883609509407852434e-01
-2.836085676320964505e-02 2.640477735530526865e-02 4.440593035722095738e-01
-8.100945389445760383e-03 3.179779178646250509e-02 4.484990362630089655e-01
1.489943044124624784e-02 3.198224480454080199e-02 4.555281235005105844e-01
1.326728665230767802e-02 7.299822252288021285e-02 4.806346116915394817e-01
4.619326149178246133e-03 7.650415096774715318e-02 4.830248960541050907e-01
-6.892233094974831165e-03 3.632619371325064572e-02 5.249213481855788954e-01
-2.243353832158450842e-02 4.474837520170601296e-02 4.515480559177148523e-01
3.104532118181817235e-02 3.389592380362834584e-02 5.063299034092436646e-01
2.056242719457163776e-02 3.340380726014227641e-02 5.201509828712426176e-01
8.685828289601918439e-03 7.218738129787852231e-02 4.736532820414714462e-01
7.440504861962194891e-03 4.806068283261119567e-02 5.177914454777626796e-01
-1.153927806976263667e-02 5.106442620936017807e-02 5.179584523606793889e-01
2.149613645132937914e-02 3.300701722359927065e-02 5.195744374284073652e-01
-1.633756059797612445e-02 5.427287652838636012e-02 4.562572479544301784e-01
1.141020796588015744e-02 7.246511603625982456e-02 4.760787654761127752e-01
3.052706364776822112e-02 4.891160142704503722e-02 4.846117313918794633e-01
1.434922801299133750e-02 6.101679525862712533e-02 5.048460449608930256e-01
1.303812279896967088e-02 1.736059694068688153e-02 4.483964004314827667e-01
1.137837870230616610e-02 5.085468544693154402e-02 4.624857603101178993e-01
4.915211667551140293e-03 4.140318825030334104e-02 4.562014140440814325e-01
-2.285732009998113490e-02 5.947290878665125943e-03 4.374986956257077564e-01
1.918398228142322373e-02 6.703074609784707982e-02 4.829726281100039653e-01
-9.031738711771337275e-03 3.451779507593660118e-02 4.495425944233493176e-01
3.183333549558720749e-02 3.225433390015881863e-02 5.060062562338873970e-01
7.657209391856151584e-03 6.575834972253494226e-02 5.053308400153598834e-01
1.208278323998077455e-02 6.408203162721524959e-02 5.032628053590614270e-01
2.441755045941033583e-02 3.787831623393710101e-02 5.131987098869705832e-01
-2.306304792161811487e-02 5.668872988126438806e-02 4.588517732251708447e-01
-1.562924334082865449e-02 1.059030750364057041e-02 4.390483112682416200e-01
1.667946964282840394e-02 6.812760421365944563e-02 4.774827226221480259e-01
5.613613805021847730e-03 7.800210880236482791e-02 4.792083961058170027e-01
-2.581799317563021959e-04 2.772203933618561100e-02 4.486845981980064901e-01
-2.644289347574331137e-02 1.466835421921799769e-02 4.405469963045118842e-01
2.718222393474871434e-02 4.747622526827608574e-02 4.732165470385492068e-01
-1.504769375077372531e-02 2.101688265808604114e-02 4.431020283622220668e-01
-2.768295394066767195e-02 4.939734098616639646e-02 4.544329047991543247e-01
8.877366888255314170e-03 6.002063151651046424e-02 5.092471999258418869e-01
2.749384892938508754e-02 4.965681549098916597e-02 4.973445408388674771e-01
-1.297253646251625078e-03 6.505025950113582645e-02 5.001569331056371359e-01
-1.666278098779907027e-02 2.808351308282357878e-02 4.453156518215511950e-01
1.602741250731534728e-02 3.323462216188409479e-02 5.220919787814989332e-01
3.922841734256966167e-02 2.526687547767712469e-02 4.981114908668883290e-01
1.778509266559307606e-02 6.770523896924500462e-02 4.897483287490479453e-01
-1.079806232694452764e-02 -4.253437069070400978e-03 4.366026721841689273e-01
2.271156919151167894e-02 3.244656486497450587e-02 4.594995838169843028e-01
2.046230514042175763e-02 6.412454485940080606e-02 4.902904990320415823e-01
1.815187350032041597e-02 4.065962706102696500e-02 4.611806726503849818e-01
8.274352472039045447e-03 7.392572496030547224e-02 4.895529788400615478e-01
2.660309753444372108e-02 4.576177047412040289e-02 4.706251818130052778e-01
1.576118370365308177e-02 6.619808497612765519e-02 4.740488896392163198e-01
-1.287905944206035880e-02 5.612039414981367935e-03 4.382272720367174634e-01
1.943727753513327730e-02 6.484408511993437763e-02 4.917473110105000100e-01
3.863427816871664588e-02 2.510189013302054073e-02 4.695857146281383621e-01
3.895363522196107313e-03 4.936492857096531905e-02 5.184822009792290354e-01
2.996512273977154292e-02 3.581169797632716839e-02 5.069214661306197245e-01
2.934213856631522413e-02 4.668161491997894347e-02 4.980823934357964111e-01
3.167016955723989113e-02 2.220175421463336032e-02 5.165470663519821093e-01
3.552983367395991243e-02 2.643683397381579175e-02 4.664017443839846289e-01
-1.683079962537623389e-02 7.270292085732408399e-03 4.380585688760662011e-01
1.956782936162593592e-02 5.140486919422222745e-02 5.087702652765873079e-01
-2.739175023287291483e-02 2.011951504597475279e-02 4.420588107318367821e-01
-4.921728365319238616e-03 5.949622397484977815e-02 4.589079717008543446e-01
-9.555301677990330964e-03 5.236824809874963960e-02 5.171286977677708174e-01
-3.908011925483595439e-03 2.479273871503361037e-02 4.466110151525470862e-01
2.854408638582282831e-02 4.929234626722206469e-02 4.953122356312336660e-01
-2.854215404749270435e-02 3.278480563685700483e-02 4.459935392560827605e-01
1.244464657541762866e-02 5.974193284056954906e-02 5.084543460295862793e-01
-3.164753131346177695e-02 1.718641396683057154e-02 4.418796311519972431e-01
-2.555945040973555717e-03 5.814016203106518732e-02 5.125521501133419866e-01
5.784715428161573206e-03 7.487086659349205531e-02 4.877259221695340319e-01
1.302265513837203362e-02 3.047960301381732670e-02 4.540904987338938437e-01
2.163378318544565554e-02 3.050613698454250275e-02 5.223860926047880771e-01
1.240022145523655625e-02 6.284688311679188788e-02 5.042302396120728059e-01
3.417995329645211883e-02 2.663964609111682882e-02 4.651868446892330478e-01
8.447328229999377658e-03 1.944985452586776159e-02 4.478377503108329494e-01
1.355841093840841338e-02 7.055346265371088832e-02 4.937261225899418626e-01
-1.654565143788355730e-02 3.399642561067313384e-02 4.478458188768792980e-01
2.295385149488924498e-02 3.609161352285370633e-02 4.617328288513178891e-01
3.001562430575136983e-02 4.244652437317584376e-02 5.025423151085722795e-01
2.228897313942500118e-03 4.908302451002635736e-02 5.196143174655566410e-01
2.492371488047418968e-02 5.446264435280567112e-02 4.956040547158306886e-01
1.864796941163117394e-02 2.997338557226902553e-02 5.243130543003432509e-01
-9.706823505913574762e-03 4.103443305903362037e-02 4.520736598931929251e-01
7.441787721364489031e-03 6.536428510873854882e-03 4.423723159006024419e-01
-8.916505129990780210e-03 2.595176897186068227e-02 4.459972634545252279e-01
3.214635117676185178e-02 4.626772084559088727e-02 4.880436629658912451e-01
-3.405628983676067811e-02 -5.888528792637596262e-04 4.391728549693675876e-01
4.607871085969614602e-03 7.156033100144329473e-02 4.721090218152271256e-01
9.253112376341122297e-03 2.075622412886383647e-02 4.485889401531126253e-01
1.810773628634222698e-02 5.405221002191354374e-02 4.681967028389835694e-01
2.411607430722985737e-02 5.413347116240072726e-02 4.980487284749473553e-01
3.251958950294133593e-02 3.763357328977816330e-02 4.707849606140138699e-01
-3.276767217243032465e-02 3.192287846864694939e-02 4.455949898751275784e-01
-4.913130598309407154e-04 6.411520515974965251e-02 4.635883270236804132e-01
4.014061235271737527e-02 2.081874712526460627e-02 4.692368584826255851e-01
3.825215979800830612e-02 2.818463006897860973e-02 4.978776846278443746e-01
-3.232242096085045230e-02 3.449706089799345343e-02 4.465559493052406181e-01
-4.433680942467561198e-03 4.777020661747991698e-02 5.214476440181046168e-01
-6.892967542515900103e-03 3.167041432529950351e-02 4.487159230888249084e-01
1.685784730173368884e-02 1.583866242778866201e-02 4.487943830108809262e-01
1.131331280444082890e-02 1.951420413532173326e-02 4.487167974766109735e-01
9.430380414903427946e-03 4.219027789595716782e-02 4.581308103455528080e-01
-2.525701614576223580e-02 1.584542237928344977e-02 4.407578548988859701e-01
-2.442038517221807592e-03 6.708365290636982003e-02 4.654188697197654823e-01
1.010495596935146422e-03 5.511109371770506193e-02 4.590200632148556115e-01
5.731094325148778507e-03 4.513182362504512130e-02 5.204253391212069202e-01
1.704784141530856639e-02 1.083513554741218077e-02 4.467853400440912059e-01
1.432486716685922763e-02 7.014453635078995997e-02 4.762805920863764642e-01
1.104489109349215091e-02 7.462967906660264439e-02 4.860091220107708998e-01
2.300765089550778006e-02 3.334927914164120127e-02 5.166417317152107724e-01
-2.863063257744034862e-02 2.593089514588298866e-02 4.438758198863715365e-01
2.741509415008575729e-02 1.923145793912767881e-02 4.553718517965568147e-01
8.330004646125212589e-03 3.724799555377052152e-02 4.556990851516157237e-01
-1.039859360104020310e-02 1.916116609497438283e-02 4.433338082857267159e-01
-1.165190144172411832e-02 5.913011938835275455e-02 4.588589410181789230e-01
-3.778190907677721894e-03 4.182385735653757625e-02 5.231852000425539773e-01
2.490678462034883606e-02 5.276852851891048607e-02 4.985650529477493875e-01
1.813270786829105155e-02 2.004994443042617050e-02 4.509305636077064472e-01
-4.018890211566239490e-02 3.010366302608009220e-02 4.456367014981030827e-01
-1.735045268366984181e-02 4.625268543800133830e-02 5.224155324997218353e-01
-1.588382090627215790e-02 4.122585175430017179e-02 5.242407841893755860e-01
3.806378446275715532e-02 3.108244557273590059e-02 4.945764360798522441e-01
1.525381271258477098e-02 4.043886996343951101e-02 4.597734250329970629e-01
-5.629371080662519400e-03 1.177507090613925597e-02 4.415503044315349790e-01
1.252425413391007082e-02 7.189134218309195523e-02 4.765448510102150981e-01
8.303690052280337033e-03 4.363451125202039843e-02 5.201979804634092597e-01
6.643210408414043991e-03 3.941528156918231579e-02 4.560321834660481244e-01
-9.412393101353125346e-03 5.219145327764623116e-02 5.120893210200908596e-01
3.335171536834599659e-02 3.268730905752541965e-02 4.682276733210304354e-01
5.389161281006779429e-03 4.125049638113390676e-04 4.398559495533108654e-01
2.167840560571931280e-02 6.115498327382834498e-02 4.784033156867162906e-01
-7.732798956103422924e-03 2.863947026311193522e-02 4.472009790465611978e-01
6.713077951015547148e-03 3.746344594265084427e-02 4.552351470528839816e-01
5.823594456741332769e-03 4.988104559004900851e-02 4.593534114725192352e-01
-1.357245602448020096e-02 1.661656005029370914e-02 4.417414487539357837e-01
3.678057135199347578e-03 2.537180821455632673e-02 4.488665918551844047e-01
5.529826080333481893e-03 5.770202504094573692e-02 4.622034141611483515e-01
2.640397561703948168e-02 3.287106178382476901e-02 4.623165919230864951e-01
-1.647859485098685656e-02 5.530159561163588457e-03 4.375937681735510565e-01
-1.978092001647348969e-02 1.840906832929069953e-02 4.416349974335963546e-01
3.287221583935767688e-02 4.345027979954150382e-02 4.788109618450245852e-01
3.823435104906720838e-02 2.732123251606470571e-02 4.709320473988390376e-01
-1.934362008349110873e-02 3.630548511188431970e-02 4.483279050960188306e-01
1.651393269433865454e-02 1.253247100326931526e-02 4.472996466238522428e-01
-1.416607031152882987e-02 2.018154669433231373e-04 4.370095481055551456e-01
1.793379099461770571e-02 5.486760255445478213e-02 5.076754674317059957e-01
3.936787393753803099e-02 3.037902339894758830e-02 4.899661175197021490e-01
-3.705901686814436213e-02 3.803227335925116886e-02 4.482367608722099828e-01
4.115797319095823581e-02 2.673516583827681772e-02 4.822927365785521503e-01
4.103913271198476181e-02 2.302432046575702065e-02 4.963310649713268963e-01
-1.190393731707697130e-03 3.498327782555120391e-02 5.253073085472911297e-01
-1.148026766113263014e-02 5.043885493754431126e-02 4.550329105180918043e-01
-2.989937873121605201e-03 5.530785572276354645e-02 5.145974200788469011e-01
-2.551434473915635895e-03 5.858957397329327133e-02 5.107102396277490852e-01
-8.825943718655533676e-03 4.914380252376399083e-02 5.213299189997198102e-01
-7.940333623701452403e-03 4.785278063582833197e-02 5.218007737712476724e-01
1.432548571769747328e-02 1.146919907911079020e-02 4.462395606099632817e-01
-7.493426912925546003e-03 2.971268168968624248e-03 4.384107118629108069e-01
3.709574475207413902e-02 3.609839155138091366e-02 4.850075951085187631e-01
1.488892765757537581e-04 5.094454876182737818e-02 4.574944686065091637e-01
2.884982705786498514e-02 1.559289008613909573e-02 4.546077374620551836e-01
1.094652220944963492e-02 4.706352847194818917e-02 4.605803821422360111e-01
-1.293030963574569661e-02 -7.827759926336455565e-03 4.364694946124750841e-01
1.563870908654234077e-03 6.748985338959306857e-02 5.006210983058293484e-01
3.739783530191331806e-02 2.515191645176885482e-02 5.022465006778437102e-01
5.901431044840013164e-03 4.522037890448568631e-02 5.203626325533908803e-01
-3.693615487149522897e-02 2.904461457687028750e-02 4.449635908240885951e-01
-2.448025517461689671e-02 4.790021810230708083e-02 4.533558152937556818e-01
-4.450902958463081108e-03 3.303077591301826349e-02 4.498674934698493888e-01
2.940008210026213292e-02 2.301388727206985299e-02 5.187975391593314667e-01
-7.424017999250737479e-03 2.725959748190360035e-02 4.467685230548757436e-01
-1.588980110828523001e-02 4.596201762607121655e-02 4.527831583626583112e-01
1.523650215058076213e-02 1.961341813206716328e-02 4.499740287268116923e-01
-3.221979847307836990e-03 5.673886338097051951e-02 4.583917439973839159e-01
7.262282750640697282e-03 4.545212102191478754e-02 4.585092744485738114e-01
-2.577589927681594659e-02 4.496380750176247332e-02 4.515504105491223164e-01
2.182158177736096688e-03 6.746101478382911243e-02 5.026706027638286889e-01
-4.370124855327307822e-02 3.095442439079764199e-02 4.463045209394569390e-01
2.776606405497459087e-02 5.044264727997684744e-02 4.775266427661626345e-01
2.470012754880469841e-02 5.645846753009244740e-02 4.783996628158129205e-01
-1.030447189458502579e-03 3.663731007529932165e-02 5.246163856516122825e-01
1.932041226177873619e-02 5.657576745884242142e-02 5.034003566356234360e-01
1.142227957639069258e-02 7.276387882857221490e-02 4.925243228320373978e-01
1.584232797390223296e-02 4.091335927987024834e-02 5.169835748977453793e-01
1.947132592031205686e-02 6.675713579028809408e-02 4.856931943167771548e-01
2.228627448627140163e-03 3.722253448737086745e-02 5.236276006190352383e-01
2.307266779508016299e-02 3.454054537213868681e-02 5.153707211362243967e-01
-2.910306516806540362e-03 5.094337849725791463e-03 4.397351258228950899e-01
-9.337054586308030785e-03 3.311496203593142923e-02 4.488497579829452966e-01
-4.977426530717338204e-03 4.114534745159558610e-02 4.530895187553063419e-01
2.372869630786255540e-02 3.987003649434361918e-02 4.645930142075971880e-01
-9.235489523564694575e-03 4.033097998206876950e-02 4.519354813356930012e-01
-2.953498800550929948e-02 2.534973989980115680e-02 4.436599663161480134e-01
-9.521979342435794207e-04 5.951166672506412458e-02 4.599871539439983614e-01
1.380033396980248628e-02 2.197622306066672124e-02 4.505168223092174129e-01
2.659000471959007891e-02 2.755071988176256009e-02 5.191903945154121569e-01
2.273446920317214511e-03 6.933867533461160471e-02 4.992418425039187313e-01
2.520119204508751432e-04 2.637484529375058034e-02 4.482801693515936492e-01
1.696563281045976312e-02 6.016942789909912603e-02 5.027343369993737543e-01
3.152924369235519247e-02 4.513670154778020444e-02 4.948055022103116096e-01
3.500051572732777033e-02 3.590803341549370781e-02 4.731016454731392096e-01
-2.849576815692194537e-02 3.102563592759941674e-02 4.454239917638332380e-01
4.174781641887314806e-03 4.692249487604520375e-02 5.202538307012455343e-01
-4.612897473489682709e-03 4.180965102560132290e-02 5.232895139824278452e-01
3.614721985865486376e-02 2.389463784818764494e-02 5.057361978157725035e-01
-7.660128429703710537e-03 1.887590462037650255e-02 4.437182944383096794e-01
-5.406970665907822465e-03 3.764764262106368858e-02 4.516968110998902941e-01
1.947745224167471423e-02 6.083237643687358642e-03 5.311496263465242951e-01
-1.615873421606565247e-02 3.074472078639979566e-02 4.465519215699697564e-01
3.149020713751480433e-02 1.886892416996963778e-02 4.583346461535462435e-01
2.338608457258377349e-02 6.106373600754701203e-02 4.807776597210118852e-01
-7.822621490914971089e-04 2.110102299708737500e-02 4.459992792558075125e-01
-3.398373909869895071e-02 3.199781607052521598e-02 4.456027303134936779e-01
9.097040192511613235e-03 4.815379800933790311e-02 4.601113171392343104e-01
5.179330206668503710e-03 6.958334062199016123e-02 5.011517109588236041e-01
1.087838397164483592e-02 7.401059414121259616e-02 4.902895506615833621e-01
1.791224779544043494e-02 3.534574323148118730e-02 5.203121664158251169e-01
-9.505176891086564508e-03 -8.985478987445972730e-04 4.370031204070135011e-01
4.272251338449807589e-03 2.487199585577148236e-02 4.488569482788535847e-01
1.913331638054690739e-02 3.357203359871804155e-02 4.580116641154625134e-01
2.023504690969579484e-03 1.016331056368891851e-03 4.392418491569751171e-01
2.120078349750805641e-02 4.327106196774776342e-02 5.120930190536103765e-01
3.629911672607839812e-02 3.590687769522696304e-02 4.945469762077553399e-01
2.327064574442548606e-02 2.503907384152444932e-02 5.232585234829928433e-01
-2.801300673508993339e-02 2.091876353661363888e-02 4.423086371322562660e-01
-4.452500007227671447e-03 2.234219147500548716e-02 4.455409946720232939e-01
3.629882121765179437e-02 3.701804653437343329e-02 4.783499688677863015e-01
3.101450554350509980e-02 2.782379763832549743e-02 4.629345827210811781e-01
1.479400107391400099e-02 9.055349353296271442e-03 4.453935607931695517e-01
-1.571305075460137021e-02 3.768114297670895757e-02 4.495118429304993946e-01
3.211344364385759070e-02 4.256728356288136395e-02 4.754094601009182242e-01
-2.583125553755111561e-03 1.502773293642098093e-02 4.432031527675096561e-01
1.415950672322612534e-02 3.664826782393672266e-02 5.205282680784236726e-01
2.258906598853294839e-02 3.010619166172060976e-02 4.581698541315292195e-01
2.817194303013617965e-02 1.062066653691960336e-02 5.263924316991392960e-01
3.723826748588920238e-02 3.621453310238006984e-02 4.805017257070178238e-01
-4.030881191001274566e-02 3.017649240300544766e-02 4.456696603986284866e-01
-1.089189535066982517e-02 -1.804748685666028845e-04 4.370505138118054855e-01
-3.680097753785011722e-02 2.459439086923317398e-03 4.399172116758237605e-01
-1.400946488966296755e-02 3.865061172655089028e-02 4.503012999118451432e-01
2.598186618538927614e-02 2.956859051462832830e-02 4.600447011342645998e-01
1.809919988051185424e-02 4.577394365016252548e-02 4.639636066264388181e-01
2.439776400411365620e-02 3.677895479908004084e-02 5.136220777193154508e-01
-1.784427271790209671e-02 5.621331585016548470e-03 4.375670807758644254e-01
-1.291187202852039223e-02 5.977357932000389867e-02 4.597208337295289882e-01
3.050291612304021488e-02 4.590505258435797348e-02 4.962351369772840526e-01
-4.065524811108563175e-02 3.730699816025838996e-04 4.411406238536469959e-01
-1.979763306614196541e-02 5.954395491828583242e-02 4.642349228119994620e-01
-3.065624597404491281e-02 4.881403043602437763e-02 4.546998421426413639e-01
2.934422067057826378e-02 3.390414042950198881e-02 5.086095191030324258e-01
-9.033576855904678488e-03 2.679410025832510908e-02 4.462740397102477607e-01
-2.124392472043133348e-02 4.478134109731163326e-02 5.206982886954762968e-01
1.034421230397573194e-02 3.955273615685223759e-02 5.206460562402963621e-01
-4.490325672127923502e-03 1.017070946412893494e-02 4.412234788799944685e-01
3.574000074137410193e-02 3.590257744314597627e-02 4.750176986357247944e-01
1.164922682012459187e-02 4.465424603469324294e-02 5.175952600092383893e-01
