3.362207764466871446e-02 2.261770518703210345e-02 5.115182279601031556e-01
1.607414444191880565e-02 6.985978537102068009e-02 4.893492423929607926e-01
-3.807010741380126989e-02 3.845673048944877465e-02 4.489345678526441286e-01
3.575793126105424047e-02 3.478197795367225092e-02 4.737424225831236013e-01
-1.399452912490307954e-03 1.230074429300743490e-02 4.424878022893188878e-01
1.340752426272067560e-02 6.632449143075090647e-02 4.720316066438735580e-01
5.173636484599957938e-03 4.814838231896807069e-02 4.586704579789622205e-01
3.175219691627511470e-02 3.863112656247002369e-02 4.708034888679690777e-01
1.615715423531420558e-02 5.577926028042142804e-03 4.443449429645109916e-01
2.835590262468805703e-02 3.750863284130762781e-02 5.083349774442469382e-01
1.113555100690765201e-02 7.297410535486872907e-02 4.768191072568013222e-01
1.066780635377522803e-02 7.311502664198619994e-02 4.924880632370912115e-01
-6.024879941952452148e-03 4.409270538419898799e-02 5.229632862661501846e-01
-4.847149376353456461e-03 6.012337588289246720e-02 4.593956676383701421e-01
7.590602478024502039e-04 4.291288845394160278e-02 5.223121748744932180e-01
7.704081472004863790e-03 -2.767162241279980464e-04 4.402244570322784156e-01
3.711724901100032711e-03 3.375218569549234132e-02 4.526170530198200814e-01
1.653098384938744836e-02 1.424960578600987203e-02 4.480662434017478324e-01
1.050157585462894658e-03 3.378722251970683182e-02 4.517091137949406643e-01
-2.701936568669778636e-03 6.030137258309605647e-02 5.057637662840402948e-01
1.387336471299659320e-02 6.405595034718246372e-02 5.010000613339744557e-01
6.811329847052949998e-03 7.341001502449989724e-02 4.905808144127426496e-01
1.686156479305475284e-02 5.146887898264000671e-02 4.660957628769014649e-01
5.135144563844350890e-03 3.518008405413552975e-02 5.239663554449744964e-01
1.675200365091281465e-02 6.302252573153835358e-02 4.982727418508310913e-01
2.138620472706351250e-02 4.831147787101147673e-02 5.091425312324008301e-01
1.039465190485039468e-03 2.575724861932489514e-03 4.396010660535868420e-01
3.098757833853376525e-02 3.428897565250071944e-02 4.670795879146509844e-01
1.265678822492375712e-02 4.058038243954066593e-02 5.197660628113432990e-01
-1.422733781162374180e-03 2.642197586459033021e-02 4.479357150084574135e-01
-1.755258534219209313e-02 1.504393504733584144e-02 4.405540770755702051e-01
1.217616542164197402e-02 6.558291112215111629e-02 5.015164359474575395e-01
3.403127192383841038e-02 4.292742882806493271e-02 4.817129484562268082e-01
-1.930337910265271864e-02 4.057779486168593824e-02 4.502147554020076159e-01
6.361484524367966298e-03 3.904395927075474809e-02 4.558648258204931469e-01
-7.112536694598201037e-03 5.073507564047809171e-02 5.202083114715796430e-01
3.535841312628452970e-02 3.324612921739213134e-02 4.706306073767034248e-01
1.363587144283712194e-02 1.754120380694964773e-02 4.487111838247041518e-01
-1.461424501421689989e-02 1.246246676466855260e-02 4.400298918957739613e-01
2.252574566940804268e-02 4.156201663075786285e-02 4.647655776716961284e-01
2.512880237123089888e-02 5.314701995953898667e-02 4.973629584971456241e-01
4.147216024091977989e-03 7.461093145272094940e-02 4.753804567803496806e-01
1.233740376080144294e-02 -7.150749334343051156e-04 4.411327283536001231e-01
-2.408600059976636482e-02 4.845489922970355051e-02 4.538024932313216575e-01
-8.502672508625762349e-03 2.058615959126659095e-02 4.442372681901096687e-01
-1.896662809000948611e-03 1.101336144649624031e-02 4.419133594042305990e-01
1.127658912683648929e-02 7.453598104389963508e-02 4.855802920694284319e-01
2.039321620094461385e-02 2.869256882799008090e-02 5.241974961851607606e-01
-2.137484304008614722e-02 5.866510852929564257e-02 4.610554439768668189e-01
-4.051151585216348702e-03 3.701567839623926687e-02 4.517876667533777812e-01
3.751916087776184516e-02 3.128917242172218893e-02 4.741993044543061919e-01
-2.091582125279172269e-04 1.070253705966991986e-02 4.421731937781241406e-01
2.141497152283086333e-02 6.105558713731192022e-02 4.938249390479625966e-01
3.122015025275602998e-02 3.219325246080389363e-02 5.069730681185056209e-01
6.836050862600816930e-03 5.052501815820157477e-02 4.601042074739056242e-01
1.136126975014815910e-02 6.429840895076729956e-02 5.040349831772090727e-01
3.055353448939130898e-02 4.237604324036585435e-02 4.723979407387433604e-01
9.102985185896816239e-03 4.801031605812482173e-02 5.170833248554449479e-01
-1.028970141689725289e-02 4.645674556161769747e-02 5.227455237549203382e-01
-3.448446144843876626e-02 2.378822601704115233e-02 4.435048264328450007e-01
9.658325353242137520e-03 3.030717491805186639e-02 5.261992145161837886e-01
3.064472299008485709e-02 3.953556952672054176e-02 5.037674369829371335e-01
-7.787121585186813216e-03 5.045831251041642262e-02 4.558339903492414358e-01
-4.042892710008018711e-03 5.787916420398876022e-02 5.124189234424471051e-01
-5.430740100647563073e-03 3.070510934474092457e-02 4.486977909819295784e-01
1.423184249221289520e-02 6.166493748561263644e-02 5.038611243602192369e-01
3.584382664771403743e-02 3.843333596723755297e-02 4.896522688079482655e-01
1.069508877310704036e-02 5.790822356031154888e-02 5.099536988769916013e-01
3.141844870116414223e-02 2.883347631050153445e-02 4.640292435190997433e-01
8.214229829687819291e-05 4.251416632739889179e-03 4.399938971158166567e-01
2.396757228189254699e-02 5.368146656018164820e-02 4.748805486211322147e-01
2.271855001121263901e-02 6.118848289310257343e-02 4.892390037858633800e-01
-2.127491029888846624e-03 6.782347509767405747e-02 4.661001940048783432e-01
2.758437946029732718e-02 6.383280403964829326e-03 5.308118187821979639e-01
2.646621360405334092e-02 1.701290404458838390e-02 4.536605128909254603e-01
-1.497680889978026883e-02 2.174951691822625544e-02 4.434198342202145260e-01
1.423792137562812816e-02 6.744386928967763262e-02 4.734690049697966030e-01
-3.305207847050095626e-02 4.369343601200800092e-02 4.517187464638144356e-01
-1.076059993523385827e-02 4.830209921483469282e-02 4.543949115111501347e-01
-3.645700385931317095e-02 2.566235443209124306e-02 4.442155925522970894e-01
-3.405543826863190789e-03 5.542037828751338047e-03 4.398507455450730297e-01
-1.768787352419294665e-03 4.367582628407321033e-02 4.548239862381747156e-01
2.608859586277926038e-02 5.657230019003831045e-02 4.807809059585551048e-01
1.907543150465407754e-03 5.714538454413511243e-02 5.128688674253061297e-01
1.252945606372903552e-02 5.880070473567391293e-02 5.089723642522002711e-01
2.728119950361585638e-02 5.289471069217609178e-02 4.905175647586459409e-01
-1.916845910123545632e-02 5.820255021891558578e-02 4.593776571643247153e-01
4.465028749651279646e-03 5.682197891932664474e-02 5.124701817756996958e-01
2.584033241524177210e-02 1.954960112168981079e-02 4.545278492239873125e-01
-2.170584082256772282e-02 5.772925635455811860e-02 4.596214261973687321e-01
3.130421228665538486e-02 1.740821036755731133e-02 4.574324031485162978e-01
-1.163511279451755198e-02 3.662849168544903000e-02 5.246546513836345405e-01
1.606512979673539732e-02 5.816979591754705553e-02 5.066600241030663199e-01
1.542815474574042896e-02 4.289355240498710260e-03 4.435536046186545067e-01
1.744092436459566964e-02 3.672859147657712292e-02 5.194457938455110391e-01
3.054178972720418550e-02 2.595228048477386806e-02 5.141636713673508607e-01
1.239802981905480106e-02 6.775763578577490009e-02 4.987357490688943407e-01
2.187387416484201305e-02 5.707458987096882680e-02 4.749062788389303846e-01
2.796689913614812742e-02 3.000605877659353118e-02 5.150714055991486573e-01
2.873670465962745169e-02 1.923860850760491029e-02 4.563825652291816914e-01
3.294381458452817681e-03 1.171528355020971194e-03 4.396218868635755617e-01
3.196660923000847754e-02 3.840000095049067586e-02 5.026503905909421865e-01
-3.367483185237206411e-02 1.955304315064536683e-02 4.425865788331472261e-01
3.219729889882582546e-02 2.436486836586468016e-02 5.121823656539512548e-01
3.620846185629698205e-02 2.496003960103185260e-02 5.048012522454728979e-01
-1.024271956001631713e-02 -7.436317202593494512e-03 4.363610362783911234e-01
-3.214113883633439028e-02 8.162430106125502516e-04 4.387625364355688951e-01
3.729638982835885991e-04 6.716852275466432542e-02 4.660864679918197417e-01
2.727729054114708118e-02 5.468311074151224055e-02 4.840443566692548272e-01
-3.697166060685711658e-02 2.619891442736088996e-02 4.443920891674892903e-01
3.717941693431600636e-02 3.409920330600799132e-02 4.769129572911990911e-01
1.812527515680458293e-02 6.226619034453584334e-02 4.742003506229896526e-01
3.081810637603704661e-02 3.799692177539357174e-02 4.694041513301941415e-01
-1.048564515307272120e-02 4.191962156815276508e-02 5.238965748392152566e-01
2.613858938813644686e-02 1.142215738855123335e-02 4.508968377420020657e-01
8.513589335315090156e-03 4.284940104504531000e-02 4.581581294475457478e-01
-2.666283430048336719e-02 1.165281715384315110e-02 4.400116627242570133e-01
-7.572492847536181973e-03 3.107265193941816800e-02 4.483725530583266838e-01
1.708441373877623778e-02 1.028858936373065920e-02 4.466243036936575761e-01
6.274862800030800263e-03 6.971590023728175406e-03 4.422708783915159092e-01
-1.181750571705133743e-02 4.875385562930818761e-02 5.221312553466904705e-01
1.520367642950402540e-02 7.090208927081766144e-02 4.887143843933038356e-01
-1.527434992710963689e-02 4.735635239272151936e-02 5.178390388697893254e-01
-1.206662971325820483e-02 4.592623554205475800e-02 4.533235605779979971e-01
-6.010672661936299066e-03 5.650128167383402372e-02 5.113485306976223166e-01
2.964319342474548702e-02 3.455725106794884510e-02 5.079241213680303346e-01
2.995229429647864802e-02 2.515393152713041661e-02 5.167400829209467528e-01
-1.406624792930536577e-02 4.250100622587757448e-02 5.240639062127813164e-01
-3.743034023359452511e-05 6.134458082629891396e-02 5.103779707871501925e-01
1.193941784696891245e-02 4.861277197790826038e-02 5.152948146969633658e-01
4.169809364199067447e-02 2.400636330950808861e-02 4.778808884155765768e-01
3.653953198556948723e-02 3.601435211658794711e-02 4.776277869595028647e-01
-3.698674355603467218e-02 2.828832197701635146e-02 4.448548284598947133e-01
1.075775826330091327e-02 2.402461190461866597e-02 4.504556399727021598e-01
-1.312106082712255657e-02 3.537219264068967861e-02 4.491736446386221937e-01
-2.885525598286356810e-02 2.532915907621792473e-02 4.436901841706681338e-01
-2.312567883381003164e-02 2.427788174449271516e-02 4.434378403748683306e-01
-1.086365709832638141e-03 5.497192553326438191e-02 5.148153436334866884e-01
-1.621131787025258814e-02 1.153136244785929639e-02 4.393367845327952326e-01
-3.029444577756535903e-02 3.557117409856296042e-02 4.470547357965458102e-01
4.027893207972590289e-02 2.563535916423490685e-02 4.927785730596597746e-01
-2.835720104381432571e-02 2.864018322499531366e-02 4.448252436061205795e-01
4.154081847378385955e-02 2.282737644149872638e-02 4.755353902698177815e-01
-1.642306647053434071e-02 4.595446643506687773e-02 5.175064222336314135e-01
2.469344731854442379e-02 9.235466947120636594e-03 4.490789554171385478e-01
9.213738494243757862e-03 1.348529611891878012e-02 4.457563197981516678e-01
5.560202553367366018e-03 6.286039464082016082e-02 4.649553481146173617e-01
2.218093813432825759e-02 3.012673056562072821e-02 5.221370290711793150e-01
1.427651354101292652e-02 7.229831949873306851e-02 4.862568425750294909e-01
3.147712301861593787e-02 4.277729854695162121e-02 4.992859404724273031e-01
2.110857163875759501e-02 1.276642034512383457e-02 4.491249436257484517e-01
-7.284716926844818016e-03 5.642013233224497937e-02 4.575357898128498135e-01
1.976661351360551461e-02 6.536914567107016127e-02 4.804767736120830190e-01
4.133409843928408794e-02 2.577997369637784891e-02 4.860608985562063222e-01
-1.101297697625146232e-04 3.270925713812863900e-02 5.260107312894678477e-01
-6.993882488166673628e-05 3.377692825726829468e-02 4.513159822670418930e-01
3.131190191507763482e-02 2.898950078207792116e-02 5.096535464597186094e-01
-5.932926232461840400e-03 7.532553390257934467e-03 4.401818582368883237e-01
-5.522076928881159384e-03 2.842969412033823084e-02 4.476774014397566503e-01
-1.536582491051396299e-02 1.429723668859263566e-02 4.405540888257579724e-01
-3.835484794353717902e-03 6.293681172333356888e-02 4.619782886791762855e-01
-1.223385417540340941e-02 2.427313530749419107e-02 4.448131851234543022e-01
2.660675247013104955e-02 2.701228111024561382e-02 5.195676146370570292e-01
1.042695628297540811e-02 3.973374925382767292e-02 4.576468172968397030e-01
2.840417981935990793e-02 1.886049500215447594e-02 4.559536118590060139e-01
4.183423575247865317e-03 1.130671831478639172e-02 4.434536059880488379e-01
7.817061526546075986e-03 3.931854885357850826e-02 5.214347937221754936e-01
2.932040132712310232e-02 3.567530153170321572e-02 5.078601532952626840e-01
4.680741331887568191e-03 3.142573911186281183e-02 4.518297652577027979e-01
2.930357956523783544e-02 4.057323916270157843e-02 5.050253016902169767e-01
3.514753009632757066e-03 6.691683673315965142e-02 5.051245098962068303e-01
4.071586337126224114e-02 2.793813739362103685e-02 4.830932187645446407e-01
-2.641962955895277299e-03 6.050150672653911016e-02 4.601438414155382128e-01
3.338791369306065571e-02 3.891676436904472486e-02 5.000332423843122376e-01
1.079587699575766148e-02 4.435433303898581037e-02 5.184160409706394246e-01
3.916097149868023874e-02 2.704231868342341083e-02 4.964522355395040165e-01
-1.673296424580206568e-02 4.749312056871166088e-02 5.207440263606859521e-01
2.386628628782077113e-02 3.209103374862577740e-02 5.180435402259916389e-01
3.174668331589410031e-02 2.449763320199098079e-02 4.617524525851998685e-01
3.287052381339099910e-02 4.257120911378240585e-02 4.773776522788494292e-01
2.926805121515156302e-02 1.665105950869470719e-02 4.554415489562940733e-01
1.171150613411515475e-02 2.655737118150439807e-02 4.519287056655193480e-01
1.229532114116797976e-02 5.407940606746409334e-02 5.117348803067366392e-01
1.830409649511192255e-02 6.804852483303279465e-02 4.867983701582812017e-01
1.625962028368179574e-02 1.341344861557788870e-02 4.476350690207941407e-01
2.196308710880466239e-02 5.618744583153855582e-02 4.992317256131206249e-01
-2.048031318198319239e-02 1.964794498831037416e-03 4.370089068674178345e-01
-1.664265135696643000e-02 2.973753892867398232e-02 4.460879941799850701e-01
9.110332796759572013e-03 5.864230130387874940e-02 4.648036850804159736e-01
5.570602295311492293e-03 7.116649052529171182e-02 4.990544189670123587e-01
-1.855691704681075582e-02 5.887058853155829885e-02 4.599925132111935544e-01
1.162314203748694708e-02 5.432235531295264569e-02 5.117796718054991034e-01
-4.677809505090879498e-03 1.479228285144983980e-02 4.428021863700644101e-01
1.001422057084692258e-02 3.723736479932421989e-02 4.563473013592403982e-01
-6.447197128079400381e-03 5.062109104796944786e-02 4.560170054920024141e-01
1.782642496811137622e-02 6.733543181726679705e-02 4.904349445852453360e-01
-1.251637982354427032e-02 3.215409931341116356e-02 4.478476135463304031e-01
-2.333587829322274210e-02 5.807059452587508969e-02 4.610029957298589776e-01
-3.555311248016690406e-02 3.972183900823403335e-02 4.493016009297323143e-01
4.167471101668497255e-03 3.765689052262021635e-02 5.230838548922018827e-01
2.558608093483034224e-03 -1.014501429009169453e-03 4.387923040316610290e-01
1.257506475887399701e-02 4.252977527191645346e-02 5.183381376131016571e-01
1.303348698829419859e-02 3.968493600481408368e-02 5.200578209223276627e-01
-5.036526409074529829e-03 6.263840056603861561e-02 4.615253747296438336e-01
1.229430381789864066e-02 6.890544624547019492e-02 4.974726266349910886e-01
1.506098920381006637e-02 6.717513392416105122e-02 4.955078221221081436e-01
2.697849967181136996e-02 3.448494435338363140e-02 4.638702620478596939e-01
-1.579472822292670581e-02 -8.058713285399960943e-04 4.368631125388271474e-01
3.312248448891123853e-02 3.597708002221139401e-02 5.020286012557809707e-01
3.455116867171559303e-02 3.463836776571335013e-02 4.706896001645107241e-01
-2.148782909247639455e-02 3.999845074513985396e-04 4.367881813052028050e-01
1.760210370445542197e-02 1.516149623563499069e-02 4.487423214493330703e-01
-3.801203959907279925e-03 5.272605742156358244e-02 4.571317145380102698e-01
1.143695618738401788e-02 6.932126691667850338e-02 4.727364593291917827e-01
4.021820197867927854e-02 2.523929527746862286e-02 4.743033080884567765e-01
-3.078629785173788921e-02 4.415006201613138476e-02 4.515641573602851566e-01
2.197484822044431033e-02 5.870517448236974717e-02 4.766593292166476092e-01
-3.184495740821241538e-02 1.917952287826337962e-02 4.423194491754476321e-01
-3.974905610544376272e-04 1.961468740413608094e-02 4.455839199063292844e-01
-1.924293752010757148e-03 3.770746672994407939e-02 5.245916294207296771e-01
3.645692973959808320e-02 3.646476100614842730e-02 4.931497141537802831e-01
-3.718572577706804119e-04 1.739074140785728737e-02 4.447093030482198728e-01
2.660565362861170083e-02 3.651955870905240070e-02 4.648900123926790751e-01
-3.579750760771062499e-03 3.503737360456943284e-02 4.510473039183042765e-01
-1.472200383317303490e-02 4.152607428185294686e-02 5.243210739882613325e-01
-4.900742691331298230e-03 4.920835578144470979e-02 4.557978974116201343e-01
-1.170028973064314234e-02 1.093878350953952265e-03 4.372025146938544604e-01
2.495117817054888498e-02 5.869906446965234698e-02 4.809767272041076125e-01
-3.963218001019726960e-03 6.035423107456181629e-02 4.597628212611068466e-01
-1.676751784541970908e-02 2.404373464429029536e-02 4.439793624449865916e-01
2.012853526640610152e-02 2.075889159703672715e-02 4.518913676872394758e-01
-1.564068465227029178e-02 1.196955237319958544e-02 4.396102972917864116e-01
1.195724703477388240e-02 7.429073034459524050e-02 4.838108014208929997e-01
8.429488176247680251e-03 3.003825683999679363e-02 4.524417530720321046e-01
-1.536378331677259491e-02 4.803029297090407462e-02 5.209861798343778938e-01
-2.145293543055526702e-03 5.002124888362137478e-02 5.201292203380393220e-01
2.266401488774645676e-03 5.888365326761619070e-03 4.409786734971595235e-01
3.373893434100526389e-02 2.233409559483300749e-02 4.622164689036252772e-01
1.340425913669093805e-02 6.304852997388318836e-02 4.698897995499000113e-01
2.454489160950836316e-02 3.980424576329569253e-02 5.110354140785328125e-01
1.398084700872970210e-02 2.981688653314618423e-02 5.258543829044377560e-01
-2.516242162500052781e-02 4.500593192260778780e-02 4.516669142908100731e-01
2.106160418992890707e-02 6.220408971813277260e-02 4.927434754862027311e-01
6.165573674670968979e-04 5.117092534075319554e-02 5.175493230463108496e-01
2.291712196815866298e-02 2.464763955117697802e-02 4.555470639606655214e-01
-2.585363600945420406e-03 8.391188807319684140e-03 4.409785341489185218e-01
8.295401849835114597e-03 7.139894744092552259e-02 4.721976528482895175e-01
6.698022591644127444e-03 5.542512254902249441e-02 5.125587384391131485e-01
-1.664879570196819286e-02 4.471059914293952497e-02 5.233235149614982040e-01
2.991204739304624549e-02 1.714039355296223879e-02 5.227040622233953826e-01
-2.024408786603044269e-02 -1.776621173714913043e-04 4.367723657573158724e-01
2.294279331882523656e-02 2.814404455337852703e-02 5.223143320421815838e-01
3.153969191558581020e-02 3.038875636610667216e-02 5.080516669954370235e-01
2.326110281676361732e-02 4.941086079595051472e-02 5.059883256511226168e-01
-8.580440757920890921e-03 -4.595096725527609248e-03 4.366423560951556704e-01
-1.134971415581154455e-02 6.062009984756806108e-02 4.603248803342688822e-01
1.091896310945467130e-02 6.381443655183104136e-02 5.051620346212510881e-01
1.677272193130028427e-02 3.888352578015971672e-02 4.597349550462752066e-01
-8.351069270405849648e-03 4.891700788534654454e-02 4.551125479287447262e-01
7.748976348413367903e-03 3.788148312084690245e-02 5.219546689153223840e-01
-3.469566293445521671e-02 2.511197737200185007e-02 4.438697711996057449e-01
7.014851728840003874e-03 7.189433919323760802e-02 4.978093009097574462e-01
2.189709039535735896e-02 6.151831658803823960e-02 4.913971832079938595e-01
1.749354161117511533e-03 5.441454804423530300e-02 5.148041621033940807e-01
-2.373371404374004581e-02 2.790184499790874725e-02 4.447510818585933001e-01
-1.915968704288440946e-02 5.054683480682552188e-02 4.545474960866559555e-01
2.570152418198345251e-02 3.353978983580902656e-02 5.135356058171838267e-01
1.113489523835309303e-02 6.947692599951561798e-02 4.726374921669896367e-01
3.906974333259326942e-02 2.743814453646781573e-02 4.736594371635380885e-01
9.802249063354598335e-03 -4.830131845266283711e-04 4.406333060240238408e-01
-7.857127209193561553e-04 2.825147011357731150e-02 4.488351871577325181e-01
2.064896575022053503e-03 7.055455448945394115e-02 4.718776191836391298e-01
-1.750763291561950249e-02 3.703824710441835227e-02 4.490093734700082995e-01
-2.025103751817950229e-02 3.020467942950113768e-02 4.457161187079972664e-01
2.144431162961221715e-02 3.661593967576155101e-02 4.611086082740497583e-01
2.284798344922973901e-02 5.724395722395046043e-02 4.957424462071048921e-01
1.368672119493925636e-02 4.823832934865789068e-02 4.625843585277857883e-01
2.357471413480452874e-02 4.020671996154286110e-02 5.118454916667557475e-01
2.963136000160135342e-02 2.551742788169961834e-02 5.168930162360327873e-01
2.154642995962975302e-03 1.884875965553942795e-02 4.459263558334796151e-01
3.607422173120044401e-02 3.309084977509039321e-02 4.987930317878579989e-01
2.550844094060623901e-02 5.521780259596815316e-02 4.917890126872529466e-01
-4.192494518090991718e-03 5.738328133941773823e-02 5.089292060445373966e-01
3.024018291533697028e-02 3.496820477526684651e-02 5.069473287381892623e-01
1.635391631166273341e-02 3.849858476628062465e-02 5.188063547368607642e-01
-2.611807355301664843e-02 1.797596713734124149e-02 4.415106465481095643e-01
1.489610252474650801e-02 6.606331484424787792e-02 4.971313195466580681e-01
2.552323022918719445e-03 7.528497234413296380e-02 4.788836995323506041e-01
3.459815301973793306e-02 4.138839339050678912e-02 4.856390097880000645e-01
4.114376884411685698e-02 2.558593387397683008e-02 4.887427824320205727e-01
1.145239011730265523e-02 5.710530096250200638e-02 5.100994907343452400e-01
3.013108344582351647e-02 4.727919929300269941e-02 4.778467778415237399e-01
-3.786062618143952452e-03 1.238876451547740211e-02 4.420604481715724732e-01
3.087640412533737555e-02 4.495826708684471512e-02 4.973547054587048599e-01
3.994029994208277146e-02 2.078558437772032655e-02 4.688250268171104129e-01
3.287603054024410693e-02 2.351196270024182022e-02 4.621710238580833408e-01
2.448325021238094423e-02 1.429852170031248489e-02 4.511421232772989676e-01
1.842239751275639645e-02 3.243599630199762995e-02 4.572406186490612368e-01
-2.210013280560486904e-02 2.783029006379666298e-02 4.447686753773412160e-01
1.073256493046387088e-02 -1.876327778142670641e-04 4.409365299279365269e-01
-2.860731837993856636e-02 3.534383315570666095e-02 4.470463138095411848e-01
-3.743013658934300075e-02 3.735416695106850982e-02 4.478367447105162658e-01
-8.262567479499898296e-03 5.248529696369916980e-02 4.563312359891369407e-01
-1.099804385716669775e-03 6.303314895524099459e-02 4.626947695262232929e-01
4.581833644767786470e-03 3.523186298367111946e-02 4.536197609944104814e-01
1.647671108199590811e-02 4.954290277451350866e-02 4.648720685479179049e-01
2.738291501547052489e-03 4.157643900756636396e-02 5.221766054535806889e-01
3.918584928955452101e-02 3.150444719899626184e-02 4.845575182988111629e-01
-7.702255463182480083e-03 2.161946032477590068e-02 4.447570040496944266e-01
2.465456781943975439e-02 5.958236205570176941e-02 4.821939610659023989e-01
2.011407746059595391e-03 1.947388895357613989e-02 4.461377758363146984e-01
-7.431903797374905807e-03 4.041808502659634955e-02 5.241153986856099678e-01
1.230339883474469882e-02 7.394795283381755402e-02 4.865519478650509044e-01
-4.230646226333480142e-02 3.479790048093443083e-02 4.471617176006975614e-01
-2.027273403297425846e-03 6.337836921994907668e-02 5.030557268955030414e-01
1.549023053381563819e-02 3.807471339647298253e-02 5.198176274915072836e-01
1.967125134724245772e-02 1.506373293209190348e-02 4.494807472443436702e-01
-1.817493971900484284e-02 6.021918504589599680e-02 4.662782984263941777e-01
1.305763160955988877e-02 7.081941286736516405e-02 4.757378936755264909e-01
2.182068400335706454e-02 3.321277426868864818e-02 5.189975814247617114e-01
-2.502167117931517609e-02 4.299525889050839073e-02 4.505068871733988733e-01
-1.675114142578382898e-02 4.312910217003423224e-02 5.238872464075999824e-01
2.442373539751452327e-02 3.332746526498268219e-02 5.146570473704934479e-01
9.862089632231015035e-03 2.480935074085602668e-02 4.505280695567941973e-01
2.183798899695452156e-02 6.356412388125699808e-02 4.832678045117200227e-01
-1.133707637870448939e-02 5.633632711617657385e-02 4.572063094180248699e-01
-1.593976729141069817e-02 3.940622327506477368e-02 4.502685983964307415e-01
-4.095468600563106215e-02 2.189309010473165697e-03 4.416220919571247627e-01
5.301431028061584852e-03 5.376949192270707306e-02 4.606060443289207162e-01
-2.600082513387678984e-02 2.457976728904595273e-02 4.433839477351935732e-01
1.991767032945658891e-02 5.740026920986683601e-02 5.015033711489758073e-01
-3.567890604425434653e-02 2.283372238762520698e-03 4.396282299241414671e-01
6.983715514314849972e-03 3.019933277260675175e-02 4.520374929047029644e-01
3.271431230205870677e-02 4.134716243403524505e-02 4.976844692460107855e-01
3.310761501451179450e-02 3.240854052403168567e-02 5.040097155113733018e-01
-2.020525852550444576e-02 4.139724648285059844e-02 4.503973988252492622e-01
7.002555071696660478e-03 3.564540294081328803e-02 5.231311141464807246e-01
2.325007542446879544e-02 3.636626771463927210e-02 4.622195895086311235e-01
4.036301009173082210e-02 2.767618441498202048e-02 4.893596400925395717e-01
2.847057369235704571e-03 4.896115383184553894e-03 4.407536119298203769e-01
2.248645210682545525e-02 4.623632047568660558e-02 4.673836607068148075e-01
1.951468398651013195e-02 5.962535593711353749e-02 4.737897924106636571e-01
3.317290660216654086e-02 3.906451119650972137e-02 4.732797956040975529e-01
9.350044765102847460e-03 5.642740556647693473e-02 5.111462202836820623e-01
3.746282749260267803e-02 2.654390988232443321e-02 5.003636842873542268e-01
-1.490404867060842950e-02 -6.822032001549283714e-03 4.366078455790743384e-01
4.335562337332484265e-03 6.810628562581853840e-02 5.032138010572310138e-01
1.007178196512364086e-02 5.812897793886513675e-02 4.651228170624347458e-01
-2.049597516660668986e-02 4.549175518749883768e-02 5.206489525552466802e-01
3.407136229836607577e-02 4.156158930668731044e-02 4.924475180572291388e-01
-1.502819229648780751e-05 4.363155271963564674e-02 5.223121708829447929e-01
1.832746415313434712e-02 2.391223966722664379e-02 4.530606695164508535e-01
1.389582527339012011e-02 4.602176888491842088e-02 4.616930268879971822e-01
3.077701444259602417e-02 4.351902774258305240e-02 4.741129549867919568e-01
-1.087930322538542723e-02 4.421822414252277872e-02 5.235289448181530414e-01
6.881099485372545871e-03 5.537514791943207865e-02 4.620630546380530834e-01
-3.238847216241761903e-03 1.650828449943522389e-02 4.436606330155949962e-01
3.692677674291220541e-02 3.493168222399389844e-02 4.934879306764674012e-01
2.419690686375904065e-02 4.002865182344664263e-02 4.651946397053063897e-01
2.096475899344191554e-02 5.491009819879889148e-02 4.719732479466472452e-01
4.040739237250531163e-02 2.074234624478837191e-02 4.699576013025225651e-01
1.485081527293644413e-02 5.628080542056458635e-02 4.673670664125121887e-01
5.635283755614756140e-03 4.678829970909445524e-03 4.412336747111883506e-01
1.382798281257546736e-03 6.653339144042437481e-02 4.658304713486123294e-01
2.120539396644745972e-02 4.414260640840868971e-02 4.652863744115621203e-01
-3.751470743983596756e-02 3.346413693667864980e-02 4.462696203903407932e-01
-8.530757185523884373e-03 3.395698738415973972e-02 4.494637551879672732e-01
-1.715061736237108968e-03 5.619793964157334537e-02 4.586728128381538649e-01
1.592736547613875925e-02 5.858250658900375496e-02 5.063017370192075539e-01
-1.842931133093295495e-02 5.934280827738590974e-02 4.605255153452959549e-01
9.090853588100291857e-03 1.504139853595882516e-02 4.463359086076923443e-01
-3.076869917197912196e-02 3.275394303057410639e-02 4.459976231753686182e-01
2.423599968599456783e-02 5.395921661078103421e-02 4.755040930683004929e-01
1.308285198591465498e-03 5.177252364127583883e-02 5.168749449856684386e-01
1.198377380232576797e-02 4.106668710679198253e-02 5.198454479933629635e-01
4.204993451617832639e-02 2.353012960541658871e-02 4.792525047335785549e-01
2.458243013750336520e-02 2.242969869476557285e-02 4.553478802702041750e-01
-1.344536678768112198e-02 3.214008083129939880e-02 4.476608401900922241e-01
3.265745615842041011e-02 3.163486371420188431e-02 5.052000001517127359e-01
3.345864594737452125e-02 3.212190050831491284e-02 4.680853396568549485e-01
-2.543024588833112803e-02 2.550828546767772501e-02 4.438019971819276988e-01
1.723350224884685408e-02 4.943187999842518082e-02 4.652730352066578035e-01
-1.841625616588764627e-02 4.054657793956358697e-02 4.503443871328098314e-01
3.736188221909934968e-03 7.539115115120430255e-02 4.764565149823088985e-01
2.828709172949482598e-02 4.091020833949758628e-02 5.064548103506558707e-01
1.209909422246215407e-02 6.577696602253418900e-02 4.705822786112208167e-01
1.113228341430361895e-02 5.896578689746785618e-02 4.660820449283770706e-01
-9.866807778393467745e-03 3.762063309360527685e-02 4.508507502666775357e-01
-3.271986622232926634e-02 2.503898032868092424e-03 4.390105139077184471e-01
2.533159829345296363e-02 6.394656448002555491e-03 5.313900575519788783e-01
-1.763940478661588096e-03 6.381116283407362033e-02 4.631842737141428912e-01
2.330667670620760468e-02 4.361131244546782859e-02 4.665422598279346800e-01
2.876017614255269722e-03 4.399808685034992117e-02 5.215242228995320417e-01
2.671862942069335237e-02 4.617670704891184419e-03 5.319152723208001587e-01
-2.363771890876532888e-02 7.088325114929093507e-03 4.379722900481767822e-01
1.618824502520638253e-02 6.694565784421421806e-02 4.941843862097494711e-01
7.451285760228621574e-03 4.583169082179504306e-02 5.192993256221454246e-01
2.514082685343938320e-02 5.865924136374896236e-02 4.822519261302591342e-01
1.431546253945356444e-02 4.450832654282590832e-03 4.433244334069987858e-01
-5.276643666239071856e-03 5.030161204775655814e-02 5.203036993752395700e-01
-9.387883542282095609e-03 4.945567735861995662e-02 4.551331976071821828e-01
6.791985893989910261e-03 5.540810282028049011e-02 5.125386499333325352e-01
3.422470813251274335e-02 2.435945947529000524e-02 4.638429322956784673e-01
1.242969043738787437e-02 5.727827921773538666e-02 4.661957193734643790e-01
3.256574020544447667e-02 3.331062646056880128e-02 4.679455373947059016e-01
2.930928003898091924e-02 3.311508517854716560e-02 5.093970393616845671e-01
1.557421525994406690e-02 6.672315793511608695e-02 4.953070274586439670e-01
5.750103153097999888e-03 5.730109828230697117e-02 5.117894622671893545e-01
-3.279354398273557486e-02 1.916784776389927891e-02 4.424164833685539366e-01
-1.646510845836548706e-02 5.219397706530416042e-02 4.553728226890871866e-01
3.714683718560665704e-02 3.424776651337326644e-02 4.935991557722770318e-01
3.286325387894056815e-02 2.692245506904980545e-02 4.641704929180699990e-01
3.187479082286383270e-02 4.393458415422304975e-02 4.960688332277859436e-01
1.576172939252890558e-03 3.438836824663161346e-02 4.521823392130701613e-01
1.205193824825862882e-02 7.314575033032416629e-02 4.906238508822897137e-01
4.015686812496947408e-03 7.131213612012610170e-02 4.721015151051297654e-01
-6.097746244453363176e-03 1.916877643899231320e-02 4.441476264210562075e-01
1.388669239203334758e-02 4.073891778600719632e-02 5.186910533443908067e-01
-4.716354101654839787e-03 5.745604246578214086e-02 5.118059215244089577e-01
-2.939035113769451757e-03 4.308930338226856643e-02 5.228808261626641807e-01
9.736911962165143569e-03 2.845978947890281940e-02 4.521191476463154446e-01
1.345791527891339844e-02 6.474880027096679980e-02 4.710167269458834793e-01
-2.358835340030136091e-02 2.631325925001819915e-02 4.442379977861241058e-01
-1.799970357415473302e-02 4.285624491370017969e-02 5.236414326554773568e-01
4.074718235701364072e-02 2.704124901783038978e-02 4.794193843544071743e-01
2.514877098197298294e-02 4.958690702907106451e-02 5.027600276930752621e-01
3.806055060323567524e-02 3.336293497083955839e-02 4.788837391598311788e-01
-7.968652761514432789e-03 4.196872777723922171e-02 4.528414463885389596e-01
1.679266472978863112e-02 5.091677802750246146e-02 4.657700507298191406e-01
-7.253535164336516808e-03 5.884990892017871039e-02 4.583918653011696542e-01
-1.568523731420134321e-02 4.006890256342966750e-02 5.240846336893242308e-01
1.054646620371825667e-02 4.470013199314019220e-02 5.183184639332336641e-01
1.963896009222277153e-02 6.192520707012178632e-02 4.762279258324170206e-01
3.366621263345708631e-02 3.869346367159424288e-02 4.994811304313813149e-01
2.487097942989955485e-02 5.221332399207339464e-02 4.996143327959260971e-01
2.153380552325353733e-02 5.191958739818783308e-02 5.056652867731653567e-01
5.521367581800972098e-03 7.816356402333184128e-02 4.808252083972001101e-01
3.958278097607431656e-02 3.069294763455616623e-02 4.837392327979022633e-01
1.481208180921383261e-02 6.981761807909997453e-02 4.767641095306787702e-01
1.026295713167631532e-02 3.381852566618599037e-02 5.234814303250201473e-01
-1.250643788487832905e-02 -8.012642511285144806e-03 4.364533332263306198e-01
1.716810065377666339e-02 6.087800835730355561e-03 4.449036642652288709e-01
3.645190136906002049e-02 2.765687057760444351e-02 5.013560654658449911e-01
-7.856727877653017084e-03 4.577873837770565779e-02 5.226825914509688475e-01
2.343507064319348340e-02 2.824728960140569095e-02 5.218695336364808091e-01
1.685343199854217461e-02 4.010706890154810272e-02 4.603426507647353505e-01
3.548756075877303184e-02 3.567088060151364648e-02 4.976246070468283711e-01
4.216139355269274414e-02 2.357823813429354640e-02 4.853956303717130161e-01
7.784580533127615984e-03 6.926107645259478585e-02 5.019119774168807613e-01
-3.662759353836481102e-02 2.317751873913505636e-02 4.436657735234096345e-01
-1.187792074437878619e-02 5.444466566738271479e-02 4.564842433047526238e-01
-4.258659386585497003e-02 3.467196654812720880e-02 4.471669803651023845e-01
1.251541293843074637e-02 3.598620934065652893e-02 5.214444167765320826e-01
-1.059741711672317413e-02 6.133928457691516928e-02 4.609159392212112683e-01
3.409678149786968260e-02 4.226215370197384386e-02 4.881513469031610875e-01
1.814808467415784249e-02 5.369565888166483864e-02 5.087541911048948373e-01
-3.821498864435136228e-02 2.445924035933817395e-02 4.441472449503745534e-01
-1.828081475171341314e-02 5.621120839170781064e-02 4.573244659384817501e-01
-1.052469356035762825e-02 2.471962469859545833e-02 4.452978868524316014e-01
1.264751991861284147e-02 6.568307574484834321e-02 5.007830619886088908e-01
2.578349479572461869e-02 4.318574842102432948e-02 4.683818402334224973e-01
-3.317793088976911386e-02 4.487648496691094141e-02 4.526310552040133661e-01
4.841418070959512682e-03 4.191342381638890613e-02 5.215780980928075294e-01
2.257057899909703513e-02 5.965207025026480342e-02 4.930100755082377773e-01
-1.069948574165939525e-02 -1.346494418541657875e-03 4.369417489401846155e-01
1.943717216173474621e-02 6.012576818574428411e-02 4.741614561503596503e-01
9.355942246642493659e-03 2.375260664129632757e-02 4.498792199603116604e-01
4.732210592776175083e-03 7.535367833016778927e-02 4.763852631410825933e-01
1.021844679934869396e-02 1.378333530640765865e-02 4.461628145844406812e-01
5.514620435416697081e-03 7.245230540940562902e-02 4.727679960480312138e-01
1.015379319641196779e-02 7.504839876178305558e-02 4.836875854222616455e-01
-3.559373175400892819e-02 2.696358579166333209e-03 4.396177647286338419e-01
2.523431007005103727e-02 5.229353085520221239e-02 4.754559675495613758e-01
-7.060166755193737938e-03 4.440051388425353407e-02 4.538203483195354937e-01
3.269525625775676625e-02 2.191643629946623748e-02 5.155261472451793114e-01
-7.408289422320411041e-04 -9.186539679761828933e-04 4.380483328887152528e-01
-1.194100597714470649e-02 1.819258124860694339e-02 4.427122849669006821e-01
-2.035238823614281267e-02 4.868131751419393222e-02 4.538174827602595163e-01
-1.189525226255422168e-02 4.370722543617755473e-02 5.236931902943194883e-01
-2.558512385844386935e-02 1.622050528396054916e-02 4.409373304989024911e-01
2.090265651543948833e-02 5.769144020332543643e-02 4.990506117648174089e-01
1.466423975530613006e-03 4.912583806029695993e-02 5.201334320508363973e-01
1.188992591427339741e-02 7.273959774500238229e-02 4.774218227280110916e-01
-2.044478207572336670e-02 3.237580749592717383e-02 4.465662896005130889e-01
5.203173415887715064e-03 3.980090159849437176e-02 4.557661712398950460e-01
2.081629474333835002e-05 3.073778521909536696e-02 4.500691822687014065e-01
3.669532767560031855e-02 3.676008666564371113e-02 4.871405553846346326e-01
-3.463183711554693178e-02 2.094250380044307067e-02 4.429345162653992030e-01
1.632886108525035199e-02 6.254822856419660349e-02 4.719157016749558342e-01
-1.534683803154404842e-02 5.901069635918600176e-02 4.594101534645678719e-01
3.301977506671074925e-02 3.134839893710941738e-02 5.048439235791910562e-01
-1.148957292508162153e-03 4.229142534056722427e-03 4.397470829431827100e-01
1.219228381559878636e-02 7.403844402852697952e-04 4.415587396634783612e-01
2.345396635474136099e-02 2.815037750755024215e-02 5.218932196204667529e-01
8.933929207709766229e-05 6.407051349784709249e-02 4.637818727997150003e-01
-3.325925722406382519e-03 2.442721601706707504e-02 4.466825149839036557e-01
3.170679582050268258e-03 4.172318738710841662e-02 5.220358143303943654e-01
1.793907668430524266e-02 5.288505950825026641e-02 5.092627355970027470e-01
3.398447980279510530e-03 6.068840378720295747e-02 4.623420280192571674e-01
1.415415268674461574e-02 7.982540304219696084e-04 4.420749617087127437e-01
