4.364367981045554328e-04 2.782315341516431936e-02 4.491444442065258280e-01
3.039418144223369339e-02 4.812257467359961488e-02 4.922438130624524066e-01
1.710811751632230690e-02 4.495808909396307312e-02 5.147226752912285042e-01
1.034627081702259137e-02 5.017212194524881680e-02 4.619504354327932938e-01
-1.223406964564796974e-03 6.008138902258706310e-02 5.117263275348589158e-01
2.462540639951166233e-02 4.675873004623472967e-02 5.073313520465022597e-01
1.082172042930798495e-02 7.467198669866631500e-02 4.821047975215285164e-01
2.579260181927796498e-03 2.640778427854059349e-02 4.491665790476055964e-01
2.196012265887740608e-02 2.636800040183006483e-02 4.560380059838233247e-01
-1.026202702486300744e-02 4.742980512776836383e-02 5.229233594406448304e-01
4.626285505493663366e-03 5.665961720514412631e-02 5.128611296271514686e-01
-1.382526032536121434e-02 1.905531315775932377e-02 4.428166388532142617e-01
-2.002147254623252992e-02 1.617937633264153463e-02 4.409715146587830370e-01
1.950865491074200986e-02 1.315147954867260105e-02 4.487907376375419588e-01
-1.319322832492437515e-02 4.840793466002737966e-02 5.151430070891133139e-01
-4.283775412622866513e-03 4.517934128260540222e-02 4.548786143376041258e-01
1.268153414017508113e-02 3.442338899153084275e-02 5.226640767230649187e-01
-2.540508037075789316e-02 5.026948113910682109e-02 4.549636604864683576e-01
3.782320017904394066e-02 2.949681036488251834e-02 4.730726624588760254e-01
-6.015038778759199817e-03 3.512516954210186115e-02 4.507251007555869715e-01
-3.498323183303017093e-03 5.893931153234202927e-03 4.400386749468414571e-01
1.346751813144801690e-02 7.070338122853150886e-02 4.938024405909564596e-01
1.541862212889432045e-02 5.699525880588116045e-02 5.091652464499420994e-01
1.696212078075379388e-03 2.938640214552219049e-02 4.501567493748830917e-01
2.708944589265738223e-02 4.804648849855403664e-02 5.016302208715324173e-01
-1.732334103349467830e-02 4.735221690084821800e-02 5.219946611081286436e-01
-3.365895453122321607e-02 2.182454183078411797e-02 4.430686659796089777e-01
-1.992930353504530558e-02 4.628554676870368090e-02 5.211685734254946079e-01
6.863307784732202745e-03 4.977984077015892156e-02 5.173568112883474290e-01
1.664062685829744218e-02 6.659254295108867072e-02 4.763322841703679922e-01
1.390803035057563801e-02 6.659568362801548957e-02 4.980648684869398712e-01
1.969440160493057812e-02 6.404597034794617949e-02 4.928659018825293225e-01
2.955981132578941462e-02 4.518666781140912719e-02 5.010673360676125565e-01
-3.129411278505512400e-02 3.197418910425584015e-02 4.458465478291701034e-01
9.340098234042710362e-03 7.419338394785190971e-02 4.901497676046250307e-01
-1.943248596308836534e-02 4.216661381031479305e-02 5.233829177535556099e-01
3.082697893852058210e-02 4.630430151344620132e-02 4.783909227568208800e-01
1.775738251539068363e-02 6.048327762501864990e-02 5.006159951699346022e-01
2.232806790901569003e-03 7.102297773528284952e-02 4.973166806373213178e-01
8.675905964666007913e-03 1.719422513276446657e-02 4.472012080257149469e-01
1.622789323707910999e-02 7.007550358855274553e-02 4.861581222703326710e-01
1.068479178443474190e-03 4.784279360949979243e-02 5.212961388211604374e-01
-3.434543839942673978e-03 5.800198101704653886e-02 4.591187295531159451e-01
1.432645961725611920e-02 2.188269977411271688e-02 4.508553227825113918e-01
3.273500596276120861e-03 5.276851856546998371e-02 5.158997674375316311e-01
-1.704144713022903365e-02 4.385349926743777743e-02 5.242455076047477514e-01
4.218609674774646129e-02 2.258103982248462968e-02 4.880120266971004761e-01
-1.359205562208049348e-02 8.584721963871073253e-03 4.390466894885255988e-01
1.921700758624883196e-02 5.348497581289679559e-02 5.075719209519892194e-01
1.367838203768413641e-02 2.142294919724400601e-02 4.504576479189500993e-01
-1.308208702119134301e-02 1.606134046368336635e-02 4.417974300337096372e-01
4.265922974436900383e-02 2.242631679188140242e-02 4.837414878791294059e-01
2.434956979161938956e-02 2.039152777951443174e-02 4.542410230780487002e-01
-7.296620676394239419e-03 4.497464534115948320e-02 5.233304525588944323e-01
-1.715700139156606241e-02 3.667567195092208930e-03 4.374027486758208516e-01
-2.504335994425159733e-03 4.818735836119156235e-02 4.563204047426873688e-01
9.724173330139092297e-03 3.255904042632686013e-02 4.542606788583230526e-01
2.305515761393039931e-02 4.772793004064957573e-02 5.084944461172807850e-01
1.033843001789410201e-02 4.122526218577181323e-02 4.584103654431724850e-01
3.320960446483763040e-02 3.573979118402387245e-02 4.704169863609438118e-01
4.004323837872861974e-03 5.279820844749580355e-02 5.156188714008277385e-01
2.521300952633663203e-02 5.054804094505389866e-02 5.015920207979381873e-01
1.613361365247929433e-02 1.787762593923679019e-02 4.496809010493750813e-01
2.645903251838186906e-02 5.311471175743719131e-02 4.936332620918593705e-01
-2.460002075422867973e-02 4.161965117898784594e-02 4.500050597039686462e-01
2.652043111002109002e-02 3.157071004897158556e-02 5.145158767679041123e-01
-6.795422940664995297e-03 3.770137536661318650e-02 4.517354699142513419e-01
2.329087190527304868e-02 9.733196363839102458e-04 5.334548703480120890e-01
1.061839210417063993e-02 4.319088411226668783e-02 4.593295949532799627e-01
-1.927807651811320327e-03 6.434698824059836841e-02 5.016178572992312512e-01
-1.515889604053820630e-02 2.176946405509429944e-02 4.435174351933310333e-01
5.451246817721884866e-03 5.578027399172308387e-02 4.617934508657828840e-01
3.957603927480959211e-02 2.726929272929357051e-02 4.753799767876787374e-01
-2.955401524772051196e-03 4.771337610851692640e-02 4.560464426269622007e-01
1.740449013673641895e-02 6.805356613288916778e-02 4.899599366099354203e-01
2.779070290041500690e-02 6.450613558958984139e-03 5.308039282262587699e-01
3.863133444117065537e-03 6.456359657418471454e-02 5.079840291667069296e-01
-1.133712898598086393e-03 3.789745965478198003e-02 4.530036706231257981e-01
-2.925533356475334273e-02 2.847410965978643474e-02 4.448914550879310981e-01
3.465776471975543643e-02 4.129480207819168774e-02 4.849111575347069825e-01
-1.616630763260268680e-02 -1.284300759574840030e-03 4.368357494442361988e-01
3.085434839054077699e-03 3.405615181888238530e-02 4.527393108448960479e-01
-2.110133697190692131e-02 1.887425735861875467e-02 4.418881758627404288e-01
5.453460208909872292e-04 3.442919000879918201e-02 4.520380361280267878e-01
2.774802111718415940e-02 3.851745096850246741e-02 5.084480766916803507e-01
-8.645903717819893725e-03 5.497079869950782099e-02 5.119787187983192434e-01
-2.294222676509682229e-02 3.368407393452264864e-02 4.469694701395672820e-01
-2.491469263389846367e-02 2.326670282753772606e-02 4.430944777702299775e-01
-2.992234629022690051e-02 2.836147206647386503e-03 4.384956469536778201e-01
1.289395181031991605e-02 7.228376818817086602e-02 4.911501431631618009e-01
4.086116810826973672e-02 2.655294612282093486e-02 4.875404589269622391e-01
3.531939481160356609e-02 3.808513864475009114e-02 4.776950976151915218e-01
1.024467668432470224e-02 7.496681919067617328e-02 4.833457491355676594e-01
-3.822858303404419456e-02 -2.677750991241650835e-04 4.404914250391495090e-01
2.003088384978462394e-02 6.318560739870100751e-02 4.783862523653835130e-01
3.532275024018348593e-03 4.984546703393842593e-02 4.587197683160289530e-01
1.197584639602161660e-02 4.462610895437361253e-02 4.605111362212429005e-01
3.843862738445122385e-02 2.421328879443691504e-02 5.010008511221037963e-01
-5.350646710961604394e-04 5.472988119217864211e-02 5.155245308247582425e-01
-3.234833098726844908e-02 3.961694196171208771e-02 4.488495439675104226e-01
2.915372576971691360e-02 2.340321866265861542e-02 4.590701199456611592e-01
-8.846404030988333847e-03 -4.639616323660700724e-03 4.366745775201668067e-01
-2.244582897666748400e-02 1.677330058710854027e-02 4.411143487622216641e-01
-7.731655094281434694e-04 8.801749223112701262e-03 4.415112819795312671e-01
1.683711137840123925e-02 2.780279042771013898e-02 5.264408121497871074e-01
1.295671050737325775e-02 3.892194920027922111e-02 4.584454372970388492e-01
5.070635227935896272e-03 7.650356465126957606e-02 4.842092793611579293e-01
5.158448164222471932e-03 6.518584694884591024e-02 4.663780085760626526e-01
4.535883854073471987e-04 6.796282930398298006e-02 4.668943462627209162e-01
3.740419467694851979e-02 3.413193705208936862e-02 4.926167934767944900e-01
2.873640146677857582e-02 4.639787074773930875e-02 5.007373970629821480e-01
-9.612452665009905278e-03 1.054412553855587839e-02 4.405400725424322150e-01
2.157126660645814278e-02 6.249118093984171174e-02 4.804242126769525667e-01
3.452766683551852095e-02 1.778454045102059386e-02 5.172218266292266664e-01
3.593052552861119436e-02 3.799214991707192124e-02 4.912461197884245845e-01
3.342421866387856877e-02 3.330875347874282660e-02 5.028854528560363635e-01
9.916449439422572038e-03 6.036858751670143297e-02 4.663204519535616432e-01
-4.139971758825675141e-02 2.568239702738448274e-02 4.449326016049396926e-01
3.910102741059716391e-02 3.091723306575480668e-02 4.891138929885873177e-01
7.654237123468798920e-03 1.478895499909182835e-02 4.459466147884825205e-01
2.171573253452009980e-02 6.088141127317796275e-02 4.787198892092209834e-01
3.992372074921698988e-02 2.385456928359162843e-02 4.979855174790261407e-01
-1.738646539319691625e-02 4.740713743881445896e-02 5.217858567900519606e-01
2.776937884019292299e-02 4.469565984383640916e-02 4.714593763078053223e-01
9.539638929007498991e-03 5.658488100884064009e-02 4.644218128584279293e-01
1.498451236538178404e-03 2.277470709925982079e-02 4.474264321706836189e-01
2.997499146491816591e-02 4.369147812368834316e-02 4.730897808491220102e-01
2.181242449537769759e-02 5.672685873633901560e-02 4.749129909102379754e-01
1.046502660256821635e-02 1.226608037362329935e-02 4.457114328517440827e-01
-1.979106578810266304e-02 3.039525545888364239e-02 4.460285407712037964e-01
-2.627284683109337021e-02 5.738479344135693355e-02 4.620612444731074242e-01
-2.922880163338014564e-02 1.177410993082502605e-02 4.406252410368801109e-01
-5.535250193105664511e-03 1.530270975038397138e-02 4.429633841991694188e-01
-8.249583018232798520e-03 5.151346439752393924e-02 4.563043028136050672e-01
2.400763456577311925e-02 5.964292292196575473e-02 4.807651945270220439e-01
3.224343513125028926e-02 3.283002164611174833e-02 5.052616574353109291e-01
3.725003705159036366e-02 1.980490923254203325e-02 4.639259794014517491e-01
2.682608641777906727e-02 5.548575134352310562e-02 4.846161562466693717e-01
9.613028582275076270e-03 7.021937258192577358e-02 4.995822146890330218e-01
1.407443634352379715e-02 6.366818622346910594e-02 5.013393418740377250e-01
1.336983839993942554e-02 1.574709574979575241e-02 4.480078922421267817e-01
4.020689397263688819e-02 2.833239327712655520e-02 4.876249576592551760e-01
6.302627389987136217e-03 4.705331965268633176e-02 5.194772701227156064e-01
3.944344581733591482e-02 2.423302832519992275e-02 4.986330674492772119e-01
3.820636798595992284e-02 3.262504327300222440e-02 4.786903883681224992e-01
2.554578977374726695e-02 3.189725804721704749e-02 5.156017703918559514e-01
1.035589108065331290e-02 7.495037742320798113e-02 4.840677824314174038e-01
1.503875058686284134e-02 3.337625672122735559e-02 4.565500369205083286e-01
-3.080907180321542857e-02 4.516043671455475389e-02 4.525369556708063734e-01
2.699541805350845133e-02 3.098235190607007486e-02 5.149813254515742678e-01
-3.182726930778382451e-02 1.621037579335220941e-03 4.387863827274196549e-01
3.636874823533306229e-03 5.561924430672773173e-02 5.137862627848189812e-01
3.670388579416282437e-02 2.615706273507105092e-02 5.026198163457219481e-01
2.392070485647148845e-02 5.748369473817785402e-02 4.929615244042390154e-01
2.353932227205058486e-02 6.022515422210779346e-02 4.806288851182843880e-01
-1.204148992903535630e-02 4.709026282202332520e-02 5.232680467492022425e-01
3.287965527016419032e-02 3.227946374980596861e-02 5.045227809885347581e-01
2.469642014101112656e-02 3.102354677039478870e-02 4.603134937692192619e-01
-2.352814715441586130e-02 4.427964742138430082e-02 4.515072592487175407e-01
2.972214381753584059e-02 2.088470869828334617e-02 4.582038612547184586e-01
2.262731278436913226e-02 4.040005514745726584e-02 5.130303820824374528e-01
1.203044021751704593e-02 6.729916040853790860e-02 4.999203119371238291e-01
9.635282079581771950e-03 7.521086411625202417e-02 4.868221054711555640e-01
2.589132583600132348e-02 4.293858108802404289e-02 4.685758200588583389e-01
2.440793891643040087e-02 5.194686652462920939e-02 4.742554038923704751e-01
1.084234618757943386e-02 5.858005188244951728e-02 5.098583126410720645e-01
-2.212648866835578015e-02 2.714077755462974278e-02 4.446796905130265265e-01
1.063781433587419716e-02 5.335678426393929141e-02 5.130472611876999434e-01
-2.124057954004355403e-02 5.775726052662668621e-03 4.375678717712872534e-01
2.521606940164269894e-02 5.322267610804841398e-02 4.767030558859303158e-01
9.523065914223725198e-03 4.911006262674078721e-02 4.610465024226516606e-01
2.211440873989250003e-02 6.123420330977819709e-02 4.795945356927907577e-01
-1.294770994699638231e-02 4.484989124660739707e-02 5.240684582894329369e-01
3.646029261465310624e-03 7.642565603924382500e-02 4.774238994239471956e-01
2.399561993314538663e-02 4.150949871128238600e-02 4.661555532004397762e-01
-3.304657401343502610e-02 3.942178798388938643e-02 4.487576468366512028e-01
-1.567119119943853958e-02 2.425119747909212573e-02 4.443651228708032641e-01
2.557241153145463353e-02 3.505391945209419824e-02 5.133065240816707675e-01
1.958845943339916629e-02 4.276417060256382241e-02 4.636818975469204074e-01
2.376228230879770184e-02 2.710746045788839723e-02 4.575906977266107623e-01
1.727584610475225296e-02 6.850281411359147865e-02 4.809579649559072578e-01
-4.874020532165811159e-03 4.305810562197399938e-02 5.235861588007416634e-01
-1.302216795580563892e-02 4.912426945063704670e-02 5.223609917407247005e-01
2.952592590377642150e-03 7.106997969435252527e-02 4.983418387341363998e-01
-1.067323871297159868e-03 4.135359721363992408e-02 4.544658826303755172e-01
-2.154807505996027966e-02 1.263194894350606889e-02 4.397452477957191630e-01
-2.539968395517301983e-02 3.181862579079299674e-02 4.460613678298822604e-01
-3.840763616856544826e-02 2.673638000886372455e-03 4.405972920984332353e-01
1.872271921837747113e-02 6.730648683541222421e-02 4.825684179240275484e-01
5.723137201837119603e-03 2.224060415662339890e-02 4.484361148752820658e-01
5.447315951562675326e-03 7.333775051444295368e-02 4.904579322318875501e-01
-2.174472155202212056e-02 5.106454509825276988e-02 4.550374108483951630e-01
-1.187241683163830532e-02 2.625201530229043581e-02 4.457020594978211014e-01
-4.924542510904368793e-03 3.431216668431113365e-02 4.505944268754083493e-01
3.479360911141126528e-02 4.049453689364156117e-02 4.900214221026900629e-01
2.730352520383092993e-02 2.395811561496486580e-02 5.209038594987884796e-01
2.485396349050660730e-02 5.418577355649655675e-02 4.770787084225048824e-01
1.254016015385847442e-02 3.478372927808008608e-02 5.224845649983815843e-01
1.234639832006860505e-02 6.537719866511834677e-02 5.016863424706233809e-01
8.449672268725696295e-03 7.471197381125560533e-02 4.888641301505687320e-01
-4.257117147489074271e-03 5.239158630112923654e-02 5.188462840825747158e-01
-6.129929584622679367e-03 2.010073546070805656e-02 4.446054302192012364e-01
2.465113044584573906e-02 4.742793276759081633e-02 5.064006875457074397e-01
-7.769129894538408243e-03 3.724713791950336195e-02 5.254626104850868007e-01
-2.818029359519526669e-02 3.561365815893158954e-02 4.473497012944171458e-01
-1.674067472422808081e-02 3.813254036016860971e-02 4.497860779981258661e-01
3.150365817864214657e-02 4.632075450838669256e-02 4.924650015871190889e-01
1.258081623079654668e-02 3.775680978841912394e-02 5.208971000957998143e-01
3.456929471504475992e-02 3.145585050562132307e-02 5.021328931838107135e-01
4.129386686334627493e-02 2.548928939383594827e-02 4.868742301516934545e-01
6.778242939185056409e-03 4.725159422210514076e-02 4.593046641347564019e-01
2.925082642971544439e-02 4.354536850173955365e-02 5.030197531678544109e-01
8.314362939850581530e-03 4.583104961235844564e-04 4.406734621825968423e-01
-4.741923267466839793e-04 5.258352308901478867e-02 4.581666141727003816e-01
-2.288616629583831857e-02 1.959370976657707000e-02 4.420439220379935308e-01
2.218928076263786131e-02 6.297234862399238298e-02 4.866862275919955350e-01
3.916377401361305355e-02 2.629554641742985754e-02 4.975564471605118944e-01
-2.071599126657489541e-03 3.625612616084163131e-02 4.520578401551704206e-01
-1.218447300610031418e-02 3.817109699864754818e-02 4.507779320274982182e-01
-7.393413193252401650e-03 5.184139587957316275e-02 5.197109122231253764e-01
4.343835561147063595e-04 3.332737929127894266e-02 4.514701538040161721e-01
-6.232499051454919170e-03 5.475817595728767889e-02 4.574730665295834164e-01
2.673196441837862036e-02 2.858262624299291385e-02 5.185280719486590195e-01
-1.271649572549025898e-03 4.004708040386037449e-02 4.538784151142404300e-01
3.580146465764073339e-03 1.182360784659315309e-04 4.394513781839321509e-01
3.934099678028937092e-02 2.961014219534640821e-02 4.780908776562154405e-01
-2.621550395808726688e-02 1.990285768434680788e-02 4.420914641236449172e-01
2.764555360818483215e-02 4.713287103396972266e-02 5.018521425836310890e-01
-1.986510742056621023e-02 4.520716188391926682e-02 5.189545814146191427e-01
2.228533448239624140e-02 6.052006995420577268e-02 4.921554374834321566e-01
1.581472484412911259e-02 4.481429891132458071e-02 5.155020717377870598e-01
1.423258831791462606e-02 7.134745554226128161e-02 4.905700650611530822e-01
2.298044797378771126e-02 3.362409378366670865e-02 4.606127175646224092e-01
2.079602421353200434e-02 5.265162389302694562e-02 5.060768981739833805e-01
-2.558082789213505029e-02 4.233045329375721699e-02 4.503031488605451216e-01
-3.882417514265740655e-03 4.459582254962879411e-02 4.547747298031913354e-01
3.149123149409348982e-02 2.415749057733441660e-02 4.615300524961062911e-01
3.909291114183804927e-02 2.471054558990411210e-02 4.988544268576355356e-01
3.862954747830251584e-02 2.465979264798987339e-02 4.999982999931533167e-01
-2.315079012609810166e-02 5.673542001010987296e-02 4.592047208034720218e-01
1.081663754956067869e-02 3.435296271143897795e-02 5.232271073891702207e-01
1.206982458811668019e-03 6.757791433981648332e-02 5.006165038330303574e-01
-3.642541955594337175e-03 5.157166157245491461e-02 5.195182857681206468e-01
-2.115730043724353346e-02 4.355537764770077598e-03 4.373107689677054877e-01
2.928140035631416303e-03 5.089284323890090611e-02 5.175267749314874655e-01
3.648255667631515597e-03 7.757442578372132636e-02 4.816296730463269782e-01
2.023615643586516161e-02 5.917133866591559738e-02 4.982152501505524023e-01
-8.625090698400384587e-03 3.319449203364709805e-02 4.492722996512307221e-01
2.430701123285681706e-02 5.419693817733099023e-02 4.976432033483481066e-01
1.970391220792166304e-02 3.872578283844108071e-02 4.614742061052522493e-01
5.858441041726681828e-03 2.095644229550510870e-02 4.479285379331364725e-01
1.216383904571140956e-02 5.102918603312341789e-02 5.141161977180830345e-01
2.536467311056489482e-02 4.519327280096662597e-02 5.081660235025868833e-01
-5.861430328442870930e-03 5.280149097665543662e-02 4.569448530936340291e-01
1.275145483670389081e-02 3.122104300155868588e-03 4.425366423228332957e-01
1.133775542218591094e-02 3.252592608199574020e-02 5.248580608505285516e-01
-3.073204506633584604e-02 1.651583180912127163e-02 4.417246903325286467e-01
-3.371269675089377110e-02 2.492836869192908630e-04 4.391235028100242688e-01
7.431276539640252303e-03 6.216391523450168904e-02 5.085018580733776661e-01
2.799291144385585711e-02 4.120299589791036332e-02 5.067876485097413397e-01
1.241300048709253340e-02 8.342017980097704566e-03 4.445304533165472805e-01
3.656472042926631194e-02 3.685173524151842683e-02 4.876606208341050519e-01
2.065214740373958260e-02 6.446448503258063456e-02 4.817579554991034962e-01
1.559788745611840124e-02 1.908555633429884907e-02 4.500721633912779795e-01
7.819330121866021818e-03 7.592572386658817674e-02 4.789854129645376712e-01
3.395043496500772112e-02 3.818996345770557521e-02 4.743770430723675546e-01
3.358167350683541330e-02 3.233232916643212496e-02 4.685639736740081496e-01
-8.361779687515448825e-03 3.634956406099137949e-02 4.507636912047911504e-01
2.942699734680544188e-02 4.475464895420994821e-02 5.018569304905007300e-01
1.216352649331826560e-02 1.414650487616066037e-02 4.469815989963099034e-01
1.824381728746568565e-02 2.554045377322989793e-02 4.539746520570036581e-01
-1.734211054540155464e-02 3.991517012944984649e-02 4.504476432300417166e-01
-8.075152972941391019e-03 4.137060918581306201e-02 4.528304156092414212e-01
1.461342866416738204e-02 4.749079679498011131e-02 4.629876719933119777e-01
-9.882677035324697462e-03 5.161734790801895956e-02 4.561630256825938146e-01
3.970313860219530644e-02 2.632416039598943491e-02 4.944002638742485134e-01
1.646510167687888909e-02 6.743958704223682044e-02 4.933368485544494808e-01
3.534002489134234481e-03 3.453725430696501925e-02 4.531287524516248721e-01
-4.404810848898724207e-03 2.852916199834124381e-02 4.481762984954135720e-01
2.681167138274297319e-03 5.902515349424845847e-02 5.118320772116320416e-01
2.818356054759654436e-03 6.677227822949632907e-02 5.058141529868086517e-01
1.248459678662844352e-02 4.331965746496956732e-02 5.183206380872079633e-01
3.945143344391421197e-02 2.780232931218205514e-02 4.757253977022630198e-01
2.883742915748915489e-02 1.009324562051704816e-02 5.270074747182641461e-01
2.118090342209597021e-03 4.605369809942445880e-02 5.215108250938581547e-01
2.705222195031538324e-02 5.001505985050663100e-02 4.978822690806938844e-01
-2.180251813966724642e-02 3.971028078424276853e-02 4.496376706661478484e-01
2.936097215420781573e-02 4.355286369539028424e-02 5.028322500301429798e-01
-4.683175052137656530e-03 4.202624671105955473e-02 4.537631680634087172e-01
1.559596610510154309e-02 4.982395172910945857e-02 4.647516665655427315e-01
2.519584360811131032e-02 5.844087710693323529e-02 4.830064200383261119e-01
-1.654655016544015825e-02 4.777362007428532370e-02 5.218060030638658198e-01
4.680478367035547857e-03 7.046579048425527514e-02 4.700452892965351070e-01
-6.984122221780830406e-03 4.971408372931857000e-02 5.215293670721562469e-01
-5.729923165612419225e-03 5.713357933914828962e-02 5.130763585104999303e-01
-5.426435893041731996e-03 4.970182768683624464e-02 4.561033365330165457e-01
-3.027467202357965459e-02 1.803476918758499178e-02 4.420349067773471363e-01
-1.915885775010727973e-02 2.893108608141255894e-02 4.455200001775685426e-01
-2.292357415945395216e-02 2.432478844366934082e-02 4.435902887086037305e-01
2.592432935131408489e-03 3.582413889136946972e-02 4.533629411685348165e-01
4.476674271716207625e-03 1.000397679222326044e-02 4.431040055033253489e-01
-2.857485640519462355e-02 3.920934250865917153e-02 4.488308097233688621e-01
-6.424483333868472729e-03 5.654996942457093251e-02 5.118392196335258548e-01
-2.951507649700550739e-02 4.975611028638329825e-02 4.552986830823589348e-01
3.077286077138742873e-02 4.581668851952494514e-02 4.955279931870374965e-01
-8.803903099368712987e-04 6.602723332746990303e-02 4.653308125998124045e-01
3.697918551876339111e-02 3.177862361028649385e-02 4.736855166500156811e-01
-2.094264779878796112e-02 3.470192670780002792e-02 4.476334202690648301e-01
1.395808429322118772e-02 7.144996415282221791e-02 4.782127910106628299e-01
1.707496029479758926e-02 4.074838130385946555e-02 4.609467512648983689e-01
2.061036269186207470e-02 3.761477098745465153e-02 5.165757335653675675e-01
2.376922300043417605e-02 2.422414444627623425e-02 4.560101970716992636e-01
-1.108302268310784079e-02 5.847880012003626310e-02 4.583983736529346209e-01
3.214255270541907517e-02 3.634447805875860860e-02 5.033626415622488581e-01
1.347344183007141705e-02 6.186039923287003223e-02 5.048329218158483789e-01
-2.589137913722881768e-02 3.761649154630288677e-02 4.483295236787565030e-01
3.555017062244619080e-02 3.508150271070253901e-02 4.980754977188467936e-01
-2.324844041559279411e-04 5.039800520183183169e-02 5.196738243213780972e-01
-2.485713920226274160e-03 5.548083918990580343e-02 5.151151222461338719e-01
-8.370656745100234740e-04 2.666957857309795038e-02 4.483467890660989275e-01
8.631724731101443615e-03 3.429213176533289775e-02 4.547302302865873780e-01
1.822184077022983824e-03 6.906487084740399462e-02 4.995995166579992319e-01
3.841478265119847163e-02 2.328715684263459734e-02 5.022124878909244305e-01
3.763212192218021862e-02 2.444448971180848695e-02 5.025929538221151072e-01
-1.682100163282702204e-02 4.216060170290155534e-02 5.246791727778608028e-01
-3.270042641424541346e-02 3.629330848362043865e-02 4.474498372225011456e-01
-1.111085967045547310e-02 5.080162389768035774e-02 5.149900712717098150e-01
2.233393805500148970e-03 5.561958599195427483e-02 4.601802106903576384e-01
-6.065038026712132532e-03 3.511489209377316283e-03 4.388466856835509522e-01
-3.117515537514943536e-03 3.832770016335872165e-02 5.249922507097891655e-01
1.980812948996315756e-02 6.512088789265653432e-02 4.806904750248889857e-01
2.290014077128136108e-02 5.191472572689227044e-02 5.036151334113855293e-01
3.078602511416497073e-02 2.770394941809185135e-02 4.629616323805659794e-01
-9.404417789814281670e-04 4.337752422385758588e-02 5.229460946290921397e-01
1.736146970947287458e-03 1.967796514902081517e-02 4.462870226770042636e-01
-2.131656556188639418e-02 -1.506441739756319426e-03 4.366102509324675807e-01
-9.796937584388178827e-03 2.248097380111919660e-02 4.447943388740833726e-01
4.839409243239150421e-03 4.171718025752398779e-02 4.566142982643929260e-01
-3.017151799607660501e-03 4.821922421641014478e-02 5.217268764160915007e-01
1.909831736983631095e-02 4.397623265448449836e-02 5.138690066650938304e-01
2.300757339827919773e-03 4.941133229459650222e-02 4.580474704300812050e-01
-1.098219927640474089e-02 4.273034009465160460e-02 4.527068995292529152e-01
-2.030163382606147565e-02 2.228790210626431165e-02 4.430437459231388875e-01
3.018518010514937081e-02 2.239547351783838583e-02 5.183834157682863930e-01
-2.288094806790267124e-02 7.013853253766662646e-04 4.369472107350927947e-01
2.570821815150997267e-02 1.055776072388726373e-02 4.503232364252193753e-01
7.800680640910687309e-03 4.969956141468138966e-02 4.605231045330926976e-01
6.865728956846853248e-03 7.773374494985135774e-02 4.808552949899547180e-01
2.646657382360511485e-02 5.561319138376774607e-02 4.812541211572045063e-01
2.347559468967233554e-02 2.686846133545979509e-02 5.226879650631051089e-01
1.015823338547983644e-02 4.219016171166104640e-02 5.204512672692018782e-01
1.176735884043978060e-02 7.411308019816033321e-02 4.811135311200482323e-01
-2.198044850469565992e-02 1.616744798203523237e-02 4.409232692132449838e-01
-2.530713364819262012e-02 4.010419618960117671e-02 4.494118179755622333e-01
4.016683550685123255e-02 2.832494369797213668e-02 4.793473219628541782e-01
1.016431063188195927e-02 1.785377594938240137e-02 4.478969671323405621e-01
4.036166987480037383e-02 2.445861240778696155e-02 4.959689359898690753e-01
2.110074553450815970e-03 2.065517695392213998e-02 4.467730588286159543e-01
-1.400711193959638598e-02 2.450104979060606369e-02 4.447275533232455391e-01
3.130179733528150321e-02 3.723855596331986789e-02 5.042593528039194251e-01
4.712416483914098550e-03 3.798866594742759256e-02 5.231656550583884124e-01
6.182234453333667473e-03 6.009489259462263283e-02 4.640927583602181272e-01
3.574220224759466769e-02 3.935640877893584189e-02 4.813370428394462830e-01
1.118079003728542770e-02 3.188719005425165540e-03 4.421889833501000955e-01
6.744988409582320689e-03 7.310188778500971429e-02 4.933423042389369906e-01
-2.042901177934581050e-02 4.995484512300269603e-02 4.545209233771023150e-01
-1.827244970084753242e-02 5.986488228775625059e-02 4.631703128695365268e-01
3.765671831484888876e-02 3.438214591324532943e-02 4.891508336982930416e-01
1.482753610774141355e-02 6.627384814873410468e-02 4.970982609304149258e-01
7.814272989795031238e-03 6.159460313517239882e-02 5.088942477350050231e-01
8.095011689017071743e-03 5.849864200673299264e-02 4.644601858264417737e-01
-1.875005373895697464e-02 2.147284358785125566e-02 4.428568554660911594e-01
2.482967053480315475e-02 2.915703212639573008e-02 4.593689810547030850e-01
3.024858482242526181e-02 1.836873048864996749e-02 4.573022221480047556e-01
2.625821302314598066e-02 2.747933417088974095e-02 4.593192038123177778e-01
-8.311790709048832992e-03 2.166105626760281982e-02 4.447947372004278366e-01
-4.501603519302320618e-03 5.855527566933840800e-02 4.590537714416259574e-01
-1.432097622464059000e-02 1.769774014462408007e-02 4.421814009668881829e-01
2.641809743017784276e-02 2.301055654708425435e-02 4.569531788331371858e-01
1.415880878074120795e-02 7.184077163263738464e-02 4.799170357377038343e-01
-1.323204673159662260e-03 6.097666370011117082e-02 4.610875407884484911e-01
2.850186697774802214e-02 4.675443849636830296e-02 4.747159573882490657e-01
-9.361675531197160768e-03 2.445373474511770839e-02 4.455746456323426696e-01
1.034599384102091735e-02 5.097330932975740331e-02 4.623566368626902401e-01
7.515883909546626496e-03 6.042825297752918434e-02 5.097763377867899903e-01
-7.248907925613848335e-03 4.692419496183729971e-02 4.548284643401546146e-01
1.188630728653700466e-02 6.660754478756358843e-02 4.712986344033727737e-01
1.164709160071951931e-02 6.808532187384822021e-02 4.995346212010237652e-01
-1.251463815167925750e-03 6.012581243018088467e-02 5.117080398657839480e-01
2.583134579220245849e-02 3.128266378175384443e-02 5.164861501139040856e-01
1.897638694970393142e-02 1.565995954341485238e-02 4.495527469930324926e-01
-3.699666823500710224e-03 6.812318109153261969e-02 4.666977161036382493e-01
-1.096779439869869158e-02 4.380828550033616375e-02 5.240836548168600340e-01
1.301167558649017272e-02 5.647874354934651064e-02 5.102285089554722264e-01
-1.063712892648030657e-03 6.683033683017855497e-02 4.658735992248893565e-01
-2.499593147174105148e-02 2.224070217795066917e-02 4.427776567732935598e-01
2.307893932185840769e-02 5.656890891373658053e-02 4.963945534593039999e-01
7.108036652794585616e-04 6.249696799538492775e-02 4.628935340211849936e-01
1.519935339198367000e-02 3.848040759062289207e-02 5.199815512114512872e-01
2.609370462972273111e-02 5.488546449768855195e-02 4.904431911697216817e-01
3.538832532897612237e-02 3.978826142116478892e-02 4.842876805560294429e-01
-8.293586548884434792e-05 2.913643699878377957e-02 4.495549697197758765e-01
-1.034827643221549950e-02 4.916577861274096933e-02 5.223287091326863640e-01
2.074597377119219779e-02 7.658058142748266905e-03 4.469598889969478850e-01
-1.394924414599466034e-02 1.164990880957088608e-03 4.372062026730429429e-01
8.930587130229787271e-04 2.073393102548929182e-04 4.388416378772246884e-01
3.127391787696264663e-02 2.616312375115545028e-02 5.122961471205488282e-01
3.911179936541109292e-03 6.448493087160361847e-02 4.653450543867821421e-01
4.778193909212737241e-03 7.471331588942677071e-02 4.882638519176585312e-01
-2.133547088887247090e-02 1.814256133721327616e-02 4.416310295474824565e-01
1.615389957375488669e-02 4.554578346239860492e-02 5.149261193775263035e-01
3.367008582949860586e-03 2.354244110270134818e-02 4.482945185442057112e-01
3.654885746056973916e-02 3.095655139070184469e-02 4.713755110008048810e-01
-3.342923508324557175e-02 2.013934739226270684e-02 4.427525815332183923e-01
-2.557150544078939242e-03 6.562132902340839236e-02 4.646795758129342313e-01
3.120825306020267101e-02 3.857223013464444045e-02 5.037093216248910155e-01
8.518043565386542587e-03 3.381986461863743798e-02 5.246230834438262436e-01
3.834635511337086688e-02 2.608577022763373596e-02 4.991182389890660431e-01
1.768053277477129454e-02 4.403594267805651524e-02 5.149176869637022147e-01
-2.084478896873568493e-02 4.904544094714224922e-02 4.541938286642875910e-01
4.002381642631124697e-02 2.198988787839694856e-02 4.704938757815099182e-01
2.996303311891429857e-03 7.167445528337333671e-02 4.952852387060038275e-01
2.366204739823110983e-02 5.941641421692733793e-02 4.899770349261281521e-01
3.354129459969450167e-02 3.414757577491663726e-02 4.696450200413689324e-01
2.330950519481972752e-02 5.165359041330350176e-02 5.032842158774832875e-01
1.373670278258260456e-02 6.805565729922403995e-02 4.964946912237974685e-01
-3.849653269725190896e-02 3.831274930350606067e-02 4.490921077504704817e-01
1.613290939840817534e-02 5.448694465151527472e-02 4.675066803981520192e-01
1.890084044698137067e-02 2.544637144712029453e-02 4.541942602334017587e-01
4.378174376089239914e-03 4.970165121527549135e-02 5.185949114341711352e-01
-1.396014719974316819e-03 2.299925820086643619e-02 4.467719746086788457e-01
-2.473722255100383946e-02 2.876924824158564806e-02 4.451058537932179315e-01
-1.161284193422945643e-02 1.637048887536894648e-02 4.422358152496053130e-01
-5.855612737627667770e-03 3.348535727122364108e-02 4.500036963402835322e-01
1.556161127803183143e-02 3.675233186367377058e-02 4.584391411224091328e-01
3.628070233917522064e-02 2.839129164846816017e-02 5.011884107843532776e-01
-4.261608801031319463e-03 2.587328242877967935e-02 4.471593832933976609e-01
4.018257560228411657e-02 2.389158422712601287e-02 4.728667469925382782e-01
9.354432500156903071e-03 4.003750495890567168e-02 4.575697041993773695e-01
-3.876778621838855576e-02 4.122687827426534807e-02 4.515961787159215590e-01
4.125237841314206150e-03 2.872640780295745207e-03 4.404144545755879769e-01
1.981344098895266095e-02 6.317127108710419991e-02 4.941947056356018608e-01
7.955846406894956022e-03 6.567597555558603306e-02 5.056996785049465704e-01
4.332407108481660211e-04 6.792298769816031145e-02 4.668639925622695142e-01
2.330432095181772523e-02 2.314273535190945058e-02 4.551311674147270336e-01
2.034894616365342038e-02 3.717135707404049111e-02 4.609276380415330832e-01
4.715907840442349480e-04 3.278611447027546255e-02 4.512478076942044170e-01
7.922658236091206438e-03 5.551588042896842684e-02 5.124660422268444426e-01
3.785464567769446925e-02 3.050586486595740707e-02 4.959383200326129559e-01
3.905150391710160429e-02 2.701324339556378240e-02 4.970380476931555158e-01
3.383755204063559202e-02 4.221809693524498919e-02 4.906758970868991265e-01
-8.840219040504526671e-03 5.868788819240719490e-02 4.584794023931223483e-01
-1.093602807760549363e-03 6.758975761908084245e-02 4.663818986015474399e-01
3.909688926799562841e-02 2.924436585707363562e-02 4.766332532967597069e-01
-2.477008693116841340e-02 5.688037773815668441e-02 4.601118175888351258e-01
2.150229466663369088e-02 5.484860268376507558e-02 5.022298007161634104e-01
-2.612125152526314706e-02 1.301446716248295596e-02 4.403145198363415669e-01
1.321375305220522794e-02 7.257419423105397616e-02 4.797898492978623364e-01
2.107513924269075606e-02 6.458363831459945636e-02 4.867682964809777468e-01
-6.738297187087807782e-04 4.086285739206427930e-02 5.235733298447806661e-01
-2.525055498241468924e-02 2.033269313999641267e-02 4.421847445578947489e-01
-6.995404915454684486e-03 5.496286952934183179e-02 4.573754966491683782e-01
7.034220128511974382e-03 3.893996876802647417e-02 5.220572253978877919e-01
9.617632915984785508e-03 2.152101575614913387e-02 4.492127104885886846e-01
3.937100145312685123e-02 2.718166145033195855e-02 4.941450104264288323e-01
-5.096779170856630993e-03 3.124392071218738340e-02 4.491849487516308970e-01
-2.321070582074748201e-02 1.412773890959467121e-02 4.402302342561824622e-01
5.559309137304258366e-03 1.533293704316827585e-02 4.455631914060355081e-01
-1.880820473039614138e-02 4.726389172177068720e-02 4.533695153103287079e-01
-2.421405936269787132e-02 2.921394506268007799e-02 4.452481843951319740e-01
-2.982543179286262572e-02 4.009285272268311995e-02 4.491524839826345761e-01
-8.553560766192406378e-03 6.219376901287358012e-02 4.616434631071835715e-01
2.125304313405494347e-02 4.009799224272432572e-02 5.143894070639288829e-01
1.111101500631687423e-02 3.135519193496300733e-02 4.541388087386113437e-01
-1.196163958222748111e-02 4.220927135370097782e-02 4.523489203285938620e-01
8.429065113902312403e-03 5.115918794276564513e-02 4.613631080848368260e-01
-2.865166612272351462e-02 5.757551921538606350e-03 4.385851578274770901e-01
-2.973482691977688552e-02 3.795491916878980521e-02 4.481634062091716664e-01
-1.914036634275446264e-02 1.302168505627899868e-02 4.399196699449964276e-01
3.183714719778667906e-02 4.349269840461993109e-02 4.968329941170509523e-01
-2.143939934476209175e-03 5.447176212671898249e-02 5.161726848180536731e-01
1.650725569844048099e-02 6.906839369723605238e-02 4.899952245531115080e-01
2.919186829775747075e-02 3.517227587168939712e-02 5.083145841405658505e-01
-3.170109766526200273e-02 3.904844822635294976e-02 4.485992322503570273e-01
1.439389758400735214e-02 5.626342620581572390e-02 4.673454756228814788e-01
3.611225296124304790e-02 3.825224382309314053e-02 4.838357463403131775e-01
-1.912063581739889204e-02 4.498110291663156429e-02 4.522884762609679643e-01
3.168016386110465276e-03 3.236874729376301024e-02 5.263408562726330508e-01
2.638567021860170961e-02 5.084114507148802808e-02 4.982036396050718019e-01
1.885726296099043270e-02 6.726178622321013489e-02 4.832651569100329669e-01
3.209808827965593414e-02 3.923863524379526957e-02 4.718337548519168090e-01
3.484652311400466412e-02 4.052375294247635013e-02 4.877064277811539728e-01
-4.158505387588775151e-03 5.475987918888945011e-02 5.162974845003941438e-01
1.889015217804704966e-02 6.489431309929780123e-02 4.930602852875873299e-01
6.850265521223866498e-03 4.975685545157817330e-02 5.173959909723595540e-01
9.286226252900438294e-03 6.043619756045746916e-02 5.092894779678929229e-01
2.476304607483584622e-03 7.657115015456636420e-02 4.798564055040842602e-01
2.989207460469259572e-02 4.001373583797566968e-02 5.045945440975485585e-01
1.638515594658849703e-02 3.278243923867352194e-02 4.567935697733293554e-01
2.343752205149080350e-02 2.975428880525663247e-02 4.588256904147761106e-01
