7.887260079131217308e-03 1.533055426410755498e-02 4.464580286086985428e-01
-1.354573441114321694e-03 2.619825413979793086e-02 4.483226978280587804e-01
1.468857075419756700e-02 4.895084339028531184e-02 4.642313672228191024e-01
1.765382840916287707e-02 5.525762225896532764e-02 4.695575771022475475e-01
-1.915703905323271755e-02 4.691637052306384115e-02 5.207025626411465602e-01
2.613204559214499581e-02 3.152000873828051525e-02 5.158603375158717919e-01
1.394246663995938815e-02 2.581379068961511120e-02 4.527623181732076119e-01
-9.551639909452397728e-03 4.540118511392332579e-02 4.542759159533681923e-01
1.604479355898685497e-02 1.532877047179827257e-02 4.487544873320760130e-01
1.240251864414863153e-02 7.290676879951724088e-02 4.906310358272658600e-01
3.269520629521453781e-02 2.302851751197327462e-02 5.141834824370803414e-01
1.892003706469908703e-02 5.360597585204101428e-02 5.082877869197653942e-01
3.002311975896882965e-02 4.274844524711010618e-02 5.025583823549669704e-01
-3.785350657906314670e-02 2.402218299653065617e-03 4.403981136147461228e-01
-1.363702068860580575e-02 2.609641693985760222e-02 4.456019418049323999e-01
1.556291921933699533e-03 5.673538259259770788e-02 4.608497878860985386e-01
-2.588239177510159340e-03 3.987282083855528403e-03 4.396558339882492006e-01
1.816644593373958547e-03 4.152730690716342765e-02 5.234561614458068668e-01
3.338715856987792274e-02 4.338830558271145749e-02 4.880137379404020925e-01
8.682816994708764460e-03 6.560488258884800139e-02 5.057623131512798409e-01
2.291115798016968297e-03 7.118421982395621572e-02 4.981550848313788249e-01
7.943439600411737744e-03 3.114417834906994462e-02 4.533217441363077138e-01
-5.806122450984527866e-03 1.215615430346139204e-02 4.419587538330394527e-01
3.394502397784367881e-02 4.293822084701002378e-02 4.840274966498767095e-01
2.492646520315239603e-02 9.387215238051742350e-03 5.288156746523473561e-01
2.830533366673477005e-02 4.104276044029642190e-02 5.065565744144531202e-01
1.870455169718465011e-02 3.961977336472587152e-02 4.617471722280664381e-01
-1.404179745443621605e-02 5.752270417436376737e-02 4.583662903392964894e-01
1.457147289908691280e-02 2.666586156300692831e-02 4.533655847049422594e-01
2.532334740135635046e-02 3.035296899179133756e-02 5.191649174759773722e-01
8.271065834564743022e-03 6.078215569796110995e-02 4.661311021546748479e-01
-3.065802000711394248e-02 1.933678088732803876e-02 4.425148320835745053e-01
1.909408415112767710e-02 5.493989301427899125e-02 4.704886582431387354e-01
4.098569006911625956e-02 2.349220381895467460e-02 4.940284519375784944e-01
3.497873942392745739e-02 2.829915042664467306e-02 5.040588145998228242e-01
1.463424961339799060e-02 3.433306168924823293e-02 4.572140622603132476e-01
-9.896141968382399234e-03 2.316380789997559211e-02 4.452702024002795911e-01
2.187571677708660331e-02 6.332325505175698255e-02 4.846475125601303335e-01
-2.493353711307092629e-02 1.098965280709774880e-02 4.395791107502821649e-01
-2.138708958087453399e-02 4.011516077063648905e-02 4.502363450102970233e-01
-4.716648147715797428e-03 5.534810989079531202e-02 5.169139124769555060e-01
-1.315484783654179493e-02 5.012632962029366090e-02 5.222818006644720512e-01
1.676852169098628706e-02 4.307528083474690406e-02 5.162805245070221094e-01
2.089676303911174385e-02 8.523857322705830075e-03 4.475733765853651680e-01
4.085081754660533498e-02 2.199580167134881914e-02 4.730538836496226973e-01
-2.499685462496295182e-02 5.401785884087485605e-03 4.379291250028681248e-01
9.043789229648359351e-03 5.265127940316174926e-02 5.146859019479119723e-01
-7.733829670439431626e-03 2.525295926185925147e-02 4.464590225821955527e-01
3.100629695294217572e-02 3.332399083759347846e-02 4.670819983293834077e-01
2.064884717982165552e-02 5.390375584027446570e-02 5.050796994832937870e-01
3.346113437157522547e-02 4.367491150369193220e-02 4.854671060810747951e-01
3.667992745123942709e-03 7.253306133201617434e-02 4.937559266186936635e-01
1.641041252651624302e-02 5.914975215093201677e-02 5.055123792304977437e-01
-4.726555951407565917e-03 5.411356141789412655e-02 5.183297473293667634e-01
-3.734705973472460250e-03 6.379293352001255690e-02 4.634831598016543874e-01
-1.997432095799664409e-02 3.868816310023650423e-02 4.498548288998705513e-01
3.560220890966209195e-02 3.014412821865613754e-02 4.695479496782787310e-01
3.287213979570750844e-02 3.784488980931804275e-02 5.018467450403973906e-01
1.109467978626926463e-02 5.410207640978969418e-02 5.130133220011812156e-01
-1.210125558039773508e-02 6.292602885177763991e-03 4.388333318093980417e-01
1.021152937312564020e-02 3.638218832123502056e-02 4.565931825140250311e-01
1.586132427648147963e-02 1.518080862992871038e-02 4.486396003984752245e-01
4.231927144608702701e-02 2.305903973298476656e-02 4.840522127661862628e-01
3.463612263782732403e-02 2.853164852983723285e-02 4.675494703619214043e-01
-1.893982766353424774e-02 5.292984166103100602e-02 4.562043807872799284e-01
-3.100107365103228069e-02 2.841051429609048676e-02 4.451045721361444607e-01
-3.203253856988638737e-02 2.485167274329976028e-02 4.439723230401548260e-01
2.576723693364847689e-02 3.547676012916518851e-02 5.132450289454979497e-01
3.145318058097425901e-02 4.726351494257630820e-02 4.883879242005924048e-01
1.569711217514220547e-02 3.902193338085722940e-02 4.599568996856472913e-01
2.459748871203090367e-02 2.647487053529835183e-02 5.221678698651441852e-01
-1.560472739310270543e-02 4.440951219660544541e-02 4.528718774121787694e-01
-3.811599993780785678e-02 4.283717787534962324e-02 4.530207453660857753e-01
4.147770058537823129e-02 2.328073125323056741e-02 4.908345653859916835e-01
3.929634008552183866e-02 2.834681213267866220e-02 4.766331595561194567e-01
2.135616908030426447e-02 5.195853334619531666e-02 5.063940344814907846e-01
2.346702016619206521e-02 6.005577839586694749e-02 4.891160959041804257e-01
3.741516508005680169e-02 3.444687083953369700e-02 4.908596870418248659e-01
2.485236489009351804e-02 1.806155946923618943e-02 4.535156797887467950e-01
1.712877993397931772e-02 6.912219677651278149e-02 4.862469501760350865e-01
-3.731868171932525152e-02 3.446506227059095012e-02 4.470352172127989854e-01
3.633936378987178556e-02 3.456443434304894841e-02 4.761087501700115299e-01
5.402807662264883480e-03 4.359624469067287927e-02 5.219270466798294761e-01
3.871340643657501107e-02 3.201218387403953480e-02 4.867309985680107198e-01
2.233638037880331106e-02 5.391879570359018464e-02 4.738211791815830631e-01
1.185588857370717397e-02 1.961432043332874200e-02 4.493928958863068757e-01
1.505232372892511931e-02 4.668143801794896047e-02 5.154221517080833648e-01
-1.226239722081245292e-02 -5.095243729396297869e-03 4.366352401143954176e-01
-2.676663694835014831e-02 1.643168391934721889e-02 4.413755887353038587e-01
2.320616404939993341e-02 5.960152298841794871e-02 4.801725107703274653e-01
7.282629556198584250e-03 5.002373327023786065e-02 4.609101288176575828e-01
3.126831316589738508e-02 2.773245362946390874e-02 5.108920247948954829e-01
2.795350327192875489e-02 3.336319248248259539e-02 5.117321192216731651e-01
2.807938326370382209e-02 4.559723193793043666e-02 5.033104472635233639e-01
-1.669634160275208778e-02 2.008608918975737789e-02 4.428513549016358519e-01
2.828464885003009396e-02 2.338614582515374102e-02 4.586798827416402324e-01
8.400766872869907045e-03 5.802707640856200749e-02 4.649557481242871382e-01
1.288151983986996797e-02 2.309731225173818070e-02 4.511930131040121639e-01
-1.263892107179760910e-03 3.352520733364238587e-02 4.514154971769891445e-01
9.482208184485339114e-03 2.204995024479639715e-02 4.496638464704792448e-01
-3.856503133746313344e-04 4.659505333141003569e-02 5.225997978546895739e-01
2.617187417385626741e-02 4.402674155359167368e-02 5.079654477420669778e-01
-1.343994536617683713e-02 3.448138053363679345e-02 4.492331842685738374e-01
3.996659869683625091e-04 6.474350182264267117e-02 4.650986911231961285e-01
2.861558776195257878e-02 4.505039617289757076e-02 4.732848098109760371e-01
1.585441487030674404e-02 4.817135297178121861e-02 5.137554006999168754e-01
2.965152669164557164e-02 2.925985134278626804e-02 5.126416794876866856e-01
2.270985870776893317e-02 2.345497940487074190e-02 5.248560517989169227e-01
4.724769168066044779e-03 7.224852917025784138e-02 4.962923170973433384e-01
2.625212789138905295e-02 4.439528111688122863e-02 5.075643733979532390e-01
-2.296029451997420520e-02 3.067997669429098351e-02 4.460845173290316490e-01
-7.216923416754429665e-03 2.188433073617464253e-02 4.453217894457360826e-01
4.405193836374770612e-03 7.189115456784976599e-02 4.979776676587697737e-01
4.085118450742649537e-02 2.661054470971145960e-02 4.810081205781218117e-01
-2.119370723378467478e-02 1.652484192491144796e-02 4.412363001276178864e-01
-4.103015214990946707e-03 3.808659080977037925e-02 5.261530069429354306e-01
2.118670982562774474e-02 3.425901100453985354e-02 5.190388177484250853e-01
8.216653175695460762e-03 7.337376407171541937e-02 4.946831065065737665e-01
-1.635056766856658218e-03 5.708755477643497056e-02 5.146547065242306207e-01
1.634383750766836563e-02 5.018174801053353756e-02 4.658580829488405683e-01
-1.890711402692598492e-02 5.796016627914125918e-02 4.596180840030320014e-01
-1.479034262716110749e-03 3.403724522213105036e-02 4.515896872477196400e-01
2.017297897226670925e-02 3.134020065855157300e-02 5.229226517908966976e-01
-3.097564928984393104e-02 3.331784884042597594e-02 4.466492108578522524e-01
7.220085865918103932e-03 4.718676627060892220e-02 4.598804415677027468e-01
1.280151746161990560e-02 2.886100429254905356e-02 4.538236396471347911e-01
9.909967016212765933e-03 1.350746124500446302e-02 4.462995810326070845e-01
2.563331506524906683e-02 4.772971604645781518e-02 4.724285608307211559e-01
7.070144532946579657e-03 4.932268649080823880e-02 4.605889389023229974e-01
7.681139186260252903e-03 2.836512546036910540e-02 4.518844791229936764e-01
1.807255993379156336e-02 4.414422217812775939e-02 5.150402561805695889e-01
-3.643434635864988697e-02 3.509995309253383100e-02 4.472420395485350308e-01
-2.503552712832991887e-03 8.383397387209385113e-03 4.412432568936354160e-01
3.970527107054756116e-02 2.999955553730338648e-02 4.844827996499884715e-01
-1.762402294095755280e-03 6.533452224765119720e-02 4.651104165572287341e-01
2.518550284114595000e-02 4.248106809411199281e-02 5.094150380933958333e-01
1.661499165205115522e-02 6.965832865643403760e-02 4.857672121645316698e-01
-1.500079121365174503e-02 2.147432938203768654e-02 4.436746350581936560e-01
-5.580916164192855494e-04 6.443250165173146360e-02 5.065085098006184561e-01
-1.670552971879335491e-02 7.318188492103791520e-03 4.383141006731374745e-01
2.300186688492847700e-02 6.100475306688095400e-02 4.884709003469878130e-01
1.789136654327017073e-02 4.972867741435158667e-02 5.114084855948419772e-01
1.542539115654256894e-02 3.365813865936541360e-02 5.228621543495199919e-01
1.348496311235328551e-02 3.806729744028931189e-02 4.586115699550092906e-01
2.402315977710037936e-02 1.934509824002737799e-02 4.537313082290592714e-01
1.024682636666483272e-02 5.321368913366415071e-02 4.638533908050130883e-01
-2.016628338742556398e-02 2.154425492863467489e-02 4.430078819285968583e-01
-3.824024402762298686e-02 4.150970263499018792e-02 4.520153939129399889e-01
2.003020428912274074e-03 4.769019356173947316e-02 4.578959969538182184e-01
3.372758357195208140e-02 3.235317719433147138e-02 5.031014044786752404e-01
5.255977025409851525e-03 7.334539538312236095e-02 4.745744252625498927e-01
-9.835659554023436571e-03 5.635494347371502316e-02 4.580169725161226113e-01
-7.111651299754044586e-03 4.447558724679625403e-02 4.544676412815262245e-01
-2.223904895909225438e-02 4.691246037846875938e-02 4.535217843448230979e-01
3.401260733459331165e-02 4.265660163987303882e-02 4.823113522167285505e-01
9.790272857920803012e-03 7.421456222131800340e-02 4.785390557060505423e-01
3.210281577246313495e-02 4.234726027272213422e-02 4.978405840675779737e-01
-9.396653346580175620e-03 5.333176683196760165e-02 5.128008604772932300e-01
2.651759675036400796e-02 2.257259632679318312e-02 5.224716711040267025e-01
2.963825548451005237e-02 4.312214721661158240e-02 4.727204926507470040e-01
2.808326937619256072e-02 9.710704312071728392e-03 5.277840117348847615e-01
7.392031742590086940e-03 5.337893491966479165e-02 5.147490283278326473e-01
8.489084177289269242e-03 6.374366058136268776e-02 5.078081685779251009e-01
5.895375910273878417e-04 6.760114399987449119e-02 5.002491585347983438e-01
2.047656895514200076e-02 6.365811201691759513e-02 4.912008210497184613e-01
-1.678098969660471104e-02 1.754179920799344566e-02 4.418562260368135153e-01
7.011535582120394586e-04 7.058082869960778140e-03 4.413274780311727263e-01
-4.362659419060996475e-03 5.191461410770062401e-02 4.574594777844843141e-01
2.498298956189592968e-02 5.830959578321362469e-02 4.820683862859005409e-01
2.438464776002072579e-02 4.901885057044114147e-02 5.050922083549604924e-01
-1.755298232925574589e-02 6.241657236415984293e-03 4.379848955519705656e-01
2.075741679282590985e-02 3.463931634559984374e-02 5.189797960760473838e-01
1.552925422204669281e-02 4.186891723289265510e-02 4.612502850936363030e-01
1.697685703319506273e-02 6.069823773646342013e-02 5.022362145444941861e-01
2.128911998214980464e-02 4.813827766930817847e-02 5.098534953056451657e-01
-2.361856108296730289e-02 2.153621465149659076e-02 4.428242555155166293e-01
2.469687704923771016e-02 3.613257957371823759e-02 5.139591313889071422e-01
3.248836793879191637e-02 2.193638708068213275e-02 5.160325018583894474e-01
-2.916648151513159468e-02 2.312412864974005416e-02 4.433460401879333879e-01
-3.801342024453414209e-03 4.047759162323914806e-02 5.251855238894794775e-01
-1.911449971467123893e-02 3.324894773817836657e-02 4.476373736796640523e-01
1.405500468256178082e-02 4.296483192738043654e-03 4.434361173242959975e-01
1.774366351707716213e-03 3.604330278832643120e-02 5.257677768145131436e-01
3.197363186088141018e-02 4.279280108299179236e-02 4.975202605949624046e-01
2.709609100905491924e-02 2.440099785056549023e-02 4.584420242169259807e-01
-8.245987811357588515e-03 4.365955120996176803e-02 4.539621225649391745e-01
3.485233478228154380e-02 3.831679132199220655e-02 4.773210791613018977e-01
-1.877485755890513294e-02 4.606065818559489100e-02 5.191259790591751244e-01
1.963012947417139623e-02 5.961443809543378464e-02 4.749954212021818001e-01
2.253598895475736850e-04 2.573885772972192912e-02 4.485459306897100484e-01
1.336737798911666851e-02 6.260220815567633934e-02 5.040217689871921980e-01
3.871505154613369415e-02 3.223379888136995025e-02 4.828886651379996620e-01
1.287017560672580260e-02 3.152047858729995627e-02 4.551204994768252021e-01
6.188708402724983799e-03 7.802773764774828535e-02 4.830502110639970370e-01
-1.281849365827354877e-02 6.058521425415583361e-02 4.611803162044634807e-01
3.627718395000255336e-02 3.514518525985752678e-02 4.953168918013666211e-01
7.292662677088806999e-03 7.633739784840611053e-02 4.836885111973773799e-01
3.441671571226763426e-02 2.413072287423279755e-02 5.085412138234469692e-01
3.212194440181882077e-02 4.278124486682376160e-02 4.970615609052383976e-01
3.085391978846186573e-02 4.612795005953027050e-02 4.788525922537217316e-01
8.369930267793035394e-03 7.624441158670752783e-02 4.805312073688454699e-01
3.566876243654478612e-02 3.916643982341223851e-02 4.834313734961740439e-01
3.238150870264811139e-03 1.320071309989878650e-02 4.442868522354422312e-01
-1.011638528297036446e-02 5.195248608814917457e-02 5.143022010738592664e-01
-1.519445425232926125e-02 4.929069471025047250e-02 5.221805617899910601e-01
2.372672718738345898e-02 5.852020434774462404e-02 4.915537473087313591e-01
1.964256200955618453e-02 3.768899695193990429e-02 4.611703468622839197e-01
3.536577816137143060e-02 2.345092048133377849e-02 5.075230050679115923e-01
-1.662489394770759335e-03 6.054229276608522753e-02 5.103001592661292607e-01
1.709019516376031333e-04 4.608059120963186456e-02 5.226727285106259613e-01
-5.656647385181080498e-03 1.515349276234959769e-02 4.430875081082711331e-01
-9.804825194931055324e-03 4.245045564573345781e-02 5.251303529681256022e-01
-5.977199750371108662e-04 6.287168318683349078e-02 5.080451046802568760e-01
2.424747633755104659e-02 3.737009249209857081e-02 5.139679512827787233e-01
2.051277392541340366e-02 5.080372257959689386e-02 4.692854500380104210e-01
1.172523497792641927e-03 2.111532668123873580e-02 4.469717804560330299e-01
-5.446575564379752508e-03 5.154813739420065211e-02 4.570997815687722343e-01
-2.480112237206940316e-03 1.797701135922055021e-02 4.447706032531613674e-01
-2.556056364378281667e-02 1.636586928167537824e-03 4.376578834111600758e-01
-1.828485269308020855e-02 3.081549700213168097e-02 4.467595762863497133e-01
4.105712180233522801e-02 2.556817125011392675e-02 4.791936464421997499e-01
-2.839136772490458496e-02 2.954699153021199745e-02 4.454791090859283043e-01
2.558665245964552790e-02 5.440361372344455076e-02 4.928629801727142379e-01
7.115908361222831810e-03 5.992219018851908940e-02 4.650950284886478103e-01
2.570757222722433455e-02 2.330728646377350569e-02 5.226629417505755937e-01
-2.444144185718827300e-02 5.208830733365177323e-02 4.561491798989010804e-01
-2.486676258346985982e-02 5.775271231961717766e-02 4.620962610490050859e-01
-2.342970473342216239e-02 3.952067400673390379e-03 4.374818848785374525e-01
-2.177301521441002766e-02 2.669534445036098567e-03 4.371841069841217453e-01
3.481067863485420855e-02 2.485006452526006965e-02 4.652493967875969694e-01
3.785183309079005742e-02 3.337269146500484313e-02 4.909876303764591499e-01
-1.407819556384992850e-02 1.411425757530668929e-02 4.410510694329123904e-01
-5.205891374807317812e-03 4.535092239590574059e-02 5.237772734616901182e-01
-1.726878081952960831e-02 4.061220283716929919e-02 4.511222398012435519e-01
2.881027721019675802e-02 3.752316883459500679e-02 5.079562737562988151e-01
-3.684478779748469324e-02 3.554056337212044281e-02 4.474043749078110976e-01
2.640828728670328949e-03 7.809998984479100959e-03 4.419976276009662253e-01
2.025540602496155376e-02 4.881460594368761119e-02 5.102293831117485912e-01
2.702387760561019564e-02 1.835791066858702761e-02 4.551604382204914589e-01
-1.385099296174101616e-03 7.009019230392872502e-02 4.727607700046577155e-01
2.636876241230649495e-02 2.675545744185868838e-02 5.203562830859904675e-01
2.400803109371800817e-02 3.524538208528384120e-02 4.627021843162822945e-01
3.238767467043906362e-02 4.558088724849351098e-02 4.871606649275840306e-01
2.850380102538409635e-02 4.710392196480635979e-02 4.756483485696721969e-01
3.396479115096238954e-02 4.209351764091645576e-02 4.890719676127099902e-01
1.907306466328358152e-02 3.189796712946620094e-02 5.228202634968925899e-01
2.181813600136516332e-02 3.182261817878941079e-02 4.592522860754260083e-01
1.722348899497818959e-03 6.809259778853077316e-03 4.414415976493316629e-01
-1.293247428660664750e-02 4.876728172709252074e-02 4.549264789389245167e-01
2.212559086512370932e-02 6.291634530930630131e-02 4.837634599243126887e-01
9.087948899638509728e-03 7.245302101765895009e-02 4.751931804758467992e-01
4.103222889480605262e-02 2.298391285386141084e-02 4.748532675600827813e-01
-2.195416089590358083e-02 5.883360995017666156e-02 4.634378979671649468e-01
-7.686900398470523053e-03 4.352486692461696172e-02 5.246895540557157123e-01
-3.089255196197075726e-02 1.627952116615841160e-02 4.418718464424656323e-01
-4.338915409455930405e-02 3.270044653899584902e-02 4.471760860961309092e-01
-3.976288035465302961e-02 7.437121297387508812e-04 4.411126715312486679e-01
1.181620895961653372e-02 6.850044463784200899e-02 4.732019525845421737e-01
3.903052285140474337e-03 6.120115912325706231e-02 5.105743178718042952e-01
3.344024099734595190e-02 4.157188906221884195e-02 4.785772943019740988e-01
4.332099535001372043e-03 4.431181780070175824e-02 5.220259358364776059e-01
9.616106316765692802e-03 2.900887885132643826e-03 4.418875834252430357e-01
9.235990166588393599e-03 6.703964511236605583e-02 5.035077284210053294e-01
-2.728868539935131593e-02 2.309217812931433148e-02 4.432607721609450602e-01
1.417387267477877161e-02 6.104084193854579510e-02 4.701507712243560566e-01
2.854947051377617825e-02 1.707280608098257768e-02 4.555723512299093558e-01
3.194990466917592420e-02 3.065044299236240749e-02 5.073226831596066022e-01
-3.241546304679659204e-03 5.078600468415231384e-02 4.573687242296042843e-01
2.232432405136627537e-02 6.260803046979415698e-02 4.832088129412624444e-01
2.793074329102130087e-03 7.786657125649190658e-02 4.803828024647875394e-01
2.846676583944058453e-02 3.538450241773117427e-02 4.662768962446535714e-01
7.537907949109693556e-03 4.589710421304694921e-02 4.595332140500929530e-01
-1.169446880399899885e-02 2.192260082124409745e-02 4.444677322121080021e-01
1.084721114902003833e-02 7.146734008304453378e-02 4.969965021565945773e-01
3.064228684743299999e-02 3.226012977422725719e-02 4.660721913799321103e-01
-1.687139277387619124e-02 1.793900597749498518e-02 4.420004961040056579e-01
3.835670217695778123e-02 2.562367867655056947e-02 4.703871926243349266e-01
2.066090550714835480e-02 7.855855290445972958e-03 4.471921664909433991e-01
2.337645635546895320e-02 5.935486145306797384e-02 4.910051727003605371e-01
2.427293000102142759e-03 6.955169951473018364e-02 4.690865179005761498e-01
4.611103513118266703e-03 5.015765925837774308e-02 5.189164977647563459e-01
-8.462777239939777568e-03 5.704390996471427749e-02 4.583717987632828783e-01
-1.056266938232616921e-02 4.667796953599950838e-02 5.242221042327527281e-01
3.732361413150466628e-02 3.457119547190275199e-02 4.914322716437211636e-01
7.194760952406138894e-03 7.606692078547812319e-02 4.792595743423287979e-01
2.001296519887393183e-02 5.670735174550994157e-02 5.026321675167805259e-01
-1.836461971614503433e-02 4.375962695046588247e-02 4.522891060622036830e-01
1.416438298989290342e-02 7.148344518175818452e-02 4.796428296741414576e-01
3.385436984064107979e-02 2.638397231881335625e-02 4.653486712600775066e-01
-4.247567789210030496e-03 3.664611083419808818e-02 5.262310384798017937e-01
-3.722736081255100665e-02 3.347215959874306340e-02 4.466765319486821761e-01
-2.210234655039304205e-04 6.623702804629176544e-02 5.019907994127034145e-01
1.232486792249818004e-02 5.799346506116331151e-02 4.672644191777417522e-01
2.672889126765414999e-02 5.089948704206724572e-02 4.973925142010011125e-01
9.994333904028498972e-03 4.522002121589160234e-02 5.192443454081289156e-01
8.637622597115712092e-03 7.566079932621840032e-02 4.847273147625496548e-01
9.238002346725249572e-03 6.516251080151803932e-02 5.058837013480286249e-01
1.251112242310675055e-02 4.390447741942474225e-02 5.185657939711869613e-01
1.093342080460742854e-02 6.958726756906789823e-02 4.734490822756319273e-01
-1.744343570238823110e-02 4.755585912413779620e-02 4.540064579622162255e-01
5.797166839447530015e-03 2.407082384936140573e-02 4.495030863486594863e-01
2.040720557981263311e-02 5.634208588789473698e-02 5.024471931990006635e-01
2.783249793589631649e-02 2.949079998294466473e-02 4.620207336536670817e-01
6.213171789443049098e-03 5.655076843584311286e-02 4.630466464312638641e-01
2.484234043778679041e-02 3.967098428797845994e-02 5.112920487887038234e-01
3.663849738719690552e-02 2.664414414949248938e-02 4.682820704107281684e-01
1.838319501696910122e-02 5.614853464539762418e-02 4.706320924782807502e-01
1.666403919001840581e-02 2.931944060389284068e-02 5.261346131812617566e-01
1.080158631856490206e-02 4.996211512985283820e-02 5.160756442306889680e-01
-3.024408380984079311e-02 4.250820339183617597e-02 4.507354407379412509e-01
8.237829659798932835e-03 7.356308699859179234e-02 4.941671100826696139e-01
3.587511655427302534e-03 3.294764355154418400e-02 4.527188313650467588e-01
1.540048085393828578e-02 3.529387817093691815e-02 5.218840649484434158e-01
8.413077492624231046e-03 4.084880492684962207e-04 4.408243666895838020e-01
-1.377694261663754000e-02 1.140624193004620424e-02 4.400725957383896936e-01
2.506201688111614131e-02 5.832978407362428286e-02 4.830198357838151324e-01
-1.124727166006806410e-02 2.858401656370260571e-02 4.469018192430905256e-01
2.477088946196748243e-02 4.445630415523903894e-02 5.092162329609971616e-01
2.056616493023946668e-02 3.314979373869553214e-02 4.591921490574789599e-01
-4.276370471274459385e-03 1.604911215815452499e-02 4.436459725466594395e-01
1.154881944825881124e-03 1.618400813867890142e-02 4.449645783082175621e-01
4.111737669677765356e-02 2.634666534790226430e-02 4.839589733914956282e-01
-7.968120862491587242e-03 4.117155818082281898e-02 5.254582006677864792e-01
-1.175574537592835762e-02 4.483990692908931819e-02 5.248846534180661161e-01
-8.843914238870502834e-03 3.741986050037768990e-02 5.261201728815676493e-01
2.900066175735456150e-02 5.103505802738321495e-02 4.866665819458353970e-01
2.557722053918204397e-02 4.659623599776261532e-02 5.062437309181304634e-01
-3.827725973966149275e-02 2.598970679605689532e-02 4.448417319741840292e-01
-1.656426204154054851e-02 5.331257002499450309e-02 4.564376657508493751e-01
3.291620841661643815e-02 4.285155636112932681e-02 4.943865367558301083e-01
3.788495520864036681e-02 2.939381201387191583e-02 4.970893257851859981e-01
6.054311886254134037e-03 5.586643049373699044e-02 5.135152161134592941e-01
2.728142441539435463e-03 7.173460331658119971e-02 4.733356462520555419e-01
1.632246859571604564e-02 5.559437681658427333e-02 4.687420796572361881e-01
1.272219193441131817e-03 4.934956720083326365e-02 4.581184312636494282e-01
2.970752417285235647e-02 1.846000388563942898e-02 4.571825222234187636e-01
-4.148175782443537518e-03 3.101957398309648437e-02 4.496224297829897187e-01
1.898943449218946575e-02 6.148295909818782268e-02 4.758553721228826472e-01
3.898145938862642573e-02 2.691932122164608643e-02 4.974545493476721369e-01
2.080040499181830607e-02 4.960608182379172559e-02 4.687774758315566559e-01
-8.736714736362836617e-03 3.965170137042980242e-02 4.524868891868676357e-01
1.239866074578295160e-02 3.407510628658856622e-02 5.235405174603947609e-01
2.354596185273875181e-02 5.339094480015532662e-02 5.008106243416040604e-01
3.141617434998095898e-02 2.854004380869091043e-02 5.100366972625055562e-01
-3.058522374160683663e-02 3.524805288825733768e-02 4.473998622529302693e-01
5.289476938810339784e-03 -3.279977438798865191e-04 4.398631307604524143e-01
-1.783291959298891408e-02 6.026944529612816154e-02 4.660911560442299595e-01
8.144272638112785845e-03 7.586034620086444524e-02 4.867712098148613276e-01
-1.012365055117708454e-02 6.935249032421401602e-03 4.394422212872456379e-01
2.817070545011859072e-03 3.002717318501196830e-02 4.511061400976817404e-01
-1.872842714623650182e-03 4.713945495857783247e-02 4.565618040326064886e-01
-2.175258572338101618e-02 4.578659206952463701e-02 4.528523816053566797e-01
3.557406785777571939e-02 3.796945887641331452e-02 4.939578271842200996e-01
3.391515139682874103e-02 3.073746036117246810e-02 4.682696443735236413e-01
-1.418151452427437662e-02 -2.497815474001164725e-03 4.368408839225879636e-01
1.427842978603605789e-02 3.687000617291572024e-02 5.212788781120064607e-01
2.254766690331747037e-02 5.699901913152211237e-03 5.318161104379400816e-01
2.269202728623541387e-03 5.119886472272243416e-02 4.591230849136088144e-01
1.656704323507656590e-03 5.864149784373897528e-02 4.615749797112569386e-01
7.648315847090627825e-03 4.874904990011640765e-02 5.184220179660629091e-01
-2.281303850085326240e-02 4.513179472019516331e-02 4.524179061339298480e-01
1.443406259417035105e-02 6.576373415727015947e-02 4.986464933415757916e-01
1.420820695682478360e-02 6.138008286505101246e-02 5.053082856339922158e-01
-2.066231680704819912e-02 3.116233697054544144e-02 4.464844180676346141e-01
-1.790670735990393392e-02 5.176317879896392277e-02 4.557892393149561849e-01
-8.700588757592683450e-03 5.400229962491959190e-02 4.573823735003277324e-01
-1.857577165756571676e-03 6.436905768239890857e-02 4.643534490534363401e-01
-3.720666422559619491e-02 4.252685339554662658e-02 4.525294115196337730e-01
-2.518768940650765661e-02 2.948400004821287446e-02 4.455622853659675919e-01
1.261095741782944021e-02 5.103584856341938925e-02 5.144376570057433984e-01
3.013542870369459795e-02 2.559840257366357771e-02 5.165421039265357672e-01
2.732721605712229093e-02 6.832612368372025652e-03 5.308793286048201221e-01
4.869503690530319409e-03 5.939042757477309281e-02 4.635525126285074959e-01
6.561159254386428157e-03 3.741295924111114057e-02 5.235396321844797418e-01
2.234325039496335916e-02 2.535184664246200453e-02 4.560652462807012197e-01
5.954512762204970493e-03 4.643460585489440906e-02 5.208372152408745626e-01
1.876695291313324604e-02 3.651014099767786736e-02 5.189000404688070001e-01
2.609476761466350200e-02 5.178311665361252925e-02 4.975063688186021071e-01
1.775452515738983744e-02 2.462456869650118951e-02 4.536274734267787268e-01
2.592242554257336712e-02 4.981463193289506486e-02 4.750306955681532495e-01
-7.405757596482437886e-03 3.570111460877602172e-02 4.510258053958791646e-01
1.381204859776326982e-02 1.277617117470663914e-02 4.470299603665692789e-01
-1.362759230584576799e-02 4.144112772987477988e-02 4.521116266092927716e-01
8.298269255121261401e-03 1.525392633146454603e-02 4.465454878345749279e-01
1.609974328151696568e-02 5.421815638281365923e-02 5.105001541483750183e-01
2.894270398268079109e-03 4.031148753517110883e-02 5.234816233196875057e-01
1.728139334189382481e-02 2.819002499923626420e-02 5.264128831219909710e-01
-3.190203274825106211e-02 2.685755155674209027e-02 4.446842825335082239e-01
5.755246209247295158e-03 4.298740621228602787e-02 5.219885007950028077e-01
1.393937253282210263e-02 2.901747589332245164e-02 4.542699616476221225e-01
2.533061697387496702e-02 1.047259156071417806e-02 5.275225813588487744e-01
3.856703800690116507e-02 2.801907954161193121e-02 4.967018935121366718e-01
8.797774414670915186e-03 7.548229767923081424e-02 4.822290190446946734e-01
-1.691341683654070185e-02 9.448906804485634331e-03 4.389051872309533420e-01
1.221651917932353552e-02 2.175845584283588041e-02 4.504206905651533255e-01
1.308514934543507889e-03 3.652947377231853532e-02 4.535791484103728899e-01
-1.746444936954107130e-02 4.816993867911216476e-02 5.226588463883707902e-01
-1.025433909635389829e-02 2.286355575615518082e-02 4.450910140525218273e-01
1.715016743679480260e-02 6.578042369167505510e-02 4.947917547461704868e-01
6.080839502575242916e-03 7.254377881927334681e-02 4.970705022445778276e-01
3.990050728694183313e-02 2.908108886318069852e-02 4.813149301678251724e-01
9.369396046246600621e-03 7.531838634906992680e-02 4.871020545347166109e-01
3.663489808066452275e-02 3.701205132445345436e-02 4.822737841564039285e-01
-1.905386943271158463e-04 5.116050050531943671e-02 5.197909963972179304e-01
-2.910649666162282156e-02 1.647338842903251291e-02 4.416189827948118762e-01
6.592847659266314921e-03 2.139354356686818531e-02 4.485922419513571624e-01
2.534919590670261028e-02 4.857763697997311697e-02 4.729281296126602863e-01
2.042152822531208278e-02 5.976970321497129812e-02 4.974206456361459638e-01
1.028635766211164274e-02 2.539458011456366751e-02 4.513906614002843876e-01
1.458525249539193748e-02 3.621337162550871541e-02 5.215803452330382006e-01
3.626081261456463173e-02 3.737036827705270819e-02 4.862593941855538615e-01
9.946893048069605642e-03 7.283224716166060431e-02 4.762962182418387092e-01
6.146107268136281020e-03 3.760509520730553196e-02 5.235917860551969616e-01
-4.348191054107670549e-04 6.688674154009127681e-02 4.664902711877823571e-01
-1.430693174672021534e-02 4.669086292622489850e-03 4.378696018609355423e-01
-2.646869884750871829e-02 1.905529692081234933e-02 4.420682644094339753e-01
3.196020077489260952e-02 4.134802983593282438e-02 5.002678444007844227e-01
3.709502048948402908e-02 3.336233966691529162e-02 4.766497464639417037e-01
-5.461609038256655738e-03 5.139380355191051908e-02 5.210987273024846322e-01
-2.855331544964056101e-03 1.201436946040789454e-02 4.423533000439552887e-01
-7.008718403917631699e-03 5.639077944492090766e-02 5.116241929363171126e-01
-7.771185365625635569e-03 5.513848461660621203e-02 5.161186323010099608e-01
-2.783063807802095297e-03 5.037096341936879440e-02 4.573666465746526466e-01
1.260295174537895066e-02 3.204124466575163782e-02 4.552839654841313033e-01
3.119719801840466211e-02 2.080300959013479251e-02 4.597498894470259390e-01
3.080320841186575190e-02 1.640410736857809623e-02 5.227470756542991204e-01
1.192659285762248840e-02 3.930838635740505072e-02 5.211421659540341755e-01
-1.382895231801737831e-03 5.820708124863901295e-02 5.138400461786601925e-01
-4.267450006023353754e-02 3.448392365731068471e-02 4.475569326269107640e-01
2.437844436894522765e-02 5.953482580399614699e-02 4.825070169756802141e-01
2.379839381711046711e-02 5.029835485215438523e-02 5.044714259454646799e-01
-2.041102394233182057e-03 6.648042787900609873e-02 4.659213253045754732e-01
2.021123069790092819e-02 2.190573169142816939e-02 4.530636699918471622e-01
2.320694753044959258e-02 3.653967599353574042e-02 5.151061312560711869e-01
1.159962607780519223e-04 6.474341480885273392e-02 5.071343474469832691e-01
2.481620155240443684e-03 6.928427756429472728e-02 5.010790699576057605e-01
3.936107473366769194e-02 2.201261139211972695e-02 4.693429611388181821e-01
-6.961719031585086870e-03 5.065808723145150821e-02 5.219246323207618055e-01
2.030092301015332459e-02 5.854489382947813264e-02 4.993426650820126378e-01
3.369603707710939339e-02 3.320159141021568339e-02 5.025882851098886217e-01
1.613633130354175799e-02 3.111200301423699272e-02 5.250404417277498847e-01
-8.605276277649958824e-03 5.669033590969253800e-02 4.582339006704280182e-01
1.683299743298675641e-02 6.920073965954663675e-02 4.822343065264296791e-01
2.954965198124622980e-02 2.163313183179249588e-02 5.199704129416363729e-01
2.072073980684881883e-02 1.884657510918985590e-02 4.515986253012826968e-01
2.642548357750414828e-02 5.443526728218932298e-02 4.901148468991049501e-01
-2.150365202703887965e-02 4.538237415437379463e-02 4.526210477325481873e-01
-2.659495694112055594e-03 6.127956688315239209e-02 4.615154908628821828e-01
1.914928651896880343e-02 3.859633335148413003e-02 5.173002980867039691e-01
-7.259149135471289031e-03 4.741175913663065594e-02 5.234546522515562961e-01
-1.895044460880057277e-02 4.500253144370075509e-02 5.244969349940614700e-01
2.120120504876223805e-02 3.534149974803173222e-02 4.608128896335270119e-01
-2.415584806648496743e-02 1.354292665058332013e-02 4.402361459845203773e-01
-3.343864784724630279e-02 2.874499331898745444e-03 4.392711996598530622e-01
2.937520664452596478e-02 5.010241925539592883e-02 4.844412113950782306e-01
-1.755261616219553830e-03 3.761208781645232480e-02 5.259304499581956005e-01
-9.012626396529959186e-03 5.529115309048805889e-03 4.392346264089286856e-01
-9.817734132568131655e-03 1.609478411535809200e-02 4.427200511134593008e-01
4.411827780951574351e-03 6.455626746433384966e-02 5.083963807791039846e-01
-1.501420227558723265e-02 2.881293902383820493e-02 4.463150319962276846e-01
3.502446120945722219e-02 4.058503349013236478e-02 4.836236980283437625e-01
-3.326084192121285879e-03 6.301057117036518163e-02 4.628833107013110015e-01
1.401557298323428784e-04 6.415519034308769797e-02 5.077681308583559261e-01
-1.695785025899734094e-02 5.664247471469346928e-02 4.580968557485617931e-01
1.798959922288802249e-02 4.275343310230687172e-02 5.156593952478218945e-01
9.075938401291583704e-03 3.979983460488824981e-02 5.218273215917894614e-01
-2.417988390967989142e-03 6.322024172428265809e-02 5.040562158645862656e-01
5.189322688272114334e-03 4.214562633193799646e-02 5.223533141449512307e-01
3.491501870914796163e-02 3.638850013593425414e-02 4.747301629538293599e-01
1.248664705214487178e-02 5.079330644627942648e-02 5.146388727949635644e-01
-2.488711495613167481e-03 6.210306007895791819e-02 5.054638429646203246e-01
-1.396325958729758773e-02 2.061450836054061486e-02 4.435637189345131293e-01
3.480767303036987927e-03 5.768478947195109646e-02 4.621657664461942816e-01
7.872081062519457884e-03 5.985513454153412044e-02 5.106556797298461570e-01
3.444474627663172278e-02 4.198363835753127216e-02 4.833077498520854665e-01
2.291523406737223587e-02 2.662752667112505342e-02 4.571333312128438853e-01
1.781245433147769092e-02 3.323831147574938388e-02 4.579315902273666250e-01
3.199300444883171335e-02 3.940706162334382812e-02 4.722752694368894666e-01
-1.727463179679418481e-02 3.717106797034358534e-02 4.496341555951383628e-01
-3.577866164493165996e-02 4.044332901285105364e-02 4.504562764933197627e-01
3.815106759611517490e-02 3.336638486997192676e-02 4.847290917697132384e-01
-4.291022735057740175e-04 6.834354590965938114e-02 4.980825354002245686e-01
-1.517607789486439054e-02 5.097515101032232265e-02 4.556357691448422176e-01
6.647648640171544172e-03 3.423649165392121663e-02 4.543982908967783563e-01
1.158453739869033314e-02 3.699595328113976234e-02 4.573356399355325008e-01
1.664750379354392948e-02 3.142413371172213948e-02 5.244497959212105487e-01
-3.980157793578228964e-02 -9.751492679741149278e-04 4.405490007845118128e-01
-2.469381016206024029e-02 5.128298238529028358e-02 4.557225306533960740e-01
2.714082494313478644e-02 5.145358390050958075e-02 4.954483614914296230e-01
-2.619770801007851105e-02 1.523262974462834089e-02 4.409533762207236696e-01
2.882677430514972352e-03 6.252502475485730016e-02 4.640711602188805629e-01
3.265902266431217060e-02 4.436987387232384922e-02 4.901900057190929361e-01
-1.923700048029600151e-02 1.713458294516816485e-03 4.371782698191005734e-01
2.338305175834143670e-02 5.351285780240283563e-02 5.009556651974867991e-01
2.405940516949725549e-02 1.433663120924680984e-02 4.512760360301239504e-01
-1.265038126270557652e-02 1.567572864308972632e-03 4.374057699441707414e-01
-3.231645594729211368e-02 2.660878520653287699e-02 4.446133594169504599e-01
7.354474157177646500e-03 5.922277112643656999e-02 4.649099404195806695e-01
1.565717408687708825e-02 5.919807719907577148e-02 5.065219427950521380e-01
2.637671692873207185e-02 3.385136880787723013e-02 5.132170584430094662e-01
