2.990534644743187559e-02 3.985895598243640453e-02 5.050511079190501684e-01
-2.088578948493666557e-02 2.993527971691956058e-02 4.461654205662680117e-01
-2.325573109885503698e-02 1.884313986975587676e-02 4.421486728809224109e-01
2.028085580910614708e-02 6.497386396033427713e-02 4.886891097032179387e-01
4.915732341408556721e-03 3.344412673755024074e-02 4.536833027048256528e-01
-2.310265761514023949e-02 5.817037077822087565e-02 4.615982977612884119e-01
-4.266115189409250968e-02 3.583118717886119020e-02 4.485163895561236624e-01
2.163245382253795035e-02 3.217335853403040929e-02 5.216011510226379322e-01
6.620444175024700964e-03 5.923361055263429847e-02 4.649041825875818712e-01
-1.781945029808353759e-04 5.638313198163164702e-02 5.154873190670702376e-01
-2.001941194902812429e-02 7.566398871893123892e-04 4.370931621548840851e-01
2.674000744519105383e-02 2.066818856592806883e-02 5.235954694057226577e-01
8.990488688365032982e-03 5.683226999391254725e-02 4.651383462254361500e-01
-2.307667646628613553e-02 5.620397494032510627e-02 4.592076485510306338e-01
3.782768737070515280e-02 2.056919729174329706e-02 4.658729599687282397e-01
8.790703455871790375e-03 7.310855023633702765e-02 4.952066893645263312e-01
-2.447551177368455927e-02 3.959120043747429291e-03 4.377584736021340461e-01
-8.075166983621213934e-03 3.817015397834912921e-02 4.523241665940466727e-01
2.884887468159322288e-02 5.098731676499339283e-02 4.909271022976105514e-01
3.712933476642991254e-02 3.515525301404179986e-02 4.896734991603752807e-01
-1.521111527698256957e-03 6.589470960423673973e-02 4.659532879905996516e-01
-2.454249060748397646e-02 3.868901512011560517e-02 4.494862048040043634e-01
1.099995895214421829e-02 6.890305918796406359e-02 5.000966627793581587e-01
1.126329990350433130e-02 6.396632578030743421e-02 5.055589087529225312e-01
-2.242858243357936932e-02 2.154506113986439861e-02 4.430415462909235713e-01
3.881123883633718491e-02 2.414450045147398943e-02 4.704206188113445042e-01
1.831341807882809133e-02 3.892674045455740001e-02 5.180818384259395781e-01
3.274545058972085088e-02 4.168930656052120126e-02 4.969301771102764831e-01
2.706104066474663075e-02 3.666279194268617925e-02 4.662532051105943154e-01
6.814337873983257465e-03 7.899297335764282266e-03 4.431730241639663115e-01
1.383943574833471947e-02 4.480749945605021906e-02 5.176800501726077641e-01
-2.719071427643801218e-04 6.589739372661868044e-02 5.042523916415611041e-01
1.606985536288673549e-02 7.012862687787581317e-02 4.861016081419469725e-01
-1.039000448107752807e-02 1.246123754185233731e-02 4.413897184901905968e-01
-2.997329037516892336e-03 5.947289011488762073e-02 5.129617036919004169e-01
-2.835131503336613991e-03 6.266508881222573879e-02 4.630652511380755620e-01
2.994220651332919064e-02 2.203852642268237100e-02 5.193478940818115897e-01
1.696790424503601818e-02 3.872964239336598724e-02 4.605982613040101592e-01
-3.720742040553942122e-03 3.692091296533393970e-05 4.382363983222170578e-01
-2.297933904472407654e-02 1.884465230396049212e-02 4.421595461624106549e-01
-6.520767412244731637e-03 1.637661907959245960e-02 4.435742356169017908e-01
-1.044898918401895860e-02 -6.894101557456963972e-03 4.365277041759211274e-01
2.611193053403316339e-02 5.194177904690680352e-03 5.321148342924607588e-01
2.139145023021625860e-02 2.459156082202699004e-02 5.254605380492879396e-01
-1.827140862061353219e-02 5.996259672798186224e-02 4.640309171634721119e-01
2.352526255175627079e-02 2.799511532162088367e-02 4.585113090136075376e-01
3.945750701161541626e-03 7.151780742573675409e-02 4.729940739951868367e-01
2.141127367704633716e-02 4.531982990697386304e-02 4.671001503754617645e-01
1.138889354015463345e-02 6.155566295266359095e-02 4.687354309793499429e-01
-7.412828641477031862e-03 5.680047180497509174e-02 5.147233292816960626e-01
2.510773581489293346e-03 6.806801427906362945e-02 4.683995656119668838e-01
8.007654640563726528e-03 5.887413906030339317e-02 4.655200873500828784e-01
2.675290954072698929e-02 3.627509359212723050e-02 5.114428303077962479e-01
3.227061649651200709e-02 4.215392220882639013e-02 4.765830765104889788e-01
-2.930614487912822433e-02 4.736053395431583102e-02 4.545213527054760005e-01
2.511882972102541869e-02 4.030334307617636919e-02 5.105648847625772202e-01
2.663736834396179809e-02 2.465955625980746288e-02 4.585345058990987765e-01
9.839937975055008945e-03 4.218693584355462378e-02 4.592973089585488666e-01
1.759633611752456361e-02 6.863791409994275672e-02 4.843846343564451318e-01
1.201844936626001240e-02 6.479914387468034553e-02 4.711852369668413365e-01
-2.191421624198895690e-02 2.149931901676106066e-02 4.430499652501125318e-01
3.055391158683742198e-02 2.726700224314596369e-02 5.130009377969737550e-01
2.863999726789567130e-02 3.900167406847087487e-02 5.076314433626321065e-01
1.677755590288041929e-02 6.414497183482426035e-02 4.754328616217334269e-01
1.228558118615939027e-02 3.343704180541405557e-02 5.247994388021719470e-01
1.586074146514341449e-02 1.985399037569020655e-02 4.509209889575745422e-01
1.478213875307159142e-02 5.962175535328173570e-02 4.702525054533227000e-01
2.324694164506612912e-02 4.802375351861670749e-02 4.702863363313463663e-01
7.260122882095365864e-05 6.691160704770300616e-02 4.669481090309443028e-01
2.056106436611624191e-02 2.497488593383758934e-02 4.551487935332141355e-01
2.549853765179893768e-03 6.879172374832713543e-02 5.032100909076737683e-01
6.455784851112561507e-03 7.758883394550153412e-02 4.832282101510398942e-01
-1.370216511920193791e-03 9.689736919557684347e-03 4.420029769666595776e-01
2.228331712063883266e-02 5.908905064542019359e-02 4.949509068563995862e-01
5.166580160589942863e-03 4.173342656432935810e-02 4.574392921871725526e-01
2.872328848294947515e-02 7.801287180237201531e-03 5.298182176424589551e-01
-1.515563840304432787e-02 5.674738966920273020e-02 4.583909096179286102e-01
-4.123166596042699555e-02 1.629046875608610020e-03 4.416547600609074253e-01
2.072164372047256755e-03 6.231940339914761318e-02 5.108114802537149224e-01
4.217810673161406787e-02 2.347058568186507349e-02 4.833431442324254701e-01
1.757760423033272179e-02 5.432964019394650318e-02 5.097413047379693030e-01
-9.337697953927302438e-03 6.206492430459745191e-02 4.623360528727509799e-01
2.362552369687044573e-02 1.514813721586843499e-02 4.515973756175471476e-01
-1.371497793311052954e-02 4.206307466892771768e-02 4.526648066686169147e-01
2.686468501373404441e-02 5.419952415727269379e-02 4.890220926486689712e-01
-4.141773256202942871e-02 3.607680126883973382e-02 4.484254105106715294e-01
3.450115279194364976e-02 1.972108187995237974e-02 4.619692945946140550e-01
1.464709013498262033e-02 6.919833131733846288e-02 4.942192091510806407e-01
4.034978551578298489e-02 2.787405520309153145e-02 4.819927422874343281e-01
-1.785360163865819944e-02 4.883993713141161763e-02 5.224859911702560700e-01
3.872224341030829076e-02 2.966860650603088401e-02 4.933495504145720134e-01
3.893044044263312131e-02 2.840482138748133892e-02 4.758194766495343342e-01
3.544540706943775238e-02 3.896341882621960628e-02 4.867083379242495567e-01
1.632125026851452901e-02 3.949499705168674213e-02 5.192041328152460222e-01
-3.551761095149637282e-02 2.632725033631758485e-02 4.447936418743689835e-01
-9.856227101013257177e-03 5.378946586538739527e-02 5.186358686830059295e-01
4.967168203710481747e-03 5.137943007945358631e-02 5.178706697059702879e-01
3.858086010824578194e-02 2.719770389061434979e-02 4.981217328409216494e-01
9.674438171998854877e-03 4.942473417044276895e-02 5.174654953689890036e-01
-2.350967608401148892e-02 4.915884129269970648e-02 4.551056310195824017e-01
-1.993563224486137944e-02 5.685240406704003546e-02 4.589498071276069679e-01
3.377979414129771846e-02 4.305527848853984985e-02 4.846400514478293453e-01
-2.356049719639823070e-02 5.037996783453274618e-02 4.555959410387445119e-01
6.127963573131820808e-03 6.023402047307283014e-02 4.650870114751208817e-01
4.130809372839512605e-02 2.556068565742893733e-02 4.825172020750885249e-01
2.220643864289990194e-02 6.127641841862833949e-02 4.908486661021806974e-01
-9.133366039949201032e-06 6.595218241117083158e-02 5.052206836252267630e-01
1.213783223282868806e-02 6.725329487943709772e-02 5.004928831681380030e-01
3.392282989248655845e-02 3.305999214823479582e-02 4.700236848964958747e-01
1.199326557350497043e-02 5.731267417430893629e-02 4.671718325341607247e-01
1.329848464223843882e-02 7.169041307579469835e-02 4.924769130356704272e-01
-4.242320303425349895e-04 6.585162605486370724e-02 5.037605847911217349e-01
2.994404305027262292e-02 4.984466193424935687e-02 4.885347055703662678e-01
1.194037371119183698e-02 4.538069932439327270e-02 5.184618518199973769e-01
2.637495153548542401e-02 2.513076920863497807e-02 5.215358039578606997e-01
-1.895505206651212568e-02 5.512538927428507068e-02 4.578658996787701163e-01
1.792379782494196022e-02 2.274644814264970352e-02 4.528285434562437928e-01
-1.590456382128508511e-02 1.727747897460747695e-02 4.420684278707471271e-01
-1.530892281733032580e-02 5.739550760265213492e-02 4.586775416438887976e-01
-5.076756952214322126e-03 4.630453155838483437e-02 4.558170268950371140e-01
-2.501522774103227126e-02 9.190518474733570115e-03 4.390940378804033539e-01
7.260504528359178547e-04 9.165986180723579430e-03 4.422262540307198009e-01
-2.386527411169373294e-02 3.125217626553239425e-04 4.372383637851226523e-01
6.786120236719002559e-04 4.695422650855770458e-02 5.228615192407664036e-01
6.138694953136377211e-03 4.955102849201684090e-02 5.193920354483552160e-01
-7.411007255524231820e-03 1.086882818250016654e-02 4.414081649162329146e-01
2.447109139593060811e-02 1.111265441314965643e-02 5.271849590662655016e-01
3.095745571886128825e-02 4.791655385105775961e-02 4.898446005641786116e-01
-2.708099097807287192e-02 -7.123608116543179644e-04 4.377526730273484934e-01
2.512359450351521473e-02 5.160356837446548189e-02 5.004896856977646413e-01
-2.930227422044798941e-03 3.907161743510393498e-02 5.262894420631296644e-01
4.739171693505964816e-03 4.105751538939961254e-02 5.232553949201532717e-01
-7.124061292045569260e-03 4.893257060956909127e-02 4.563429485380741668e-01
1.241614899361527351e-02 3.901966314676064834e-02 4.589278475350188069e-01
7.335662774868844174e-03 5.834088232246695260e-02 5.121028548517037038e-01
-1.895335779168581813e-03 3.538120714130014999e-02 5.270774823290685918e-01
-3.242600340199948417e-02 8.742639521549583001e-04 4.389294954983001262e-01
2.802579270764465197e-02 1.020439985124230002e-02 5.274393022766863393e-01
1.528424025745411460e-02 2.360669126796510406e-02 4.523836101566108270e-01
-4.282845271723198163e-04 3.445530368929080461e-04 4.388602446814855451e-01
2.657910306793365499e-02 3.431013679007631489e-02 4.643228509896659695e-01
8.256328824141219089e-03 3.456987323565758469e-02 4.553453247797890624e-01
-9.297572250506825828e-03 -4.801030466055448975e-03 4.367863115817184894e-01
2.564912497380575016e-02 8.486054836408563756e-03 5.298485011860233351e-01
-1.079609178145328127e-02 6.150247683844699970e-02 4.622748646877276602e-01
1.792015775178316169e-03 5.072909283444294870e-02 5.203978836688273324e-01
1.407964156440301082e-02 1.965296935174005652e-02 4.502929464614718325e-01
-4.366502838446301507e-03 1.985036528642156878e-02 4.452504437398125958e-01
3.894780088493934173e-02 2.654492427256419096e-02 4.734891999825447950e-01
3.769866405215904770e-02 3.148570142182368498e-02 4.949366511689200498e-01
3.320187061651571486e-02 4.118334091741743946e-02 4.775753574208473351e-01
5.279438018458035460e-03 5.690995960473050480e-02 5.137017308674829419e-01
4.122874222972504506e-03 3.598241174624999122e-02 5.258367125611608239e-01
-1.322226361097642196e-02 1.993489116449799134e-02 4.436336133474429455e-01
-7.768181346068219091e-03 5.239509381888528966e-02 4.573702186071280651e-01
1.362661223513448976e-02 3.787212003563002888e-02 5.214496784169758703e-01
1.819597453322596356e-02 4.793620527316211355e-02 5.124904258054169270e-01
-5.200925279645336741e-03 5.039268073251991498e-02 4.571293904585454482e-01
2.332803805964310528e-02 2.598252536199919735e-02 4.572618472517767096e-01
1.123014548032335615e-02 5.139418814773765581e-02 4.639155528653086669e-01
-1.300392624900569352e-02 4.180020740908059473e-02 5.265707833357874401e-01
-2.004471239710471381e-03 6.014046586353000851e-02 4.612289064734779731e-01
3.798251032043852699e-02 2.476197799836044391e-02 4.690506865301666828e-01
-3.607732992558665419e-02 3.872801602081670652e-02 4.493371371000461356e-01
1.044061681221310559e-02 6.090223755789432591e-02 5.096285968790975618e-01
2.315649766757024372e-02 1.648509158637134417e-02 4.519588568925560490e-01
9.611041779133994156e-03 7.270076915341779078e-02 4.762071221583266678e-01
-9.561167688127364742e-03 2.916370773479093001e-02 4.477819630285787555e-01
-8.066672727492013237e-03 1.180783674849952532e-03 4.381137273651203312e-01
3.460764672256140539e-02 3.865775765152446031e-02 4.961289420559797381e-01
-1.170364656313702817e-02 5.033940081272197942e-02 5.147075064225464791e-01
-2.671380082614373958e-02 4.969805157617774444e-02 4.554261666827217336e-01
7.831986434459418944e-03 5.158217418694427403e-02 5.164728951701275106e-01
2.519542500001243149e-02 1.035971134575508663e-02 5.278312289617109743e-01
7.838702917541488444e-03 6.646045541859124661e-02 4.693371695046253955e-01
9.303012398000319594e-03 7.138076195600313867e-02 4.741730535898824872e-01
3.647384775942585922e-02 2.924684880815416402e-02 4.700894151217390737e-01
2.015612148649367774e-02 4.460035166939782525e-02 4.658501768982817315e-01
1.808811118162470880e-02 5.034142616635960826e-02 5.113202727952934623e-01
-1.026349046071980964e-02 4.130582365028850900e-02 5.266272747787286157e-01
2.305827167777543124e-02 2.494202240056728193e-02 5.240145182735473917e-01
-5.889025715632398815e-03 1.965372229392398258e-03 4.385976796122647015e-01
1.762847164270258185e-02 6.307038526339249496e-02 4.978868476479193506e-01
-1.615208339297586476e-02 2.999677090618695779e-02 4.469360191781525105e-01
-5.016487167951335160e-03 5.482996386113219919e-03 4.399334632462352235e-01
-2.645833278702228869e-02 1.239079572863271451e-02 4.405173853720855126e-01
3.241351782130656722e-02 4.035455061537013277e-02 5.007132907389101328e-01
-2.467438239555656485e-02 2.459095033686887685e-02 4.439987348639021225e-01
2.335326461347165400e-02 5.778160000065899610e-02 4.944203415094227116e-01
2.762297230848657567e-02 5.049758369025936222e-02 4.959795031937208054e-01
-2.544664920202765676e-02 8.372481246449601372e-03 4.389255928730280143e-01
9.877218487671198671e-03 6.619159440850164167e-02 4.703889620342225908e-01
-1.801970517797486099e-02 5.727439761038990995e-02 4.589902462756951240e-01
-8.896642619829074963e-03 5.828599930546751740e-02 4.591454642008935827e-01
2.767168402416111950e-02 1.993653638327465977e-02 5.232982630188205420e-01
2.772931706769917945e-02 2.869598613846017360e-02 5.177217960509428174e-01
-3.841781668386223814e-02 3.907306344827754518e-02 4.502892815649809366e-01
-1.326683865372174469e-02 5.063179496427718668e-02 5.227827311659632992e-01
-1.218070496065197517e-02 -2.285570729593344296e-03 4.370010290214565996e-01
-7.370383836209564582e-03 2.258311774873372410e-02 4.457562528007513736e-01
2.610684109381305323e-02 1.231306882259382458e-02 4.518429280309062546e-01
1.385005062671301572e-02 7.249817926253783462e-02 4.865295264591086299e-01
9.488589617402919119e-03 6.871010894492710075e-02 5.016127942456740652e-01
-6.166613428183797055e-03 2.361040317802339666e-02 4.463723013300715525e-01
1.217901600712826410e-02 5.915779232643773172e-02 4.680306053364913788e-01
8.182637571998515810e-03 7.769115738775700386e-03 4.434795867841169748e-01
6.003789536361994576e-03 3.680973223451684817e-02 5.245461057181458608e-01
1.625100870878270348e-02 6.909729064952578603e-02 4.806825878382279815e-01
1.650023616435481941e-02 5.803693052192602370e-02 4.706804607591115186e-01
2.206672446030302423e-02 5.451041810066726417e-02 4.744008048078297013e-01
-1.348686950004094817e-02 4.329720559452144429e-02 5.262237380109112683e-01
3.871146352027594884e-02 2.769634347370623917e-02 4.965105203708591319e-01
-9.144197275157436508e-03 5.441847254064562101e-02 5.174627537733675897e-01
-1.069162423768801537e-04 6.319313810652329999e-02 5.092389243824272382e-01
-8.922528537625153480e-03 -2.980873736904185011e-03 4.370287219148759617e-01
8.082695767884728877e-03 5.789283108538125638e-02 5.120884463350744431e-01
1.751320732050043461e-02 4.928377668071283468e-02 5.122699959957571769e-01
3.517205756821803475e-02 4.007007724295197360e-02 4.818680271351761801e-01
3.003246274435899046e-02 3.250715983860152924e-02 5.091209449933467024e-01
-3.038384090809635729e-03 3.243413820827149158e-02 4.507662942212888324e-01
-1.302391147004326906e-02 8.836259719842498930e-04 4.373906117281483041e-01
1.474249009955525339e-02 5.133974681636165743e-02 4.658549784774810854e-01
-1.285889597677124761e-02 5.596567769361485145e-02 4.579999664130073311e-01
3.429951808492455456e-02 2.637183910085679969e-02 5.071592141083913763e-01
-2.374644221214295553e-04 7.012188004539950115e-02 4.716302868555444228e-01
2.865180229997315794e-02 2.189977819774006906e-02 5.211672593440379586e-01
8.084326222863529032e-03 6.139297624326777586e-02 4.667398275795910378e-01
2.387523723964303859e-02 2.606032971714857677e-02 5.233309031684264534e-01
1.922827093198409276e-02 3.351832412459001403e-02 5.220900234043492905e-01
7.812433198890540026e-03 6.048693531158542275e-02 5.107176155502949344e-01
7.585309638666092383e-03 4.450462899678818418e-02 5.215166630975842654e-01
-1.668512159619144064e-02 -1.186449841274739986e-03 4.369735963779363686e-01
-9.044886795942574248e-03 5.129678459288455721e-03 4.392091625850186865e-01
-2.099419790346365375e-02 2.692314743965042861e-02 4.450899228436149824e-01
3.125531710917438255e-02 1.855436838626949719e-02 4.587016988985109234e-01
2.632796384873793173e-03 7.138201093237336869e-02 4.988846820485221545e-01
1.826617607767121870e-02 3.054336741386462842e-02 5.251213589087307954e-01
2.655152185799131495e-02 3.098223350566399123e-02 4.622537421004574987e-01
1.291966647458470119e-02 6.032180400369344109e-02 5.089433206824608424e-01
1.180777687374689328e-02 6.016740066419879601e-02 5.096532513042842938e-01
1.055394136241410638e-02 2.656832731594538019e-02 4.522507731214044369e-01
2.633165362981942578e-02 2.925495288762842289e-02 4.610040974604482367e-01
1.184525405205580535e-03 6.022748908271156887e-02 4.622842939701459763e-01
1.919913399274545199e-02 5.761241302817525500e-02 5.031520799077535688e-01
3.154389521464245200e-02 3.383411787889357286e-02 4.682135629153791334e-01
-2.039233931700583542e-03 5.505898420250590619e-02 5.174624655025974462e-01
-3.193718426850178371e-04 3.769670032874870846e-02 4.538562157138961162e-01
1.323716874556960139e-02 7.045228283595994512e-02 4.768962382809602274e-01
1.882708991854306624e-02 3.432902800574769847e-02 5.217361686647734587e-01
2.332991009538079585e-02 2.055076363010450297e-02 4.541965076942866553e-01
-1.009047164719982514e-02 5.331301074344788060e-02 5.174762924740888836e-01
-1.811541797446517693e-02 3.248129536489469376e-03 4.375083631000782902e-01
2.769389597342304318e-02 4.097525208457244994e-02 5.078289936562709883e-01
2.852290980852208169e-02 2.731703564267224174e-02 5.176203950077034044e-01
3.339104016662677171e-02 2.790909146156042922e-02 4.661691067050132142e-01
2.148209987613937041e-02 6.355804666983687345e-02 4.877718219851566728e-01
6.163762880964966055e-04 2.407177570522025731e-02 4.481958543850747545e-01
1.041553506764996556e-02 4.592560065782064910e-02 5.190314703041182254e-01
6.888920337484746512e-03 4.689975515692768049e-02 5.205452955178144769e-01
2.735991410200727669e-02 4.946022496282665576e-02 4.983443843425773290e-01
1.585645481216653441e-02 3.494010518552249922e-02 4.582714142873647867e-01
2.640508537324021132e-02 5.156945880964489831e-02 4.779203827401783955e-01
8.964923020980324758e-03 5.070654459204396169e-02 5.168077604113044954e-01
-7.828612025882406011e-03 3.846839943400799655e-02 4.524985542575331587e-01
-5.204961923397587696e-03 5.300282709043360047e-02 5.206273087373010089e-01
-6.627293347385958136e-04 6.504660234406707542e-02 5.061434470447435663e-01
-1.145979069475024439e-02 4.530602674857970441e-02 5.254988189640262819e-01
-1.892782390950875637e-02 5.247341421295861202e-02 4.563365760951432204e-01
1.192529961969416435e-02 3.085199155628490231e-02 5.269712826528455407e-01
3.878979669337799877e-03 2.075916220350344787e-02 4.477519317169218471e-01
2.107796471221111932e-03 6.165406684018636535e-02 5.112031308016861120e-01
2.704124595005603926e-02 3.440532513607218873e-02 5.125684350813805024e-01
3.642001340855225561e-02 3.692627688950191750e-02 4.805778037688475668e-01
2.702185709173493197e-02 5.266553770781667865e-02 4.799135291092878619e-01
-2.956491618891733675e-02 3.939969915579474152e-02 4.494654198867873984e-01
-7.962718724448775848e-03 6.107227085912694808e-02 4.612136579908988065e-01
6.261251146382731253e-03 2.220146813171453709e-02 4.490555972067925006e-01
-1.126758438531109963e-02 -2.292987713920387888e-03 4.370323883140600496e-01
-2.301800930939508494e-02 3.925345989160238663e-02 4.498785726955735198e-01
3.152508588314247018e-02 3.678299970494232352e-02 4.702615650204860498e-01
1.148696008025158755e-02 3.440766522865869315e-02 5.241715346805970732e-01
-3.340953280153378946e-02 3.711434581922583298e-02 4.483275714931131972e-01
1.186691490238651892e-02 4.714977926097325273e-02 5.173867855841125518e-01
-5.489239716658001964e-03 5.766401166749594159e-02 5.120025248064509205e-01
3.437649990428574137e-02 2.511759500149310376e-02 5.079939302382467936e-01
1.157334429584938248e-02 6.763974783548366843e-02 5.008056532035685127e-01
-2.376858466164668421e-02 1.416457723444119327e-02 4.405226659951221313e-01
-1.782880294918694555e-02 5.481133793636850521e-02 4.576649264165551512e-01
1.795222190245690519e-02 2.506007705688751905e-02 4.541420472376174189e-01
-2.126061322687896812e-02 2.467667628180798822e-02 4.442445197567752579e-01
-4.986435506991234584e-04 6.659197493005643287e-02 5.011066740659460006e-01
8.348840980370650713e-03 2.605598877714420183e-02 4.512774713921862135e-01
1.611966643777318700e-02 3.170522660112545799e-02 4.567309460910249919e-01
-9.104262887676078594e-03 6.078634862858429966e-02 4.610597553809729354e-01
1.635911014508008646e-02 5.175717429028533351e-02 5.118499868704667888e-01
-3.638528202672046408e-02 2.452109416723955923e-02 4.444569166031882568e-01
-7.041594584234337102e-03 4.969921722800135777e-02 5.233112886890051163e-01
-2.963346449394381812e-02 4.181905286299643365e-02 4.505742002183059092e-01
2.105059561989763156e-02 6.347126249841862633e-02 4.896280629298391807e-01
2.412557982646060077e-03 -7.306226152829211826e-04 4.391609957287621047e-01
3.554119229398912394e-02 2.837034190355747915e-02 4.686060492005078015e-01
-2.888953935191317102e-02 3.507973817964725460e-02 4.476500541323864546e-01
3.467291027814547316e-02 4.041664059223599309e-02 4.900035629021494143e-01
5.336618719852259836e-03 7.714963660889398445e-02 4.795483893631149463e-01
2.829210875475566059e-02 4.690809599739392127e-02 5.012416702309399064e-01
1.671112543233340200e-02 4.938163093142734078e-02 4.660002772261341297e-01
3.709283615934726858e-02 2.470774462187673784e-02 5.037180037180638559e-01
1.035677494441587798e-02 5.305478683023672967e-03 4.430335954636508422e-01
2.823876556312394925e-02 4.835244448844973342e-02 4.771586631408690216e-01
1.112296369470826794e-03 7.383639412465316243e-02 4.803473932687887249e-01
3.027847026989616622e-02 3.187492449010712742e-02 5.092645392823927919e-01
1.085447264363657328e-02 1.228761876667504652e-02 4.461810590460543735e-01
-4.128093189932384270e-03 6.667570615750841034e-02 4.660324534508961669e-01
3.756797595450985655e-02 3.029174643285729648e-02 4.970458639215857843e-01
1.053174847275556610e-02 7.523824459183484775e-04 4.415269283856325666e-01
-1.402322797652137687e-02 5.714947527595139187e-02 4.585431011810762181e-01
-3.969614053702684442e-03 3.773708012606885598e-02 4.529334497549727390e-01
9.424434629991716109e-04 7.353629563985572548e-02 4.804869736334741459e-01
2.418084856166334909e-02 5.283875128459304335e-03 5.322077789021854022e-01
1.205748673912983987e-02 5.125258892536524447e-02 4.643004218036416719e-01
2.449893160842121775e-02 2.517584663389214883e-02 5.231675236749557811e-01
3.193478921418795718e-02 4.208352480532234069e-02 4.758014519040671408e-01
-1.162703408806171901e-02 -1.480611108693127582e-03 4.371228305366967049e-01
-1.291752830547336292e-02 1.012826835681104702e-02 4.399312905275522545e-01
-3.948906765820242581e-02 2.715082040795575857e-02 4.454582760693429622e-01
-2.096187767249988593e-03 4.198609617883158548e-03 4.399153637013595852e-01
1.680550596224947291e-04 1.440851061534989888e-02 4.441672583025789711e-01
1.962550647899799147e-02 5.251759162806605291e-02 5.088971779627801117e-01
-1.239134914586232164e-02 4.239032614143364158e-02 4.530403141053269134e-01
-1.786813659536940629e-02 8.767561866606893989e-03 4.388066709208554572e-01
-1.905440384689970415e-02 5.975085753147162115e-02 4.641974641489786113e-01
6.305087392178802472e-03 5.577145945182823000e-02 5.140540625499331329e-01
2.834306992730968588e-02 5.167261108405994674e-02 4.841588314896412837e-01
1.626672782349983595e-02 2.959932597060687884e-02 5.264343127537431943e-01
1.249400877160486770e-02 6.642114914882481236e-02 5.009891824155490170e-01
1.400405417680340193e-02 4.087344405910740136e-02 4.604570071213557325e-01
-2.611839746475145066e-04 2.418188760917354060e-02 4.480152874945446673e-01
-2.455781356470225496e-03 1.412625522962218660e-02 4.433985196734435141e-01
8.684235965448719452e-03 5.835688426927896494e-02 5.116286167257605433e-01
2.216323461118110960e-02 1.839370724849577476e-02 4.523176937319786095e-01
7.355595879288798385e-04 6.760626170664034429e-02 5.014795559725042651e-01
3.583337824174884917e-02 2.587454001695800934e-02 5.049490451260398860e-01
1.349265075569750991e-02 4.282033187423189141e-02 5.188095874300143739e-01
2.642626932431720727e-02 2.985395523293072131e-02 5.185569716447624433e-01
5.549731909176586035e-03 6.349304316836107409e-02 4.665320318852075876e-01
2.874273698864026130e-02 3.795026662713665844e-02 4.684570959958468395e-01
7.414336895728380894e-03 5.187151371147166734e-02 5.164194441871725605e-01
1.540645122648849966e-02 6.301280051511634617e-02 4.727252011769140783e-01
2.192028955151260547e-02 2.065669044873324339e-02 4.533907250800157107e-01
-3.090618365987440712e-03 5.407273056634415848e-02 5.188838020726003197e-01
2.060360013959808799e-03 3.387527423485682532e-02 4.529125188674709701e-01
1.414903654105249473e-02 6.555802444890476699e-02 4.734180592765546147e-01
2.429892022008373412e-02 2.268563900185519011e-02 5.243180438265443444e-01
1.844462022551941749e-02 5.800267246609259325e-02 4.724508144845938618e-01
3.337276342486054925e-02 3.387243005195702400e-02 4.700033658930646285e-01
-1.126231909067798923e-02 3.097299025349046359e-02 4.482322128508149373e-01
1.609083852901993170e-02 5.627522283797079666e-02 5.098686305222541737e-01
1.422813165454488160e-02 4.409393017589002123e-02 5.178256191725688629e-01
3.495365132326446606e-02 4.000585883908014395e-02 4.868017802712461539e-01
-1.153630308277849188e-02 1.743994545086375789e-03 4.376157452461655328e-01
3.136564987289568868e-02 2.801270999449256838e-02 5.106821150349575289e-01
-2.363345030345971598e-02 5.122669454100831077e-02 4.559384278972207216e-01
3.660161745592081795e-02 3.694700984142235134e-02 4.813060267120179980e-01
5.977588903031886940e-03 7.299241973648904272e-03 4.427221010727374617e-01
2.684970472839314989e-02 2.956274984468885980e-02 5.182494633866132627e-01
1.013098436457173651e-02 2.165638098680766621e-02 4.499202029861373298e-01
4.043122770532228683e-02 2.752497412422493309e-02 4.865307162859239809e-01
6.113352982930492924e-03 3.981965616511241868e-02 4.569930487536563724e-01
2.999805614516181523e-02 2.578374553728064386e-02 5.167854918623902005e-01
-2.305159695080844992e-02 1.608872999084746958e-02 4.411929470643761730e-01
2.463725968794753390e-02 4.530269629042405627e-02 5.093096728303315723e-01
1.407854743175995620e-02 2.376912071180216357e-02 4.520733212444923432e-01
-2.263272846428882046e-02 3.535001972906664375e-02 4.482327720515237313e-01
1.586826852678645261e-02 1.809996518532266604e-02 4.501294429549327902e-01
-1.196101701178452388e-02 4.318454639242208515e-02 4.533893201579481391e-01
2.194099327181970888e-03 7.725888218522938833e-02 4.816977430331837451e-01
1.523703604399091228e-02 6.508123229769050000e-02 4.986294878298130895e-01
-1.702458574845467677e-03 3.263049416707496098e-02 4.511828091972885368e-01
9.373020428095679701e-03 4.115709835257660293e-02 5.218345059477893511e-01
2.641337453792238013e-02 3.134988724024029977e-03 5.330536111552471867e-01
-3.758540391529205382e-02 1.899965480448845626e-03 4.403019932498639100e-01
-6.424753262257443254e-03 4.459664238377664819e-02 4.549686273235603595e-01
2.484017165712736411e-02 3.462486740832535631e-02 4.632092862688136914e-01
1.759377228303405857e-02 5.666738603922014811e-02 4.707134431459736312e-01
4.578282055404590128e-03 5.486224384164266332e-02 5.152895553423259001e-01
1.431636463320782107e-02 2.411535481081557644e-02 4.522958062640340393e-01
3.738632255262079596e-02 3.327933906009861165e-02 4.936208653222305953e-01
1.433956550711894956e-02 5.508629756205746242e-02 4.675966452474143997e-01
3.416151493739371520e-02 4.151381066539915760e-02 4.898770427805702043e-01
-1.190529451264780991e-02 1.597277675366160984e-02 4.423765363333865830e-01
1.192987830213528000e-02 4.953618277278343252e-02 4.633455379518016115e-01
5.870463322020053228e-03 5.368471133346654905e-02 4.620201650025489437e-01
4.201739226077148143e-02 2.303393807089022458e-02 4.799226934185195637e-01
1.982129285034435820e-02 1.874294914436009513e-02 4.514107668992820011e-01
2.660841731012399472e-02 4.707926890947140147e-02 5.041035424031123924e-01
-3.919310249752062242e-02 3.618287103851889480e-02 4.480527374862851020e-01
3.372751844126242217e-04 6.405853350799642354e-02 4.649002389676950009e-01
2.281357269525840364e-02 3.497866682848813774e-02 5.161615643927164321e-01
1.156890080435924763e-02 5.303742631191592921e-02 5.140652810245451843e-01
4.057280494917884367e-04 6.759731543555701216e-02 5.006350151559330053e-01
3.928568904580737042e-02 2.160123478399972319e-02 4.690843232331454171e-01
7.460286151267168930e-03 7.350224092079031546e-02 4.944453219463955107e-01
-2.253598096973819312e-02 3.264133027006192733e-02 4.471121038547013482e-01
3.413357751075427049e-02 2.638178684637921753e-02 4.658790151449632710e-01
2.611983828808777525e-02 2.776480227013491606e-02 5.202070796686868448e-01
1.546173750868848340e-02 1.042342988272408622e-02 4.466373033195062403e-01
-2.806955060772254457e-02 1.277409534946239919e-02 4.408600838746731254e-01
5.998848017141309406e-03 7.312012517001974243e-02 4.946481535702554888e-01
-2.235432767848909846e-02 2.274237641395798412e-02 4.434723334764170688e-01
9.519198180523606029e-03 6.292196221093701580e-02 4.683375888272519605e-01
1.045294980534704557e-02 6.517354345018351591e-02 5.052386303765571407e-01
3.281743880731894519e-02 3.540082227409087345e-02 5.029730135610417374e-01
1.007227983486981039e-02 7.384183041126567149e-02 4.784305088297716169e-01
2.213696943966039429e-02 4.912381422127809483e-02 4.700663074988706835e-01
-7.338471819893297408e-03 5.395930870982334343e-02 4.578574078663069091e-01
1.884840311348840239e-02 4.569835445060008855e-02 5.137275523903310770e-01
-1.428606029831977833e-02 -4.633898521110774334e-03 4.367950613125090586e-01
2.191823133373708640e-02 3.633573569856209107e-02 4.621515413669925465e-01
2.906231806872642057e-02 2.280973869069240212e-02 5.199259415723275213e-01
2.738852717406877954e-02 4.828834100844831695e-02 5.007770704668826900e-01
4.739186641697132329e-03 5.698328207391228223e-02 5.138524647486238939e-01
3.855154291708682429e-02 2.684614873882165340e-02 4.727246683084403434e-01
4.137755837638520950e-02 2.517108858544163386e-02 4.855937324075869643e-01
2.135776337264107608e-02 5.559176273622171149e-02 4.744435747067130005e-01
-1.207115508555597384e-02 -6.687200673565127200e-03 4.366060244023379222e-01
2.693079291033439321e-02 5.362535073076896142e-02 4.806553899541795571e-01
2.646087545502965460e-02 5.592221185637245157e-02 4.874898737745390065e-01
1.782293806723132118e-02 6.857885635872196239e-03 4.458502801726340059e-01
1.866537210658091028e-02 5.934440408193411565e-02 5.016834964080826298e-01
5.817850294970199586e-03 3.252531772591639447e-02 5.271700693436917051e-01
-3.672026605171371458e-03 6.211303414611539508e-02 4.623992195304434394e-01
2.374468956789781149e-02 5.873808873405339526e-02 4.805549162091637960e-01
-3.391429321797480301e-02 3.759768026251966017e-02 4.485210021686217297e-01
1.580640971518189157e-03 2.571670339530946273e-02 4.491337115339445463e-01
3.223705166449587767e-02 3.603316568233969758e-02 5.035953965482227179e-01
-1.083639908177356538e-02 -1.071091179948098233e-03 4.372057233923390962e-01
3.063604426322956778e-02 4.100329829146323601e-02 4.724017073923080234e-01
2.363877495982581387e-02 6.070529712124385358e-02 4.835477034350997849e-01
-1.826035428700924224e-02 2.497312138538009419e-03 4.374025369143104136e-01
-2.637187185208515229e-03 6.931239543956069227e-02 4.709004126109967436e-01
-1.159044898861285797e-02 5.190540317732428299e-02 5.213942722461085699e-01
-1.375496822327823901e-02 -4.193520417567624635e-03 4.367929770154498903e-01
8.424701127907042314e-03 7.408000583973359254e-02 4.920597077977262312e-01
-1.436689260751010389e-02 3.935918783586999509e-02 4.514267912294097629e-01
3.721865608268110082e-02 2.874216169179377375e-02 4.994930724566594704e-01
2.280787616644290930e-02 5.850794242887524810e-02 4.946409705939115997e-01
5.071301648585208391e-03 5.572255701330550842e-02 5.145246561472752722e-01
-1.949392793744142427e-02 3.083131057579359749e-02 4.467820169101711092e-01
-1.461741333402599013e-02 4.951294300542793958e-02 5.196201166458120912e-01
5.204022139610927841e-03 4.371011304934706992e-03 4.414175167373297626e-01
-2.499065422633307831e-02 1.701816969580594377e-02 4.415201366892572143e-01
-7.085494971139141666e-03 5.466151646175863854e-02 4.580912057938434923e-01
1.147082503162581354e-02 7.063085306221617010e-02 4.973748106463601881e-01
2.065518227872330248e-02 4.966313242852621324e-02 5.098405671642461945e-01
-4.961302777192411889e-03 5.835364778360609822e-02 4.597622273385278402e-01
2.847310115274713505e-02 3.602976361492486040e-02 4.669863223581934286e-01
-1.318210676066992534e-02 5.414755020014070525e-02 4.573084572463749220e-01
1.715400425817625168e-02 4.601357312544897271e-02 4.646227774577064151e-01
-2.219052504658405346e-03 6.443595292254504503e-02 5.026960207425005267e-01
-1.100963746648088958e-02 4.329027478075557489e-02 5.258506171288889197e-01
8.949808002217011366e-03 4.680949941806271386e-02 4.607068550214373226e-01
-1.584230788999022033e-02 4.980046308279534317e-02 5.222897210259955791e-01
-1.356873180858952574e-02 4.742632730186197715e-02 5.250533409950083330e-01
2.842508238094579656e-02 3.473927487120027913e-02 4.661097922181129394e-01
1.122843686144274489e-02 1.230794821286834533e-02 4.462896459798855742e-01
1.147807496438310419e-02 2.206989824051257612e-02 4.505264943236785835e-01
-1.808825122774355282e-02 5.305603292860253291e-03 4.377801260769384473e-01
2.487425187898929108e-02 2.604578855515474189e-02 4.582393672504254112e-01
1.914842048377338179e-02 5.009388863881650278e-02 5.106924125067991982e-01
8.798476163647548157e-03 1.478051725156317130e-02 4.466683034395057539e-01
7.342991043919920753e-03 7.325956515198865648e-02 4.959277705271381564e-01
2.865586772389530981e-02 4.320490129453084110e-02 5.045815812006687606e-01
1.498097587822611911e-02 4.226423850736475696e-02 4.615122236106736775e-01
3.000607511960007995e-03 7.246956684957114869e-02 4.939357625710103505e-01
3.641807962885690308e-02 3.664651081345955685e-02 4.905480736110334750e-01
2.344557898747445107e-03 3.952407774853844424e-02 4.555770801407066362e-01
-2.321459502497600844e-02 5.836247210678296299e-02 4.630917738821593854e-01
2.727531711204367326e-02 3.114686422860389603e-02 5.149115790598545184e-01
2.299934196671230696e-02 4.509993454643325406e-02 4.682423319078832247e-01
3.213647692007497170e-02 1.359224759470416613e-02 5.234827539281210473e-01
1.907300611889783254e-02 2.723175355394149080e-02 4.556687733545177199e-01
3.683736149033377955e-02 3.583004867395897519e-02 4.890151379706769719e-01
-8.968793808847405798e-04 2.623051043089960621e-02 4.486817946252529832e-01
1.335098965004368789e-02 2.071744729887331493e-02 4.505201248662655256e-01
-2.848140534729706134e-03 5.862788415666235486e-02 4.603863406735323460e-01
1.163250674395386285e-02 4.219228676310780857e-02 4.600490798382309565e-01
2.105392711485873369e-02 3.067125218414260002e-02 4.583966577436645040e-01
3.377472238041780150e-02 3.881849284084570167e-02 4.988402566457445508e-01
1.547578462178021176e-02 1.068450738533965882e-02 4.467504947527888293e-01
4.392051563604808771e-03 6.933768794810708791e-02 4.700593516376505021e-01
-9.970617145782713353e-03 3.782047358545290172e-02 4.517536391192785716e-01
1.967975604558998629e-02 1.884219182859545733e-02 4.513909091993041911e-01
-6.794265470324602901e-03 3.752563023506891998e-02 5.266988128281511194e-01
2.214005323366559710e-02 5.179720207993176312e-02 4.720458720903552563e-01
2.584202476025527009e-03 5.343787596350236396e-02 5.171504865814265939e-01
1.312007228295009736e-02 5.116757986779016387e-02 4.648446204560849893e-01
3.622623643878924299e-02 3.731636335155523454e-02 4.864203890535110930e-01
3.091265549544366248e-02 4.408253903114527777e-02 4.988991987418814333e-01
1.499575506422634250e-02 7.152724659428681686e-02 4.842960801476018373e-01
1.212201050753710469e-03 2.656312181605821957e-02 4.493625938592707980e-01
