-3.455764574060500582e-02 3.830253506769769334e-02 4.490858478771146411e-01
1.382065822458468374e-02 5.483844949922019041e-02 5.124443003353491566e-01
1.689459495096174921e-02 6.563123556153507843e-02 4.773582693751760031e-01
6.809245737048169253e-03 7.443871855058954712e-02 4.779490985804427106e-01
2.434880298300405241e-02 5.880708265715069855e-02 4.891798881752003614e-01
3.483264902448854339e-02 2.801766422861155445e-02 5.049642994904812721e-01
1.575498240223890262e-02 7.335568493702373030e-03 4.455509111182521242e-01
6.499214472669655705e-03 4.831322752139245724e-02 4.606701470509304008e-01
2.956003420012520352e-02 4.008856320788290600e-02 4.708587165384871542e-01
2.027155031764399373e-02 2.340252603717649788e-02 4.544411541293654211e-01
-2.053341373797442845e-02 2.566266020429107397e-02 4.448554487609179819e-01
1.603166757855653893e-02 4.494275388611513461e-02 5.166431225117756876e-01
3.582561157632228876e-02 2.898790101877890199e-02 4.695133349443387227e-01
-3.575421632725108573e-02 4.368460758230040264e-02 4.535300173219775077e-01
-3.695183842565146620e-02 4.277144153923144454e-02 4.531762066520612642e-01
2.510599921771607037e-03 3.637827456074634730e-02 5.268688980350628714e-01
-8.005588317386395925e-04 3.628152005142278730e-02 5.274235272688119203e-01
2.799079192066220717e-02 5.186753123695261175e-02 4.917276111681260220e-01
1.713268186352275013e-02 3.133123792278089820e-02 5.252111035695314900e-01
-1.467121890398907086e-02 5.235329806808039499e-02 4.568198425881832003e-01
-2.497554032946064026e-02 5.785645111303851923e-02 4.634992703356370369e-01
6.708405122367930642e-03 2.922640279897141535e-02 4.524387055022652260e-01
-2.464604784698842116e-02 3.614147570132624117e-03 4.378295209464268534e-01
-1.267103344037683044e-02 4.258001263637863076e-02 4.533423209982709312e-01
-2.235728247960898016e-02 4.090276614626721374e-02 4.509553043494609614e-01
2.320577889451689094e-02 5.795020551600236353e-02 4.793652643976338279e-01
-2.069968498283618341e-02 4.796108023889912586e-02 5.236883946501843523e-01
2.089041792909971870e-02 3.237942279235910686e-02 4.594694397589191848e-01
2.955375416105883793e-03 4.284393138111199095e-02 5.238562075995716327e-01
3.401771980463418055e-02 3.975216004953013166e-02 4.962059886460521985e-01
1.581044580335526362e-02 6.782553068189521583e-02 4.777964747146920543e-01
2.761882295720567704e-02 3.666195854869198911e-02 4.669378044608867850e-01
4.511023005337701924e-03 5.859515561157283697e-02 4.637733147625574537e-01
4.112172470899784493e-02 2.360015951619817004e-02 4.768338069132867507e-01
4.957033536028016690e-03 7.460277015637081788e-02 4.772810930363570181e-01
9.613580671517941989e-03 5.961621557751804051e-02 4.670829213424317894e-01
3.581925608736129946e-02 2.411743292526732571e-02 5.065559170319785531e-01
-1.152085070586121758e-02 4.214885590249981689e-02 5.272124737854895216e-01
1.574516835283496993e-02 3.683372360150258262e-02 4.594182740270473242e-01
1.698485017243750103e-02 8.346044181358119873e-03 4.463525173348501518e-01
4.053294111842577555e-03 6.806297161236020410e-02 5.054325857348078710e-01
1.656555188950064239e-03 2.187911707405600092e-02 4.477906854592202390e-01
3.711380164511678126e-02 3.056071085347399421e-02 4.985869728676141088e-01
2.157305077370901339e-04 4.833190910133926266e-02 4.581431828847739585e-01
-3.053798955695335299e-02 4.670793001424540514e-02 4.545388683594643320e-01
-9.770352031248772176e-03 2.813347192299493066e-02 4.475186447911774779e-01
1.542943743594347647e-02 1.274147348498793145e-02 4.477406168689557764e-01
3.009160861427459879e-02 4.325944668158158979e-02 5.024437812604615194e-01
3.753466127387464213e-02 2.867092628173142227e-02 4.990969926211877294e-01
3.085108397438127148e-02 3.070457498390634365e-02 5.095207019308835017e-01
-2.344464104119406769e-03 3.612177089803587926e-02 5.274771672222733354e-01
2.984016677087677517e-03 6.626789063360211118e-02 5.083957185957820313e-01
-3.674011592783685276e-02 3.458730879946329134e-02 4.475096653057041851e-01
-1.565346240089177804e-02 3.038018542068258304e-02 4.473974948357092862e-01
2.266006161019699927e-02 5.805251117886681134e-02 4.957388233041763459e-01
1.976163541551679420e-02 6.045807003452437212e-02 4.984256452993000019e-01
1.157559633481383687e-02 2.895464220497400917e-02 4.539142507629623791e-01
1.387843064296779769e-02 6.304306451871102834e-02 5.034872813430264493e-01
3.198812697826844409e-02 4.186639585986968309e-02 4.993932733422081216e-01
7.427313244415420686e-03 3.491683793271116443e-02 4.554800343189386314e-01
1.308133281186267885e-02 2.802608487650149610e-02 4.539696229317016218e-01
2.216771011622867618e-02 5.857597422107729823e-02 4.960438428412060619e-01
-4.546932076524541101e-03 6.679141124301209154e-02 4.663890437437793746e-01
2.477084713934871174e-02 3.197276010917005085e-02 5.184330231422382695e-01
2.630298296476131850e-02 5.577378375674012234e-02 4.844069641621689404e-01
3.290679132108244309e-02 3.445644172747396733e-02 5.034248925253349549e-01
5.050448022178035366e-03 7.493027335035051806e-02 4.893751432925395606e-01
2.907652103383445708e-02 4.951059720269716108e-02 4.804686609344227533e-01
-2.583847403802352199e-02 1.124898785712925842e-02 4.400837022795854869e-01
1.675799800109726775e-02 6.491515710304403275e-02 4.764994716865325608e-01
4.158358552582218370e-02 2.390275784493181566e-02 4.795593720394192849e-01
-1.929287803572473856e-02 2.634155653624805846e-02 4.451859030471775891e-01
-2.607709092383725391e-02 3.793774260745842730e-02 4.492934163931716629e-01
-2.247867289807614632e-02 2.933141319431491895e-02 4.460220187857527607e-01
2.249236638760181151e-02 3.831927958689894387e-02 4.640822494264822962e-01
1.872997245401053848e-02 2.138849668479841579e-02 4.524481047150356039e-01
-1.409997801353920707e-02 6.988361940128431926e-03 4.388445008843995243e-01
1.131574647758020261e-02 3.925544996116903107e-02 4.588749569592220356e-01
1.593375350199919584e-03 5.300440159318354355e-02 4.601910808472459702e-01
2.941853863537126357e-02 5.049368476941955286e-02 4.881153569582676877e-01
-3.310275476709390735e-02 3.507731589379127490e-02 4.477645249711013076e-01
3.174397744720835329e-02 4.416077368896635658e-02 4.962098052672312964e-01
3.625326165453324201e-02 3.390612206680045787e-02 4.971344750592376904e-01
1.514751345328423093e-02 6.652987718217789892e-02 4.972224874350117951e-01
2.839847486784688804e-02 4.265881937063207424e-02 4.716009585850813313e-01
7.734498755886001602e-05 3.896785606042128119e-02 5.262040774373409890e-01
-1.475727496109387714e-02 5.040000722492138374e-02 5.211285820345276099e-01
-2.636946435563335134e-02 1.929064980313089858e-02 4.424116473556935492e-01
-9.251122216222693040e-03 3.640551179554393779e-02 4.514813236469417124e-01
9.963385422477008188e-03 6.235283891157695352e-02 4.686337138009490921e-01
3.094866738602212661e-02 4.388207740447048338e-02 4.992818828711365065e-01
1.218766311076642517e-02 2.516362302638872755e-02 4.523098514583862584e-01
-3.569938097753477552e-03 4.120134776996788734e-02 4.546383548486035986e-01
1.950978712934973644e-02 5.412797496836194155e-02 5.074041964823116091e-01
3.496845838719437466e-02 3.850979471118703285e-02 4.952239966376119074e-01
1.747612159558455114e-02 6.772281392012148571e-02 4.815180214643227652e-01
-2.795939529532032175e-02 5.015763233934220772e-02 4.561207333801265418e-01
-6.770739531327633377e-03 4.094143695750588480e-02 5.270121128962232948e-01
-1.196302580248520195e-02 4.936065723887776702e-02 5.250701447767897045e-01
-1.353474101770965089e-02 2.654583683582231041e-02 4.461754488636857086e-01
3.064395398178516167e-02 4.375330617991370075e-02 5.005170985888098834e-01
2.837775078089244465e-02 4.590672903780075587e-02 5.028675535201053703e-01
-2.159271949704302460e-02 4.933385612168784962e-02 4.553349040138751636e-01
2.065801946604996914e-02 3.121183131571890479e-02 4.586762620477127794e-01
-1.346280417581021890e-02 3.669074774156590169e-02 4.507254412980055691e-01
-5.430355175457364340e-03 1.301888407512941451e-02 4.425885608252710934e-01
1.228896928192795696e-02 1.072610400310964641e-02 4.459980524258636558e-01
3.067496876965267183e-02 4.552908014378057033e-02 4.969995009938622532e-01
6.288069513804703942e-03 2.226730253861553335e-02 4.492815450798898769e-01
1.546336460836316307e-04 3.123934949994049658e-03 4.400665121170193594e-01
4.024582218040980569e-02 2.726427320357138750e-02 4.894126713454658439e-01
-3.245678322478145333e-02 2.806693355143474733e-02 4.453871508770090859e-01
3.929641075504212988e-02 3.068520701026259193e-02 4.844419795579893440e-01
6.056128575518970186e-03 5.501259217393836970e-02 4.630121788702288299e-01
-1.009665475117838863e-02 5.593270008695518797e-02 4.585099376682394978e-01
-2.495251850880868955e-02 8.282018760298673343e-03 4.389154029437288274e-01
-2.492533605720959403e-02 2.816854845895836248e-02 4.455847098118470018e-01
2.564312768267059534e-02 5.259426402727210292e-02 4.780560666128740865e-01
-3.683847236177283102e-02 -2.132696175688327499e-04 4.399569749047287925e-01
8.745855645469461162e-03 6.869029666728250494e-02 4.718684975750585542e-01
2.600460459836284946e-02 3.429592905098730743e-02 5.138193662272673157e-01
6.717627363850571520e-03 7.741777970041886781e-02 4.829326497902848292e-01
2.102537111190300526e-02 5.257503601982341929e-02 5.068620759307470580e-01
4.004592166386528734e-02 2.819791539338827382e-02 4.805561139661496117e-01
-5.240849284067855725e-03 5.831239926992175249e-02 5.134554926377743467e-01
3.213907128007466307e-02 2.262538071641368928e-02 5.163526609035147263e-01
2.801475607008070690e-02 3.502715031013770713e-02 4.661978628329975782e-01
9.501666612737554030e-03 2.718193855326039160e-02 4.523947330335000849e-01
-1.733937168134816117e-02 4.934360932076985867e-02 5.226636230218367762e-01
-5.127489457090684578e-03 6.332522309304443320e-02 4.635085227288808785e-01
3.514309185540423486e-02 2.786984991104847140e-02 4.681039791854157417e-01
-9.067866227595615045e-03 2.051920050424554248e-02 4.448163687705777858e-01
9.347029807274318328e-03 6.809508001375939867e-02 4.717887034896169896e-01
6.578571455625895591e-03 -8.166637514484629407e-04 4.402166219523247492e-01
-1.470453769626905820e-02 4.289780858063876878e-02 4.530860447175490968e-01
-1.331927578125071017e-02 -3.873309628782057364e-04 4.372815261530667574e-01
-3.242009968022629193e-03 3.504532018274848088e-02 4.521698398364250027e-01
-3.044883777300320601e-02 -1.728685618032016827e-04 4.384794370020969057e-01
-1.309609985769188967e-02 5.076235072118771841e-02 5.243177892808567053e-01
-1.248217090622669688e-02 4.184660015333240002e-02 4.530600307100466351e-01
-2.917446475532631950e-02 2.310318222387939061e-02 4.436773989963953002e-01
6.701753240965177896e-03 2.273830509898920257e-02 4.496034403160370507e-01
-1.018102185283986834e-02 4.045234004999758576e-02 4.530338965777955806e-01
-2.000375608531395830e-02 4.497456651863236676e-02 5.253375481495385912e-01
1.628140326982072854e-03 3.996748231171456597e-03 4.406717483632296428e-01
2.697775248017060187e-02 2.720098682587305389e-02 5.198078873728539939e-01
9.225479159254972028e-03 5.410247171641112407e-02 4.643703215456456701e-01
-2.314407264613733278e-02 4.564681519269809390e-02 4.532922439979062412e-01
-1.833270916492996463e-02 4.682420510745893827e-02 4.541914614511715631e-01
1.973109052463121668e-02 2.769153214116052905e-02 4.563688292584197059e-01
3.331197641025384487e-02 4.405341229316689367e-02 4.846814693461801160e-01
-6.144436674574797579e-03 3.709934991682197619e-02 4.525042697792269197e-01
2.083087228069643859e-02 4.669115274868246984e-02 5.116868361233730678e-01
7.227150095158287393e-03 7.391722549862049518e-02 4.920881512347905495e-01
2.288446231918665058e-02 2.571906982277907122e-02 5.241796835796731502e-01
3.068998351233698241e-02 2.527660530021898569e-02 5.164457620953061268e-01
-1.247979222627341664e-02 5.045030609333742838e-02 5.172372457781738708e-01
-1.926042073726313281e-02 5.970297667876469511e-02 4.643919884226740402e-01
1.191075998103794352e-02 7.031410870716378603e-02 4.755059284705479561e-01
-1.508500970226590160e-02 9.189969789904233258e-03 4.392913446229035346e-01
-1.779742932020483490e-02 1.890132438983279511e-02 4.425277789066594525e-01
2.308196018522362669e-02 3.472641103339812324e-02 4.622260048757158568e-01
-6.465111482715417066e-03 4.267027228756927609e-02 5.261409406840885650e-01
1.387291695663790160e-02 6.128734739341387683e-02 5.068030280896687056e-01
-1.871023249023980387e-02 2.220549973335311268e-03 4.374216322534060786e-01
-3.606788913357582282e-02 2.986530867122859020e-02 4.458909835420721834e-01
-1.268256443976391833e-02 4.062447136766103584e-02 4.525326677585541080e-01
-4.645143145907068560e-03 1.167558545425748280e-02 4.422499118044854738e-01
1.041785197090336346e-02 4.180151758556211600e-02 4.596291468292265647e-01
1.190997041452730373e-02 5.304620978274143805e-02 5.143995780016850095e-01
-1.440367671925537468e-02 3.159848919540796108e-02 4.481578482101056249e-01
3.413174239914719410e-02 4.118312337460609124e-02 4.921414581601757376e-01
-9.671406557909701524e-03 2.873603915039463219e-03 4.384535837652996371e-01
-2.180246275548412827e-02 4.168563143740296878e-02 4.513848751621645783e-01
1.330087539310463411e-02 6.000122665534923100e-02 5.093508913781759073e-01
2.241134032079266855e-02 2.010982921275991826e-03 5.333170191075309319e-01
-1.429882316778095103e-02 1.918175157877598930e-02 4.433059772302556656e-01
7.506700845002614586e-03 1.346914320929452208e-02 4.459015088136083493e-01
5.561027601731680613e-04 4.278986366996932744e-02 4.565861649303402103e-01
-2.313609746532750006e-02 2.748828536548127491e-02 4.454099100786703125e-01
-1.577156691017553639e-02 4.188923349791613855e-03 4.378263336395752381e-01
6.507750895356847337e-03 4.676403226011436459e-02 5.214541278849771366e-01
1.867214420016310647e-02 4.159964329751844603e-02 4.634333480295638741e-01
3.222424260849376942e-02 2.866046653948409531e-02 4.657500403257429644e-01
-2.147052461422870040e-02 5.484887346221242743e-02 4.580349691056361250e-01
2.458936650257320666e-02 5.681911775921019703e-02 4.923060150556977099e-01
3.457965180908931929e-02 3.943811386531888286e-02 4.791979013923307607e-01
3.307586092875676453e-02 3.605935013418677670e-02 5.024951355209791304e-01
1.169792195088787019e-02 6.671406711665031630e-02 5.020966556446281315e-01
3.492247930545173962e-02 2.851541294480947064e-02 5.042005127600484027e-01
2.432998099496160721e-02 3.295226133770434718e-02 5.169854411655614435e-01
-1.841505354600963748e-02 2.428553885879510335e-02 4.445482210147115310e-01
-8.314254004443282636e-03 6.247846278195372249e-02 4.629353032588367500e-01
-5.001282606543481363e-03 7.901469876261507305e-03 4.409232643040106314e-01
1.991463636967530718e-02 5.435547088784468267e-02 4.717940363810160798e-01
-2.544630801113541632e-02 5.572833371210081897e-03 4.382249981116096982e-01
1.189194503889325766e-02 7.406177906622633811e-02 4.829158836713403069e-01
3.438111149071397532e-02 3.883500946575581259e-02 4.967277002907555805e-01
2.037801905780691619e-02 3.596205988135582621e-02 5.182535967296043600e-01
2.477589262182095659e-02 5.833508164419745623e-02 4.821186779655118881e-01
-1.059416180237049768e-02 4.985026756410038118e-02 4.563802489706905163e-01
2.804791066572690991e-03 4.880653612970596578e-02 5.221963815356067684e-01
3.103510289889000254e-02 4.709400739324062085e-02 4.926175300352664266e-01
-1.729870488727717343e-02 5.999010790945605298e-02 4.621281095382867021e-01
2.946377948558569215e-02 5.011267945888886466e-02 4.861405140629529997e-01
2.921962897817633777e-03 7.189170596437922944e-02 4.969822554165305717e-01
8.225126609651713799e-03 1.539233675700372138e-02 4.469125835464710650e-01
1.550068920590163407e-02 5.317838408408552542e-02 4.675873344326215153e-01
3.791675154433194611e-02 3.207373526781875928e-02 4.932680539407284792e-01
3.388065425077741583e-02 3.845250454064012141e-02 4.993467557948005342e-01
-2.323334090560275240e-03 1.854456753710071598e-02 4.453879026872362146e-01
3.624721938977168434e-02 3.196046154942790846e-02 4.993050977214343322e-01
1.903198910286581919e-02 2.084142042614236731e-02 4.522827334527159682e-01
2.196323134848669582e-03 5.316584931318728280e-02 4.605076503620880168e-01
1.858604926702001753e-02 6.336418953638481462e-03 5.315134757022249579e-01
2.500123234135122330e-02 2.259929827825723353e-02 5.240465212517918525e-01
5.273892763776460990e-03 3.550637957328817845e-02 4.550626843164010671e-01
-1.552748251147212030e-03 6.647738521750748419e-02 4.667281043989334188e-01
-4.030584333970517290e-05 6.651860506654139193e-02 5.032136758759639950e-01
2.605734197359431750e-02 2.055268961891387053e-02 5.243747426292042491e-01
2.726635723672235848e-02 3.721868805417910542e-02 4.670290734908390529e-01
-2.704094729309175146e-02 1.547294936578466965e-02 4.413680435192020579e-01
2.341986897578521992e-02 3.303267707587329016e-02 5.186427757900207158e-01
1.895316956904849470e-02 5.223607358599562794e-02 4.694604586071157160e-01
-3.819128816286863903e-02 2.531372759625564670e-02 4.450366911192371600e-01
-7.947980628563462019e-03 1.645698337342117040e-02 4.434991522305522516e-01
-2.436213571222519900e-02 3.090806946996867491e-02 4.465021123395760405e-01
1.442749170179649827e-02 4.647622699670034274e-03 4.439107036716614108e-01
2.483546424976251429e-02 4.669912231628838700e-02 5.080112052540630696e-01
3.919214221059705294e-02 2.392999698579005227e-02 4.998400054064042752e-01
-9.704152739855479576e-03 4.951121521024792055e-02 5.245770068272862519e-01
4.165505273584063639e-02 2.415118344916319590e-02 4.860496946892281511e-01
-3.467095949352651946e-03 6.855973943244783597e-02 4.684531226174403207e-01
-3.238357615143073499e-03 5.852093566715611817e-02 4.605868246973661706e-01
-5.932504964803973595e-03 5.796011372142143708e-02 5.137080438900988311e-01
4.603951036584034637e-03 3.150981686814968707e-02 4.528511194388727401e-01
-2.552641345895841074e-02 1.315012227825104567e-02 4.406223199047165640e-01
3.988707724995561171e-02 2.585529029003132834e-02 4.936799722627084330e-01
3.367360836728910262e-02 4.223282162776081927e-02 4.812660894523061450e-01
-1.420558597937200164e-02 2.675063840548168662e-02 4.461321984644843752e-01
-4.101326288943029502e-02 3.138175988848744546e-02 4.469248106098795414e-01
-2.548345259591129966e-02 2.826824216492219294e-02 4.455959549059255176e-01
1.987009280267749284e-02 4.880126703811663025e-02 4.682056767959003052e-01
1.523293720966839224e-02 2.125105893604117488e-02 4.515148807988719204e-01
2.940589686981937706e-02 2.022783789575426788e-02 4.583237138547788803e-01
-1.208885967628835212e-02 1.152797001072999525e-02 4.407679973063867163e-01
-5.863251285404904450e-03 3.885830422837900644e-02 5.272728194845686112e-01
3.655764413616514885e-03 7.466245028188456256e-02 4.895501409980108076e-01
-9.170166514369269828e-03 5.518385285265657234e-03 4.394067667474389483e-01
3.229916922866009343e-02 3.573811264273883681e-02 4.704810047597220990e-01
2.595608593093183883e-02 2.885530773223691017e-02 5.199311969251628751e-01
-2.871508513754517794e-02 1.440527241964113109e-02 4.413992036487926485e-01
8.549336093118005755e-03 3.876731459215965181e-02 5.233049220117957923e-01
8.555941456058781952e-03 6.462566230141181256e-02 5.078300354423586072e-01
6.998467265131452786e-03 7.622273425442166461e-02 4.877289243070767610e-01
5.963286527961401094e-03 1.748975469484353139e-03 4.408866496857736239e-01
1.688558081384292434e-02 6.718889354539847591e-02 4.787729606797121451e-01
4.149658862707217982e-02 2.499275140843840171e-02 4.843877846442832258e-01
-7.869217069592768579e-03 4.329532813035680272e-02 5.261068329569263957e-01
-1.943096868384639603e-02 5.910353501842661311e-02 4.617532071461817322e-01
1.495535202952107644e-02 6.936831590363227995e-02 4.784366221028955590e-01
2.568784042287034983e-02 2.700431973131452862e-02 5.213085623618824993e-01
1.864083036014080319e-02 3.198182991389807162e-02 5.236840910743266742e-01
3.663200263466680207e-02 3.005120279112729123e-02 4.717427355385328536e-01
-5.998054467425506346e-03 4.388814389827367518e-02 5.256988425467258308e-01
3.403217303789162623e-02 2.874237387625385234e-02 5.057195427052981751e-01
2.140519555472261692e-02 3.446103974125955954e-02 5.193198797234414021e-01
-1.780741967872651738e-02 5.596843719605529982e-02 4.584967111928021088e-01
2.015615993858357706e-03 7.047599882399055438e-02 5.002178452762726657e-01
2.002896089898545742e-02 6.541990586906969163e-02 4.842843386978887277e-01
3.887271392201371856e-02 2.890222113770138379e-02 4.767039685170883501e-01
1.253540447431732499e-02 5.739195590775691275e-02 4.679063531087880312e-01
-1.683230275177481292e-02 1.540436142968641675e-02 4.412587463536783994e-01
2.622232073949828934e-02 5.622109464088765468e-02 4.858139268407417055e-01
3.138513840580206549e-02 3.553882871156348322e-02 5.053927103454273206e-01
3.004116444117905030e-02 4.641887496337810531e-02 4.781037571737742353e-01
1.748955566417073962e-02 7.986509584535759348e-03 4.463532310733637765e-01
-1.249853606036145301e-02 3.726861026480609435e-02 4.512037338366814976e-01
3.341425056603409410e-02 4.098560594326489809e-02 4.782514430894936885e-01
8.820794671943691517e-04 4.880437672667520266e-02 5.227481240128624140e-01
2.927637174255289659e-02 4.178558119909272367e-02 5.047668251853679733e-01
2.925981670369507195e-02 4.317503839729049803e-02 4.729434102472523938e-01
3.363942312073845472e-03 7.296259321823990451e-02 4.747873733220090431e-01
5.186194075640318535e-03 5.064389686540660129e-02 4.608819716460846871e-01
2.556946002760927469e-02 5.708924936579044818e-02 4.834409527925156436e-01
6.031013868842717389e-03 5.123954966694655756e-03 4.420074670834290842e-01
-1.053639565266701467e-02 9.898203724581158477e-03 4.405108138701757658e-01
-1.394209520484688929e-02 1.526671149900297141e-02 4.417939500112598172e-01
1.438583283270864974e-02 1.679993228148781229e-02 4.493058688351309060e-01
3.837735565669925936e-02 3.218958232896952654e-02 4.801109154188658579e-01
-2.963858955112674137e-02 1.626484916896060381e-02 4.419200197622278337e-01
5.856315157826630195e-03 3.678535125033732811e-02 5.251494547734493201e-01
1.585223054956740735e-02 5.857692242850377068e-02 5.079162063550458628e-01
2.584774452053360122e-02 1.725181471654585116e-02 4.541626219071806525e-01
1.446596486992831991e-02 6.278817195534341922e-02 4.721623181632058630e-01
2.721695998343386796e-02 3.098870326898572891e-02 5.158159746651643784e-01
3.966431781156378594e-02 2.591906313632864889e-02 4.953158897472999533e-01
2.553828439490986660e-02 5.427527510137253319e-02 4.941917895554550078e-01
1.525472460730494494e-02 2.615450977292284318e-02 4.538073526265221092e-01
1.358288862500412440e-02 7.110795899524514907e-02 4.934215584836353918e-01
2.910424114875493837e-02 3.537385292112458363e-02 4.673357653027760406e-01
5.976740431735754269e-03 7.063611697065036443e-02 4.718454435097230171e-01
2.435706674383140286e-02 4.677809501770723716e-02 5.087436794987439947e-01
3.515783734620281376e-02 2.853429852804456601e-02 5.036155579392481707e-01
1.477056324352424461e-02 7.123640195533527397e-02 4.886552390600119034e-01
-9.714834008126590863e-04 6.327975466839148855e-02 4.643360600656633030e-01
1.456915872502198128e-03 6.398372738849145147e-02 4.653788252836750794e-01
2.312594256645415444e-02 3.930528620244882337e-02 5.144157377977185419e-01
7.468400496486677330e-03 4.076019326630401368e-02 4.581160291177491239e-01
-5.885898440904681339e-04 2.023664102893328945e-02 4.465448692050130175e-01
8.835027200792835989e-03 7.420663550867478975e-02 4.928170472686608239e-01
8.774743152472527438e-03 3.695909510266495029e-02 4.568861897761847812e-01
1.535042101522974406e-02 3.675714529123813579e-02 5.218131675420301097e-01
3.712923692290286820e-02 3.516703997283469885e-02 4.883692105099289860e-01
1.277456948551910360e-02 7.225420277692205795e-02 4.923730698831020880e-01
3.402256313946672162e-02 4.001788220505248656e-02 4.784619215129117809e-01
7.007008319898004253e-03 4.294305031612414419e-02 4.588642161682725540e-01
2.795552398045318340e-02 2.729177832128694761e-02 5.185513813328015420e-01
1.440940825324805996e-02 1.552987152470335606e-02 4.487322150090047312e-01
3.884059630918018646e-02 3.049514582917797756e-02 4.918736196655904558e-01
1.493371099433524196e-02 6.917343238923226445e-02 4.940966633809884545e-01
1.369339922534767648e-02 5.461247616220171741e-02 4.672682106111348821e-01
-1.261190155888505804e-04 4.164898266975503027e-02 5.252225865692182749e-01
2.806623755473169890e-02 2.248645468711533979e-02 4.584846757334393175e-01
3.817054375674459182e-02 2.938950594592976140e-02 4.958226906624975672e-01
-5.386347561583693273e-03 4.032961772711551873e-02 4.539583917665737101e-01
8.096058047351216425e-03 6.953522051100953505e-02 5.025993246467223008e-01
2.639854018499727603e-02 5.568950511147173488e-02 4.882040535147680882e-01
3.791684753016469085e-03 3.859958074579841747e-02 4.559073064515807849e-01
2.317651625291821879e-02 3.967220855356242554e-02 4.653965084439761202e-01
1.118377738878278092e-02 1.541748031158263546e-02 4.477958316387266047e-01
-4.828322253062990177e-03 9.684463481208235944e-04 4.384956179677549915e-01
2.584269567481495278e-02 2.440180430282801183e-02 5.226927529384675086e-01
1.277804981644998887e-02 6.981439969921997279e-02 4.966294416833000325e-01
3.711725480453393483e-02 3.515680520769406958e-02 4.889820850850700729e-01
3.554083538606366086e-03 7.059395743329328898e-02 4.709327254887713532e-01
1.027296327617925262e-02 6.232813742109824529e-02 5.090774095699446278e-01
2.872339158301321152e-02 5.096263529527934183e-02 4.850935958663305514e-01
1.254880871627241101e-02 7.320912610654706221e-02 4.892844961211675892e-01
1.909973863879576433e-02 5.755140038952694104e-02 5.037370240962540935e-01
2.988430296677344403e-03 4.165880085597263582e-02 5.241512593784848351e-01
1.402441069904640514e-02 4.436712608804294772e-02 5.182341934288977603e-01
-4.814207992707378141e-03 4.701874068208911073e-02 4.564055420680075414e-01
1.189597465501286699e-02 6.977901314232913543e-02 4.980222305982843767e-01
-2.515269572786709915e-02 2.746810036525581047e-02 4.453450932792010208e-01
2.796526534334698930e-02 2.296222833817412878e-02 4.586658868056782690e-01
1.006275461409922474e-02 3.738526179784733977e-02 4.575068953858817400e-01
7.475296660714610825e-03 1.092734321093091765e-02 4.448096873957970154e-01
-1.086991869669345218e-02 5.198698971170916810e-02 5.163500021988521871e-01
3.230538479694423752e-03 6.060492716690456250e-02 5.123173527880309219e-01
2.180906446649485617e-02 4.167098064326900386e-02 5.138461174852040347e-01
3.655794959098128405e-02 2.686249073576612093e-02 5.023989600639477970e-01
3.408784007244653608e-02 2.743971297899113621e-02 4.667783192358527233e-01
3.552017184188762527e-03 6.695135238707597414e-02 4.683049865581698223e-01
4.308259317664228302e-04 5.253367703227564828e-02 4.595463039156739149e-01
1.645936479737513530e-02 1.146109625479085382e-02 4.475090921967475044e-01
-1.072586007306529712e-02 2.088114018531872507e-02 4.446306095204161091e-01
2.440612426278504152e-02 2.875711290676659371e-02 5.216425179694791359e-01
2.141293188510674794e-02 5.653121238543443866e-02 5.008205730565014058e-01
7.085584574972298745e-03 4.629706255914581292e-02 5.214060528118953375e-01
3.963306709436887482e-03 7.327025683808410794e-02 4.917267046469226410e-01
-8.727094491509454141e-03 5.540365838381528657e-02 5.173585494649889371e-01
2.015336413318759637e-02 6.111916437857502910e-02 4.780446860568487444e-01
8.936684880791663857e-03 1.712975417709856202e-02 4.478436613527152499e-01
2.023029214381555016e-03 6.017101010095181335e-02 5.129555966821583990e-01
-1.471214366844120561e-02 5.189343300761160155e-02 4.566423926179479786e-01
3.421688516483700759e-02 3.944023275574898985e-02 4.961050731754043097e-01
-9.034286826315483798e-03 4.999072756228262193e-02 4.567343064568944455e-01
3.669150469248108615e-02 2.624496557009801945e-02 5.028639548850838414e-01
-2.884642380367842193e-02 1.806675091199447941e-02 4.423604077190224637e-01
1.041960304557128236e-02 2.144680468398502474e-02 4.501136186471752509e-01
1.928245767693998955e-03 6.743824931122259503e-02 4.680257183431761336e-01
-2.768347811541750636e-02 1.821246940508746207e-02 4.422922441460402365e-01
2.394135107687875991e-02 4.796330830865962180e-02 5.078747977115133372e-01
3.006041821278206995e-03 6.373471638960979957e-02 5.101587660084576648e-01
-5.279389679772481143e-03 4.886802899737159589e-02 4.569237461286663748e-01
3.160795265776739776e-02 4.116342061343718217e-02 4.742340245968563739e-01
3.864018643022948396e-02 3.206460971482078676e-02 4.852547341748960075e-01
1.591802707988519174e-03 4.444275515235270035e-02 5.238341112259148336e-01
1.210283214185555421e-02 7.351092766058071881e-02 4.816817573028491228e-01
2.859225855514700709e-02 5.160753761799424105e-02 4.874568529702160147e-01
3.747603262062860346e-02 2.681411367857980399e-02 4.700464711963176501e-01
1.268932180052825126e-02 3.644918785374316045e-02 5.229332231727931157e-01
-3.680081982673279184e-02 3.238749544156860338e-02 4.466899003449845140e-01
-1.107647388876083910e-04 6.934657631537338371e-03 4.413691978260134707e-01
1.252234920000888999e-02 5.614845026826650876e-02 4.672730734790053186e-01
3.130168173820478683e-02 4.541113918381203124e-02 4.796915765038328727e-01
2.168816535291100481e-02 1.120913003450001340e-02 4.493394509861392550e-01
3.413856564644301289e-02 2.716856884288846447e-02 5.069067377487567194e-01
-1.006306760430758854e-02 2.211139904237555825e-02 4.452237024222008843e-01
2.770500976210167263e-02 3.395538363281232208e-02 5.120597379715757791e-01
2.147215027148833416e-02 5.370436624113453933e-02 4.732327585518303348e-01
1.854399972116382161e-02 6.753462395521385442e-02 4.870324873226476448e-01
-2.996306224544701205e-02 1.727755052446510592e-02 4.422217399334273935e-01
2.670201199216021629e-02 3.739486301072235397e-02 5.112318261755830484e-01
3.461623881005915226e-02 3.784002002539531284e-02 4.768310343329953960e-01
2.899743840682362378e-02 2.969234433834952447e-02 5.139861213018062092e-01
1.625615717890779854e-02 3.218568973866482719e-02 4.572544228853973602e-01
3.504290429674059709e-02 2.498882754482704277e-02 4.660287413706087345e-01
-8.988235370393518608e-03 4.300287952243321554e-02 4.541893810309177715e-01
-3.491358851541522673e-02 2.215337587946902484e-02 4.437988106829470203e-01
9.298612204465723369e-03 6.960841471546694303e-02 4.730210514488233375e-01
-1.093870727006943967e-02 1.580484428307157505e-02 4.426716869830975010e-01
7.441721086111168643e-03 5.378167279657150579e-02 5.155495298667254200e-01
3.420423224909677901e-02 2.623316563625886777e-02 4.660642105099573329e-01
-3.010738664000075018e-02 2.565904744232983675e-02 4.445566558750425612e-01
2.357141730558321227e-02 5.288456226696469642e-02 5.021754142965151324e-01
-1.585865138667803473e-02 4.921507776411295637e-02 5.251936992763027723e-01
4.887699286290707844e-03 2.518629347717342079e-02 4.501398365236560228e-01
1.809846743968534719e-02 8.545126734759711518e-03 4.467731451583815683e-01
-4.788919041680168853e-04 3.399643450839333336e-02 4.523455482457232057e-01
-4.958882868473957640e-04 7.607223530143427184e-04 4.390926324140594916e-01
6.177159758032313777e-03 2.979696399010938607e-02 4.525399033456040665e-01
1.877542342300007883e-02 4.007527903318372497e-02 4.626344076357069568e-01
-4.176067060086462168e-02 3.724706392524309434e-02 4.497755156872370597e-01
-2.818772135140514001e-02 1.488723673325119574e-02 4.414070615090526228e-01
-5.556734508557899591e-03 5.790566895096941474e-02 5.127736814198519122e-01
-1.263579120543237982e-02 5.003022978048243113e-02 4.560719208948998404e-01
3.178460018120671943e-02 3.455769339079958757e-02 5.053421969744930076e-01
-2.231094162299360542e-02 4.069700383663100302e-02 4.508751313410807593e-01
-2.161084882479808247e-02 5.883660189583991840e-02 4.630974500996966059e-01
1.170752289806894792e-03 1.254495004672337086e-02 4.438047990024465705e-01
1.616536100253077122e-04 4.427880300820218051e-02 4.569384950923553457e-01
-1.327708601769248507e-02 2.859099360422215005e-02 4.469053428916071047e-01
-1.731330698718342234e-02 3.214130844525550645e-02 4.479470225017574414e-01
3.497804108748100993e-02 3.973988237125938849e-02 4.894586272486978196e-01
-1.532547628955548483e-02 4.608666338206920954e-02 5.264185744570746284e-01
5.129402371080162178e-03 3.912136966771425500e-02 4.566054165427990141e-01
-7.349426842773241000e-03 4.721584994459308848e-02 5.249381898364300358e-01
3.708758007562263509e-02 2.252509510602356685e-02 4.663349998932251883e-01
2.802069251187749854e-02 3.015226568362489035e-02 5.155773256313224140e-01
-1.119435578025635737e-02 9.557040958253203503e-03 4.402623525269844795e-01
-1.943884298786499945e-02 1.947197720269830054e-02 4.426424835236705269e-01
4.304865952426443869e-03 5.456807308522059613e-02 4.619941403926196011e-01
1.875946737733633421e-02 6.288511500318498537e-02 4.968891063160784660e-01
2.703610014635036973e-02 2.743929808057368053e-02 5.195874910495269505e-01
1.951745659917361944e-02 3.837297271218818862e-02 4.620815915653502803e-01
-4.209836094186494848e-02 3.262435663855114965e-02 4.474146444718635207e-01
1.084742007525041178e-02 6.942216666818422366e-02 4.739877462044432277e-01
-2.342089489434875244e-02 2.118330183177078926e-02 4.430462222718538068e-01
-2.269216645953583966e-02 4.130252257264021426e-02 4.510693585627653657e-01
3.889638517406734594e-03 6.782111266183407650e-02 4.691143299844906522e-01
1.832804049389164316e-02 2.989913971774739443e-02 5.258715817000829684e-01
-1.648023149273019836e-02 1.323203069983642545e-02 4.404569391089173114e-01
3.386579977995263918e-02 3.390892539463671862e-02 4.707445924673765991e-01
3.920680185074270491e-02 2.655011521178099812e-02 4.967209986693397750e-01
3.553306494514703318e-02 3.202859875621527630e-02 4.713124989328100201e-01
3.208333104031553529e-02 4.318587196034930076e-02 4.967310527344146465e-01
2.408926689035623819e-02 1.716965295422856821e-02 4.530090135467265688e-01
4.147643032234221011e-02 2.458778080777303601e-02 4.809711292821693407e-01
1.503138141107961991e-02 3.707164891339275598e-02 5.217373466270417426e-01
-9.782816169297069153e-03 4.397253435751861256e-02 4.543537245456059637e-01
4.055175527075317171e-02 2.529635746962262052e-02 4.915321295308659466e-01
2.934587945867563399e-02 3.082927348435721485e-02 5.119543464627718254e-01
1.727066122231698045e-02 5.399004107691506710e-02 5.104574638794098229e-01
-2.511706043180456788e-02 4.123674365801277553e-02 4.507381806160886129e-01
3.022235173867077705e-03 7.211069847951467882e-02 4.961766811591114545e-01
2.900139440412844924e-02 3.170087961759384537e-02 5.118329057567296836e-01
4.665465363555157483e-04 6.660873111770866661e-02 4.671287963146799060e-01
3.424557054517605309e-02 4.124982933026034859e-02 4.903919775917109924e-01
2.412628767915225153e-02 2.724500650972219370e-02 5.226476861836850674e-01
2.265669172882617960e-02 3.437884256257729698e-02 5.169729669016792650e-01
-2.538214998019587207e-02 2.018912089040858851e-02 4.426493652328000183e-01
1.713877298031032514e-03 4.826380409596017079e-02 4.586226188421291816e-01
-1.281836990897038987e-02 5.104693259115556520e-02 5.238384693443509654e-01
-1.109909069424280283e-02 4.231976426131618674e-02 4.535130121789436308e-01
-1.551922960651663970e-03 5.241117730326686625e-02 5.206833355974783695e-01
-1.487085291422890997e-02 5.082240286770767917e-02 5.218118045883506362e-01
1.835560340788443268e-02 2.898299500772966164e-02 4.564633916352587306e-01
2.515131278190487971e-02 3.261925716855067214e-02 5.161129046053658520e-01
3.710375275643426618e-02 2.907401979254155278e-02 4.995916122628240030e-01
-1.134310442014663765e-02 5.062085729177695503e-02 4.565674800547362411e-01
-2.446730566046387279e-02 5.814883819678458993e-02 4.644965885311493348e-01
1.894428653383744415e-02 4.177405067225761770e-02 5.161117856221529854e-01
3.736464102288261299e-03 5.572478118602116476e-03 4.416519718681887752e-01
1.139050429223957116e-03 1.221315130108841136e-02 4.436652897219858782e-01
-1.563596667064858642e-02 5.178017601542073134e-02 4.565517468875336382e-01
1.425469339179278455e-02 6.597091612255384652e-02 4.741223848827698650e-01
-1.052747600101292674e-02 5.279088787639003161e-02 5.173715395000949568e-01
6.822444147961645097e-03 3.393857717802321872e-02 5.270918378081027589e-01
-3.058848915771990220e-03 1.448530784881509742e-02 4.435427633956572357e-01
1.510548841489047726e-04 5.354211002113259260e-02 4.597815242599723740e-01
2.812350071645200109e-03 2.205070501868696201e-02 4.481847623490885502e-01
1.705630881664760290e-02 4.878751088596584157e-02 4.662421448121978895e-01
2.817909032658425655e-02 3.462436754127687366e-02 4.660733137627224854e-01
3.109033008166255801e-02 4.771211786541312838e-02 4.855828668507701784e-01
-2.010317459391375641e-02 1.031102850943550926e-02 4.393105324922727539e-01
1.046585664691188425e-02 7.486153249208647720e-02 4.842303925103982332e-01
-4.220450361950857029e-03 5.204412782396288656e-02 5.219554016087761816e-01
2.634290504503443084e-02 4.878271110725808379e-02 4.751854170045172743e-01
-2.620093099239765091e-02 4.227580738602548099e-02 4.511638991044339964e-01
4.171056028043062039e-03 4.954956954075808578e-02 4.600903153836573556e-01
-2.239819021462119072e-03 5.222088431961945804e-02 4.587435002026107878e-01
-3.967779445888279695e-03 2.530368138195873348e-02 4.477272786113812297e-01
2.753767864805518276e-03 2.616898283311703058e-02 4.498746311381140450e-01
2.690703852290127901e-02 1.727427215130428878e-02 4.549100672212011420e-01
1.279469376499505276e-02 4.926670011841156188e-02 5.162244215210126663e-01
1.429103711290323313e-02 4.216904947612948318e-02 5.190011049540601551e-01
2.620102106009405615e-02 2.031547891933581373e-02 4.560092096730829492e-01
-5.721271191696968191e-03 3.413400691176911306e-02 4.511654684029708928e-01
