1.301430976543828562e-02 2.388676817569837865e-02 4.523231099449972481e-01
1.964896041245071945e-02 5.951396722093945518e-02 4.763033123565112437e-01
3.809533353525302452e-02 3.311705947132035505e-02 4.866636147621415387e-01
3.902668077416160050e-03 6.888528315744521513e-02 4.705113504805174540e-01
-1.685509021522785950e-02 2.316635891074839398e-03 4.376654075773377950e-01
-4.203862500297439464e-02 -3.439429488601053637e-04 4.411367061608096884e-01
-2.800993804222033905e-03 3.884694991543601733e-02 5.280994653591556398e-01
1.295057143868616999e-02 3.259246860403486323e-02 4.565480563802239988e-01
1.295429870457694317e-02 5.581451806292832274e-02 4.679609995460602967e-01
-4.906437401385248427e-03 4.837734572900932034e-02 4.574053947342794912e-01
-1.212289417164131786e-02 5.003716111731866881e-03 4.388084060261320807e-01
2.126669308309967268e-03 5.134882483124109803e-02 4.604206510843845135e-01
-2.669620184278152092e-02 4.735396017184546197e-02 4.548433898761988226e-01
1.124415027863807579e-02 7.069878729375961290e-02 4.986231167460716263e-01
1.816068594620015575e-02 1.261089525202573058e-02 4.488194510520220892e-01
7.796517844088799928e-04 3.679799960259002439e-02 4.545200120351645667e-01
2.907618823594916579e-02 3.341497383341836963e-02 5.106681986200630741e-01
1.369739225253302148e-02 5.541756068087245329e-02 5.128799932485159641e-01
2.678503489376437424e-02 4.471230351552311910e-02 5.074510104562449664e-01
-9.400419527409971734e-03 7.745024349432612712e-03 4.402799106386391381e-01
-5.403942826145174093e-03 5.225356180499843989e-02 4.585909087425109609e-01
1.893887165409494609e-03 3.069281994394937665e-02 4.520095016024852641e-01
2.960434667144865375e-02 4.564142434181286956e-02 4.766515709893305863e-01
1.606851527877662875e-02 4.173705848811148228e-02 5.188070294068674038e-01
1.295471577905119888e-02 6.433048799035782916e-02 5.040762837245102990e-01
3.317659565149397305e-02 3.998140130370202161e-02 4.766888895315133379e-01
2.038382479148799498e-02 4.842321597310325458e-03 5.323681636105170867e-01
-1.765989315509581756e-02 7.325082814871479442e-03 4.386962290483364946e-01
1.648151925466003961e-02 4.057311625300972363e-02 4.619999127373223269e-01
1.831769217347792300e-02 3.182777576550892273e-02 4.582807907503261280e-01
2.460477500871702250e-02 4.455911699911402346e-02 5.103116478564254654e-01
2.579231320158754254e-02 5.396493064680390334e-02 4.951492383583592782e-01
2.684808565040375586e-02 4.528478662342696331e-02 5.069202655367172072e-01
9.821213610886957851e-03 1.479594197810148865e-02 4.474017060078638863e-01
2.017291873532890689e-02 5.578085172127040386e-02 4.739423192292607223e-01
2.861800243442097838e-02 7.308034039684794224e-03 5.307137497655780578e-01
-7.851968788844320563e-03 5.966388027111109438e-02 4.606665745546246193e-01
3.735698896833602317e-02 3.490347352684417676e-02 4.823205591763936595e-01
4.960168092456505168e-03 4.315642804903175450e-02 5.240683843016131771e-01
-2.892614928396756296e-02 3.165216804305164694e-02 4.469067943560359191e-01
-6.726815543402523204e-03 1.522794064040777426e-02 4.435016120654237115e-01
2.200516833486051288e-02 3.829288894089860618e-02 5.166200705209075261e-01
3.159271797740969417e-02 3.883048766716349492e-02 4.724381175409311795e-01
3.616818117084821815e-03 -6.477190632724833322e-04 4.397482985296500280e-01
-5.569844727444130117e-04 6.891233458471642676e-03 4.414777657386902976e-01
2.620277450317524265e-02 3.594412674047579859e-02 5.134557254935759874e-01
3.012283987795439516e-02 1.799861713344388589e-02 4.579815386298420332e-01
2.896076779584946803e-02 2.838313125244065413e-02 4.629943055759472847e-01
-8.850304886787728129e-03 5.266054163119653075e-02 5.242655453021484169e-01
-2.844815279750852188e-02 1.619722898369850214e-02 4.419790708276133406e-01
3.252140462810552968e-02 2.821670238561900870e-02 5.092054514257529085e-01
2.586909513912594855e-02 5.335054553391421067e-02 4.964909219236613436e-01
3.947165238756166622e-03 1.637725571871536268e-03 4.405637871899159008e-01
-1.343096260236434358e-02 2.010559349474070820e-02 4.441123126877312699e-01
4.024927435462336001e-02 2.402344283186098883e-02 4.748056335664433414e-01
2.552962366410016851e-02 5.304842156676663201e-02 4.788043223901545797e-01
1.530892973431645723e-02 3.979041029605785013e-02 5.211509237929885519e-01
5.927659416733301566e-03 6.796308773941457659e-02 4.706114979057138825e-01
2.190581841663714543e-02 6.299073942499325285e-02 4.840073898530687369e-01
3.297855703701330077e-02 4.432715263761045216e-02 4.869216116564064611e-01
-2.345147565915182628e-02 3.952420723076705000e-02 4.506596748087124404e-01
2.310674597306228151e-02 3.242620290163471253e-02 4.613405650296424354e-01
-4.392379385732624736e-03 5.884519114195831818e-02 5.127356326989006563e-01
1.046735127726614728e-02 1.204178116080553522e-02 4.463539167104441097e-01
1.931256741504947319e-02 2.823720607260712598e-02 5.262260503185500760e-01
-5.467600892625532928e-03 5.885447899501613372e-02 5.152802197542810658e-01
-2.582104073052057802e-02 5.729313241725798866e-02 4.626344271882757986e-01
-5.288469038471123058e-04 4.035351138161780149e-02 5.271204698438732850e-01
-7.400083301315410998e-03 5.271893745297617090e-02 4.583853786202525260e-01
-3.390804799751521818e-03 5.319407826165355180e-02 4.593509936587279463e-01
1.140960831031708790e-02 2.746055327717155867e-02 4.535324899228876383e-01
1.372526976813330524e-02 6.789748915723298195e-02 4.983373610178754021e-01
2.365094190230371957e-02 3.968589021008405576e-02 4.662442836085203823e-01
6.942835991198910775e-03 6.646991975744234726e-02 5.075064597034377734e-01
-3.950599106715470960e-02 3.465398407167189637e-02 4.481807274920530659e-01
-1.866381295450264891e-02 4.108458783875462011e-02 4.521481308736297611e-01
2.119936760016450164e-03 3.871345470693859231e-02 5.267888591826843658e-01
1.673106232119868364e-02 5.907117181394575672e-02 5.067238109266960500e-01
1.672919465042418258e-02 6.938655363655928110e-02 4.893215648014248575e-01
-6.064606904645274653e-03 5.743102563146224721e-02 4.601868644179971657e-01
2.749043721885148159e-02 5.098066427255593808e-02 4.797806850000846945e-01
8.403794623432972802e-03 5.331756172962185542e-02 5.165298771699439184e-01
1.657698243423896909e-03 7.525606589087444065e-02 4.803511125185935260e-01
-1.409949141430198727e-02 5.200779749909029137e-02 5.227151348234717609e-01
-9.075496003460714958e-03 3.621718371596607811e-02 4.518782398621363217e-01
-2.321147882874972576e-02 4.646480277329823744e-02 4.543168741755566620e-01
-4.876098523401019291e-03 4.849232358595487180e-02 5.252432695688290520e-01
-2.238410785351039461e-02 5.878917340428338467e-02 4.648795595948038706e-01
1.584377084922199488e-02 6.405941196427636375e-02 5.001938609544412939e-01
2.502942105261206016e-02 5.468822098484720645e-02 4.962479720461925869e-01
1.175135246311473022e-02 9.734209625598273449e-03 4.456349987226950193e-01
8.736209011368638658e-03 7.562503075106970230e-02 4.849525496274261216e-01
-1.893468738036537674e-02 4.874265871311812132e-02 5.265057786964163489e-01
2.447329282138768335e-03 6.818922883358806419e-02 5.060684539752343669e-01
2.702750241619853930e-02 4.320943461834920313e-02 5.081284942458089704e-01
-1.393737130422771468e-02 4.055304448931221217e-02 4.527250480869048910e-01
2.318606356881288549e-02 3.084213269373252408e-02 5.221772112414792000e-01
1.107838587536160227e-02 6.626568296951054760e-02 4.723825308024919845e-01
3.499233515702613456e-02 3.843744071855871580e-02 4.792033070267935346e-01
3.185152209822294384e-02 2.707993317702982877e-02 4.647957511078343873e-01
4.026414178884799716e-02 2.790917151138747054e-02 4.859660596435509961e-01
-6.325847104844448988e-03 2.155281280981978867e-02 4.460500429249960042e-01
-1.247545465408485613e-02 3.303275239685129344e-02 4.496505489689775481e-01
3.647928091298609926e-02 2.747904422220467241e-02 5.021502576217270475e-01
1.631607281780881463e-02 5.179859986239068737e-02 4.678643150302836395e-01
-3.548201885317194514e-03 4.359330927948461970e-02 4.560500898940941239e-01
3.925765244563287487e-02 2.547459667512725484e-02 4.737966868243983498e-01
1.329200838385009853e-03 5.656030514662335057e-02 5.170068259927448340e-01
1.302622901119490639e-02 7.057376204809850950e-02 4.959949610727148461e-01
5.041349318870478290e-03 7.232402701838426540e-02 4.994259578914671538e-01
3.630418541200374632e-02 3.417696083804891427e-02 4.767421782412584741e-01
1.246249810235637231e-02 3.933581030041297805e-03 4.433222123368824041e-01
2.395047696900787573e-02 4.877495941692512951e-03 5.326191221369173112e-01
2.631981673117055748e-02 5.618040585307292750e-02 4.871591173508256212e-01
2.952884590820859662e-02 5.021073813683623460e-02 4.914591793021421129e-01
5.508047660344076585e-03 7.107278556710439066e-02 5.020580065067354880e-01
2.142912640550927866e-02 4.465671788901320188e-02 5.131506639005199988e-01
2.348110512480103967e-02 4.774152485023224618e-02 4.710779297231687535e-01
4.155312570289160928e-02 2.233147013027139346e-02 4.769177296545051847e-01
-1.896807030105873704e-02 1.252777183056143565e-02 4.403778200040342483e-01
-2.856530725708332497e-02 4.058350806821846291e-02 4.508203560470286364e-01
3.124665440107946696e-02 4.690106364606876771e-02 4.922360170037493043e-01
-1.357770294852527794e-02 2.928683404052613917e-02 4.475473989463498170e-01
-4.965925355115758571e-04 6.808865901327773584e-02 4.999202541890974683e-01
-2.551707962374667737e-02 1.586884235917280714e-02 4.415857879894520277e-01
4.213524365171360773e-04 6.336953277971074661e-02 5.120828594945415757e-01
-3.626192885253537446e-03 3.942611775587993514e-03 4.398872678702997474e-01
1.185010908267954827e-02 1.673906568439343170e-02 4.488486972577598322e-01
3.121978903439732306e-02 2.237182834475168539e-02 4.614497192536863301e-01
2.709097213245739710e-02 2.435961458438899718e-02 4.591771049465712129e-01
2.484598142114952460e-02 1.352643151745903070e-02 4.520420728107809594e-01
1.556821370590424219e-02 6.469459479401645785e-02 4.997511591771293116e-01
-1.796001096237008141e-03 1.555176777209413275e-02 4.445673216143339879e-01
1.164612754693808080e-02 7.305330121633667184e-02 4.799432685069974780e-01
2.385082450325112791e-02 3.338753003187076851e-02 5.180014305821650789e-01
1.023785388635460982e-03 7.083694134409318499e-02 4.739486030028103314e-01
-2.273160651159430307e-02 5.812588580388421133e-02 4.622442508334339006e-01
3.325391722522329924e-02 4.082600870513149183e-02 4.972913062548248719e-01
7.113773056272693421e-03 6.586701453024867980e-03 4.430786968981575424e-01
-1.446700894590166077e-02 3.706549824229955076e-02 4.511308922836724800e-01
4.041283814735790320e-02 2.709784157609813199e-02 4.807629782262403118e-01
-2.303172058897628993e-02 1.980248348079861540e-02 4.428955673340541632e-01
1.104078303482792719e-02 6.167638823258273645e-02 5.100433460759846716e-01
2.385790218021399331e-02 2.542482728044588580e-02 5.240846212661448567e-01
2.999606883210330713e-02 2.665309081074073230e-02 5.163047329054367696e-01
1.459042078363002176e-02 5.490344870190257826e-02 5.127318537652645336e-01
3.098027298443811056e-02 2.316575809640018108e-02 5.178589950556580224e-01
-1.528846806195605784e-02 5.118552551675992213e-02 5.234649887817164338e-01
3.512221978056027927e-02 2.479937470828075599e-02 5.075184526805009977e-01
-2.534061494437126263e-02 4.363188325272359530e-02 4.524960893718917299e-01
1.562312741442354810e-02 4.678341860683827430e-02 5.166118263370337305e-01
-2.239175836167810879e-02 5.509873067686348047e-02 4.588276874506634906e-01
-2.046718195539698037e-03 6.415782342265130556e-02 5.054695064996858056e-01
-1.296530970614342970e-03 4.399126995135123341e-02 4.568992874084411571e-01
2.311745725631083118e-02 3.792395586902650578e-02 5.157427306815915991e-01
-7.895305348549600671e-03 5.667216315759794620e-02 5.174948598364504937e-01
-2.331013647281608356e-02 3.746634134288644169e-02 4.497601276452702912e-01
-4.177657706516251304e-03 4.935129443097405200e-02 4.579158951855276660e-01
8.562169920041329263e-03 5.256532294156757157e-02 5.170511709677926282e-01
-2.248004144751335892e-02 2.804565731256292160e-02 4.459797656745403405e-01
-2.081137395075050023e-02 4.019521854422233170e-02 4.513985646494014792e-01
3.658033208231564054e-02 2.147613250011662367e-02 4.654327869469568335e-01
2.771781716857214112e-02 4.890685099855993784e-03 5.321304834948806795e-01
-2.180113432344860450e-03 6.529301533570669447e-02 4.663142102933648392e-01
7.936663028028803288e-03 8.471514170940988228e-03 4.440479944061732631e-01
-3.876139125646351630e-02 3.936963279910250801e-02 4.513572068760011158e-01
1.401676708273041222e-02 6.736372927711950509e-02 4.985974501721303076e-01
-1.348875640971762199e-02 6.442359636010904465e-03 4.389970508484053457e-01
1.248755450613261465e-02 3.078120139068155070e-02 5.278641245985914443e-01
1.205109801123652527e-02 6.703270658064738874e-02 4.736617380185970116e-01
1.807131743635291901e-02 4.875421464881715683e-02 4.674522955118007861e-01
2.190458243360971641e-02 5.825938799075112973e-02 4.783849710608310546e-01
2.885209112756152716e-02 3.691932234902499388e-02 5.089753783172715762e-01
3.236297012942748047e-02 4.514712615406127338e-02 4.893310390296210510e-01
-2.493859905908129421e-02 2.727861925017701847e-02 4.456350039760864079e-01
3.175193271908848675e-02 2.361788157543396813e-02 5.165669232271805633e-01
1.846319492122984116e-02 5.606364340144687208e-02 4.719402305471982473e-01
1.157173145349779664e-02 5.058388923971311041e-02 4.645477247652925468e-01
2.121184169931292218e-02 5.467076632340881620e-02 4.743035177201113672e-01
1.800833329123857629e-02 2.011336149859701758e-02 4.520237558056458549e-01
1.157427017585813990e-02 1.582805232445448629e-02 4.483730679564653654e-01
3.480075207165884282e-02 3.994715071958686303e-02 4.924306504945236140e-01
1.896647255826206316e-02 6.368383730391070918e-02 4.792363901554403394e-01
-2.063719552709532973e-02 3.351387599296347386e-02 4.483721558724623191e-01
1.960929097316146605e-02 3.618274509767081815e-02 5.202087941483730660e-01
1.795522034630142594e-02 6.690410837596497129e-02 4.924023992297589802e-01
1.245092020611149016e-03 4.919298967663129213e-02 4.593084762774265473e-01
9.887093418125174685e-04 4.131887790414127959e-02 5.261749702633937709e-01
2.208812841572451238e-02 5.991300050499685781e-02 4.801376393645478413e-01
1.789055218006689596e-02 6.799884689924455550e-02 4.839455960731645079e-01
1.705250010001922029e-02 3.587780235070218288e-02 5.224104069863998445e-01
3.557139181918402004e-02 3.835915531842212095e-02 4.916498125901359040e-01
-2.615290677215117987e-02 3.897738937386262953e-02 4.502272227613908218e-01
2.821657216332221219e-02 4.200535591318173972e-02 5.069258896399487790e-01
-7.669635011813967507e-03 4.342136068290582129e-02 4.551266253903771264e-01
-3.046990703548204532e-02 4.256115702316160508e-03 4.390537486036479309e-01
5.444551352301398722e-03 7.038319021725741864e-02 5.029767963369049522e-01
2.462543702220342662e-02 5.906439022600255828e-02 4.852364433541906941e-01
4.505007045878753162e-03 1.676544239720006643e-02 4.467215292291750184e-01
6.558567445066111092e-03 2.211156826211370299e-03 4.413688303309005190e-01
2.364507754029708878e-02 2.633494489209428635e-02 5.240522686463854329e-01
-8.293725165751582654e-03 4.200939261017407750e-02 4.544967553705642760e-01
1.453730795641741333e-02 6.941627002274906519e-03 4.451841645694544214e-01
3.604693467306237936e-02 2.949130404933392874e-02 4.704136277664908161e-01
2.079547689695112472e-02 6.067832442267320769e-02 4.968163541331482858e-01
-1.513050296818613250e-03 6.556700357508817023e-02 4.666483142357657488e-01
3.817211538559750483e-02 2.800492283912359853e-02 4.738506667849427534e-01
-4.556391966409580746e-03 3.485265500667709959e-02 4.522168050987424581e-01
-1.882124256462140016e-02 3.995962933389825972e-03 4.378226548706017351e-01
2.343511869496876093e-02 5.991381460892127031e-02 4.904025564487946576e-01
-2.521504588988388029e-02 -1.475652751398285646e-03 4.374234068608157111e-01
2.571541185764867829e-02 4.137254285104532275e-02 4.689433488122781157e-01
4.971167259437826551e-04 4.477299844698513775e-02 4.577288693641903827e-01
1.317408713739339453e-02 4.020399116213206614e-02 5.219464249564275127e-01
2.602985501031773730e-02 2.560376197989393601e-03 5.336371081422883744e-01
3.843380535384624541e-02 3.182057446229342307e-02 4.905238387322178317e-01
1.839310957173936065e-03 2.042612792907121805e-02 4.475777683058356216e-01
1.338949819156872931e-02 9.690572059653339287e-03 4.460643910457051664e-01
3.037788319138671339e-02 4.583864550360072093e-02 4.978094782898445647e-01
3.564413469276038471e-02 3.849664894011374516e-02 4.858591745395991479e-01
-2.822968332983603716e-03 5.829151636535385983e-02 5.166504823640813981e-01
2.409921171340733033e-03 6.563242508903859018e-02 4.674389268258637986e-01
3.078383908487314358e-02 3.621835459000286722e-02 5.064431825419858368e-01
-3.652981424215459572e-02 4.248056630461649608e-02 4.533253541758070493e-01
8.996173347724316025e-03 5.771061358776984757e-02 4.664884801956490357e-01
-3.618502961813508528e-02 2.906572473083256572e-02 4.460813215269409659e-01
-1.507314952968341268e-02 5.795980233521751818e-02 4.599661620560667186e-01
-2.290696168507682859e-02 8.724557754789247568e-03 4.389385366664852461e-01
3.474616613141726790e-02 4.031139948184778860e-02 4.879842340795019773e-01
1.433479911718185153e-02 3.840093500645919838e-02 4.600602385793300386e-01
-3.814356168863240748e-03 4.598499251439194108e-02 4.568327637409835829e-01
2.611710532189046724e-02 4.900352595487187518e-02 4.755745950033029024e-01
1.648492101393379469e-02 4.626555264677079116e-02 5.163476822511147146e-01
-7.936050588295245900e-03 5.286518058049773094e-02 4.583745814597710022e-01
-2.180762978604347188e-02 2.429647301099489148e-02 4.445701358547268778e-01
2.570695190155263335e-02 1.838884819158588882e-02 4.549551947625342652e-01
-1.710640305410112208e-02 2.733473596174128620e-02 4.462373553406523419e-01
-1.008999338935449505e-02 2.325828717785049377e-02 4.459820110714386998e-01
-2.362746456629952890e-02 3.838117629828453198e-02 4.501321528533233640e-01
-2.710313182569412931e-03 6.990204855429849040e-02 4.736944036410746239e-01
-1.159024563606622128e-02 3.797303584517854047e-02 4.521984595849115052e-01
-1.508557672719895368e-02 7.882142491319767824e-03 4.391020405023874917e-01
-1.364826846151541949e-02 5.531126809697384933e-02 4.586124924271449133e-01
1.499512299573866822e-02 1.773080243738938896e-02 4.501793788724552381e-01
8.188228954410185084e-03 3.223881614558082170e-02 4.548205790657650072e-01
3.003180037253103465e-02 2.452454296355041294e-02 5.181509884635524532e-01
4.100317853407816487e-02 2.336898531153753719e-02 4.940005562747160628e-01
-6.080759000554880611e-04 8.399887706949391367e-04 4.392792207821678563e-01
5.417653879858636175e-03 1.732524250271814947e-02 4.472203058258443220e-01
1.294170291360381697e-02 3.576637763135919607e-02 5.240953080746191262e-01
1.270303420311746055e-02 5.932000616626433714e-02 4.694170487284085036e-01
2.224129618562213292e-02 5.614256036255695775e-02 5.004345876429329154e-01
1.957011909957251036e-02 5.676241695450925939e-02 5.047365714775466916e-01
1.998405789030142411e-04 2.962829128787464357e-03 4.402102959840276664e-01
1.596138525321480831e-02 6.814595690227212565e-02 4.790396683325061633e-01
1.881033087046100893e-02 3.902908588103193299e-02 4.624772938074232509e-01
2.768754141647268574e-02 2.907310428045725009e-02 5.182601700552366131e-01
-3.919662172534843503e-02 3.523448785678710143e-02 4.483705342716586273e-01
2.961037451621132896e-02 2.955698536293705631e-02 4.643134005264358821e-01
3.643269144497599671e-02 3.268722257950650023e-02 4.984431803857741761e-01
2.109370419234313926e-02 2.227844830392890392e-03 5.332620608735628709e-01
-2.121877318468207846e-03 6.141006128603388597e-02 4.630368869879562532e-01
-1.540040595164406806e-03 5.266491311622043675e-02 5.222039523834963726e-01
-8.286609349361774221e-03 5.623244614823828119e-02 5.173595636183149216e-01
-2.403669573778632884e-02 3.271947747827426423e-02 4.476591240719240972e-01
3.302552315708966874e-02 3.931356101114916873e-02 4.754580432339406415e-01
1.120310313671642709e-03 4.346085852948565476e-02 4.575398668754485643e-01
3.212587686577673268e-02 4.054155878683229214e-02 4.749355242713555469e-01
3.274183927663853327e-02 4.468448395971445775e-02 4.876877975092078210e-01
-7.302036929018634187e-03 1.766341809129281723e-02 4.443506104288318936e-01
8.064632088512694100e-03 6.320072678604091165e-02 5.098563958677606589e-01
-2.860706451241466081e-02 4.820416561707988046e-02 4.557476185620508158e-01
2.872677895963813774e-02 2.428213444244291946e-02 4.603700422987755392e-01
1.872567905676063293e-02 3.921570818745519910e-02 4.625421481218344733e-01
7.907157884193495925e-03 7.434960262159620581e-02 4.916631579222051074e-01
-1.168416259081973482e-02 -1.267231419684184063e-03 4.373537942134167467e-01
2.489140697535664054e-02 5.640431666609612565e-02 4.925961633288005737e-01
-3.224503766292446255e-02 2.830486450110215532e-02 4.458180483133383221e-01
3.828687209645820211e-02 3.087686622804950570e-02 4.781931805299787230e-01
4.678824789953817467e-04 2.455358424305921494e-04 4.392850548296933222e-01
-3.947928222767549053e-03 4.858588126586863010e-02 4.577235825122274449e-01
2.620497875737098567e-03 6.043058891332961369e-02 4.641377045510897137e-01
3.258750901122852567e-02 4.442039347636296542e-02 4.907514753729718127e-01
-2.284949225352316329e-02 4.894924581816583603e-02 4.558028247397301613e-01
3.940280479415655263e-02 3.036766185019507472e-02 4.846128409057560149e-01
-1.785647330178686404e-02 1.330176350482513078e-02 4.406891409734802756e-01
1.491486915795298650e-02 5.063622507747531087e-02 5.146646836758009824e-01
-3.148933067421457593e-02 2.766181695389634265e-02 4.456441084448160006e-01
6.109403501287396371e-03 4.822803647132614668e-02 5.218756097628495239e-01
-1.763965645280844013e-02 2.239068495991058255e-02 4.442417380613206124e-01
3.452637699573569280e-02 3.587963743878665179e-02 5.007299611750769541e-01
1.071615268239054994e-02 5.770392071756984959e-02 4.674473975075801313e-01
6.229456118298744467e-03 5.380908477341388163e-02 4.631793526165172148e-01
2.905466345311579282e-02 2.640074644128332856e-02 5.182087063582534459e-01
3.698287773744650397e-02 3.033585721044210204e-02 4.992547502734708265e-01
3.751451595992418009e-02 2.337850265818281967e-02 4.679785036676170629e-01
2.989045459585104592e-02 4.142246686319722704e-02 5.045679521605862528e-01
1.436485333080405810e-02 7.213859774653912094e-02 4.850400178846868138e-01
1.680499350115228011e-02 3.634688895686433857e-02 4.600125170977190092e-01
2.368829989040075606e-02 4.811142826085409996e-02 5.089016540677091527e-01
3.577915837055141435e-02 3.373866502120856370e-02 4.747655927552023591e-01
2.014375909607077353e-02 2.423380492178399404e-02 4.551425369928255860e-01
2.087220754900204200e-02 4.579788028395325589e-02 5.130755382575420409e-01
-3.097062452351917808e-02 2.345261276686054237e-03 4.389297756441053466e-01
1.224357422309391673e-02 7.333705146162219912e-02 4.908320401636205865e-01
-1.496560409850976325e-02 4.494572742337751142e-02 5.281947245847790073e-01
8.781400464420750090e-03 7.559328119687730441e-02 4.847107736232114106e-01
1.066165815455081579e-02 3.858355817455411813e-02 5.234803734641620965e-01
-2.063200267828463677e-03 6.620720845227903717e-02 4.996459833359534475e-01
5.847837205806013551e-03 7.363121428759367149e-02 4.931767087830488672e-01
7.687831053836097911e-03 6.086746645361901242e-02 4.672082336622039311e-01
1.704377737118615774e-02 3.044504730460576014e-02 4.570626162391938085e-01
2.177501334122997761e-02 3.923902124068870401e-02 5.160022769321712666e-01
1.927908822257858252e-03 1.920824728337854406e-02 4.470786102208095247e-01
1.468918446328899494e-02 5.716690130516823704e-02 5.112318183971812369e-01
-1.390878747188596144e-02 5.007126065396459713e-02 4.565454580591549738e-01
1.463326599618529865e-02 7.167696553689169303e-02 4.867291959326405237e-01
3.240216295252171252e-02 1.375032639085719752e-02 5.235926618308550662e-01
-1.098102636173191662e-02 5.410236931053268722e-02 4.584332375605257859e-01
1.637299867601918479e-02 3.521924392524358738e-02 4.592601205846116863e-01
4.179293420493468414e-02 2.419914735527771768e-02 4.838900304073736058e-01
9.697278961744559139e-03 1.646974949098423124e-02 4.480800307149090389e-01
3.387287577239810055e-02 2.286934688972530605e-02 5.111729860589731000e-01
5.273464762402932295e-04 6.451322876883293367e-02 5.096333220692277344e-01
1.375745061861614535e-02 6.805651333775401823e-02 4.756911331616134331e-01
2.565520597820074994e-02 5.155692809668829119e-02 5.001846602767040517e-01
-7.897642230032746180e-03 4.549999455958678857e-02 5.268869803552738151e-01
2.578289641726270315e-02 4.869888379376325488e-02 4.747354016404755073e-01
-8.526688312304745582e-03 -7.289365863076527688e-03 4.366358206921309715e-01
-3.858889520946306995e-02 3.412109742188527278e-02 4.478998973326031585e-01
1.101550303777996606e-02 5.037502073887262927e-02 4.641379657713355922e-01
5.312212846423776738e-03 7.861516600186707615e-02 4.821812502189518068e-01
-2.140524520097733530e-02 1.472385356047004740e-02 4.411261491274927615e-01
4.703223648599617022e-05 2.899438176566896189e-02 4.507030937934637937e-01
5.095003960253984693e-03 7.272808533105357132e-02 4.975014717295996869e-01
3.395352392328199794e-03 5.522001049444481141e-02 4.624606795046288243e-01
3.793397035459563499e-02 3.162312703733220071e-02 4.781250638211849147e-01
1.471841846423898106e-02 3.952640453232563779e-03 4.439050247009625472e-01
-1.559393417232525503e-02 5.185358875200682394e-02 4.571516246980268372e-01
-1.194030722423445982e-02 1.360426450059984069e-02 4.418544976399886304e-01
-2.001819461179589824e-02 5.070048435429027472e-02 4.563849863265627693e-01
-2.060827974925030087e-02 1.884067377523465994e-02 4.426670953269105646e-01
-1.855510940329492889e-02 1.735722822351045552e-02 4.421786045966013545e-01
-7.866440021997909288e-03 3.004364984213429846e-02 4.491936605877775990e-01
1.293861227896046275e-02 6.792963061746593034e-02 4.749606086872893984e-01
2.015439815209500718e-02 6.322155722544460510e-02 4.947282940781835836e-01
-2.096939085841583589e-02 4.206285347248323730e-02 4.521934308216846721e-01
1.586577928589780542e-02 3.100485718832110202e-02 4.568850197680859315e-01
2.225982037672199002e-02 3.889742584524664287e-02 5.158758462725946403e-01
-1.762611000663401491e-03 8.778974424261206180e-03 4.419803929176197577e-01
2.191989338045045518e-02 4.570749885438048221e-02 4.684885786020875353e-01
1.147962790181245724e-02 6.257895383841458048e-02 5.089277975194445025e-01
2.581718290473543342e-02 5.356257629757227995e-02 4.797111786465087513e-01
-3.492377233469882818e-03 2.242775822731524205e-02 4.470205695609524854e-01
3.517329231082678975e-02 3.576974612803981990e-02 4.988486151983876349e-01
6.514247862955032872e-03 4.213214147604447957e-02 5.237928843889917419e-01
-1.758776570217209304e-02 9.025985893125001297e-03 4.392077568868782422e-01
3.751039179105884747e-02 3.427936679800849124e-02 4.807869177114037496e-01
1.321474355005526277e-02 6.945559443125405574e-02 4.764575874911222697e-01
-3.378453384263418319e-02 4.017235347964633052e-02 4.506248505019980199e-01
3.469094138313064818e-02 3.291820922852950471e-02 5.016415586953759664e-01
-3.713760812714694132e-02 1.996142355687110202e-03 4.401973234510040411e-01
-3.340784434328342156e-02 3.449116028078161311e-02 4.479525278630961949e-01
3.967240268308571891e-04 7.464455842900470650e-02 4.826958364169630089e-01
-2.206593727586511275e-02 1.703784822823734696e-02 4.419325554171935067e-01
-7.045197522367821312e-03 3.186392279255075705e-02 4.502324476435762279e-01
2.317272601848407304e-02 4.679509537645926837e-02 4.701979105783143931e-01
3.498239600280903753e-03 4.112833407563350197e-02 4.573702203768701402e-01
1.534126591722734419e-02 6.915502557932672045e-02 4.793699547927441906e-01
3.647266656275853502e-02 3.311643764637075410e-02 4.977061424148928048e-01
-2.307548836837410369e-02 1.512193215529434795e-03 4.374083785091918974e-01
3.234153842421595010e-02 4.528276584770348639e-02 4.888951749999708163e-01
1.987559324489187543e-03 6.616984033927235387e-02 5.097620832698669391e-01
-3.548638975266489321e-03 5.760656984355089043e-03 4.405528678903057327e-01
-3.459920722813592669e-02 -4.061085354988137712e-04 4.394152884922510327e-01
2.588084729616393215e-02 5.074375361792386741e-02 4.770729071324664172e-01
2.423921897281111973e-02 3.145375631500062219e-02 4.615083476861213119e-01
-7.823791182166431324e-03 1.921389033973286420e-02 4.448399724049450499e-01
2.007149690161954408e-02 5.986390490592920915e-02 4.992601044073060601e-01
3.753528404007976105e-02 3.304408779435896726e-02 4.789616537240506955e-01
3.704694797550206128e-03 4.668974404534539241e-02 5.234735782053736575e-01
1.499514263834898255e-02 2.862282239692670940e-02 4.553208266811389904e-01
2.698558737947907155e-02 4.561415202582198153e-02 4.729123929778365487e-01
3.202973993332985242e-02 3.814710891149376837e-02 5.036512723072718023e-01
3.497828711932091800e-02 3.985476934323113618e-02 4.871765162375601421e-01
-1.649455985340298608e-02 1.979714193341068282e-02 4.434033740905845011e-01
1.195097855119078498e-02 3.808712708027130883e-02 4.589650772223006769e-01
3.156859907749211269e-02 2.269782636398909315e-02 5.174208583882573542e-01
-1.891879953554323132e-02 3.425061847062450815e-02 4.490080598833559589e-01
1.709543776139756804e-02 6.359699247605431205e-02 4.764081121641092764e-01
3.479989635240555990e-02 4.064633221027719179e-02 4.849002772105499570e-01
-1.692598650312036185e-02 1.089515759217820484e-02 4.398076001724442463e-01
3.950672773068504562e-02 2.649642325603126028e-02 4.944932087653690633e-01
-8.690586433204854078e-03 5.549228297479520677e-02 4.590743973902179365e-01
1.831994757729475329e-02 5.471737481526540298e-02 4.709265532369267815e-01
9.828977369331836841e-04 5.576367975903968183e-02 4.615678896559045064e-01
-2.607838685429248599e-02 4.284603006615771148e-02 4.520059727412307216e-01
3.726796134717144660e-02 3.505083952303099382e-02 4.837648294984798203e-01
-5.238087985122477294e-03 8.150135085239863103e-03 4.411901321240783713e-01
9.293495541029206386e-03 1.939811994865795614e-02 4.492128129483594634e-01
-2.172577954759239913e-02 5.547113124684165814e-02 4.590125431734236039e-01
7.086468649863519181e-05 -9.982304712517417467e-05 4.390790247099837784e-01
2.684128517016283466e-02 4.450843840396125767e-02 5.075019273642402684e-01
1.462422922505923761e-02 5.063943386445168143e-02 5.148852121917016911e-01
-2.896347791216216661e-02 4.788783701451997110e-02 4.556490844652873462e-01
-9.297632206773515096e-04 5.894143541046847901e-02 4.620272967426606869e-01
3.384912142136965729e-03 4.210403023807236800e-02 5.249131976050861459e-01
-7.816613521630271996e-03 3.327849549937125090e-02 4.507127837229296663e-01
3.162207802405058582e-02 4.698822577887155211e-02 4.879516915227205542e-01
-3.441145088533357783e-03 4.276555149876382078e-02 5.268939754161948708e-01
1.552960018858262625e-02 7.055691184201641486e-02 4.833036265615093252e-01
1.915144413128074680e-02 6.406336081902369584e-02 4.798516125809662580e-01
1.219802102366426486e-02 3.202604292441076951e-03 4.430094540711846385e-01
2.897963402918628251e-02 3.924181486956742487e-02 4.701737969046734245e-01
-3.431568548039003880e-02 2.605239678435045461e-02 4.451273724879992177e-01
3.846884115304968765e-02 2.871698738746610718e-02 4.956570522088610264e-01
-1.225510538984832427e-03 4.304186335568183086e-02 5.262578141563425405e-01
2.158668381441037482e-02 3.541127052229020578e-02 5.179266199546337379e-01
3.098117413703985884e-02 4.293402097321803029e-02 5.015086667064884152e-01
1.799697052035638747e-02 6.816344892100163755e-02 4.862260907707975921e-01
-1.215566388107709554e-03 5.213670494694489649e-02 4.595733392372363113e-01
3.814348550729276116e-02 3.213185299762569974e-02 4.796574988858380295e-01
3.270218105655053886e-02 3.120152153793833566e-02 5.062807600256565843e-01
1.481564020575251543e-02 1.138427187194515633e-02 4.472239992079238835e-01
2.159733793282384018e-02 3.935160869913262305e-02 5.160595084364713037e-01
-9.716970010647141276e-03 4.616756720972538253e-02 4.556657809572663975e-01
-2.687890958293127908e-02 3.856564542332654999e-02 4.499757786762210721e-01
8.087577268794480037e-03 4.223729363265673470e-02 4.594259606423092834e-01
3.649970774966554421e-02 3.044409358575055416e-02 4.723958744090954176e-01
8.641218312661074971e-03 3.991831446967275543e-02 5.237125943551274032e-01
3.600432735969483211e-02 2.712595669756831529e-02 5.037503704910144542e-01
2.017991866823538177e-02 4.905686270195016435e-02 4.690619855442775266e-01
3.499085498751957485e-02 2.973509054265069049e-02 4.695500688842233483e-01
-1.496612510037744793e-02 -8.666011923517867588e-03 4.367141220326132278e-01
-4.786924779520203288e-03 5.851025521398139917e-02 5.123282148534629155e-01
5.133725807503115163e-03 7.218476674066266752e-02 4.998135057260698622e-01
1.403766775431182674e-02 7.185209312414128635e-02 4.824151509053811182e-01
-9.068370755502449740e-03 4.112547939386781981e-02 5.282923494812333809e-01
-9.450239133281432800e-04 5.282202549659018725e-02 5.216573526557959362e-01
1.942270146616632137e-02 3.632448700263878755e-02 5.202603691378607786e-01
5.631908593986533276e-03 4.957838410091999076e-02 5.212870626478639524e-01
5.066565472654740304e-03 4.063525604717107415e-02 4.577012454795663654e-01
3.275450463650301375e-03 5.366511290092230990e-02 5.185905280394771388e-01
2.213211593687925555e-02 5.068643871534622702e-02 5.082174597578978936e-01
2.487811014754058928e-02 1.939287156085160724e-02 4.549698573672400492e-01
1.910235529615928081e-03 5.467291493667813390e-02 4.615499884011987630e-01
1.531959815679560279e-02 6.665906303089333407e-02 4.975027906321427551e-01
2.999902569164395599e-02 3.682044297548762307e-02 4.694373178183933737e-01
-1.992477286845275100e-02 5.078887843288851234e-02 4.564353136831073576e-01
4.105228712938079061e-02 2.499065650350356868e-02 4.889390561522480305e-01
3.272664449594579750e-02 4.005329620366815391e-02 4.757183519461947729e-01
9.289339065275081103e-03 1.135859642588922525e-02 4.457294486655495880e-01
1.478504063973246074e-02 3.115103834909609126e-02 5.270328329082243357e-01
5.416768318142485203e-03 6.763505730279757711e-02 4.701724005607279544e-01
3.336750681884995129e-02 4.374738637577900435e-02 4.855628557293470982e-01
-1.679175875606405549e-02 6.052146599754533451e-02 4.667915215181464017e-01
-1.070888541460034322e-02 -8.331087711834980758e-03 4.365776835575511661e-01
3.384144560744012376e-02 3.930040468797871278e-02 4.773712712690035831e-01
1.192357625764845115e-02 3.840514444666717764e-02 5.230493105509388396e-01
3.413013469189708684e-03 7.109379205651698841e-02 4.729606574535069607e-01
9.270111753535054816e-03 6.417208109368607860e-02 4.697877331824658054e-01
-1.711137862206301742e-03 5.286313159222194580e-02 5.220393057201739850e-01
1.588063280508702005e-02 5.537989189658238526e-02 4.695193228083255343e-01
-8.657445519738038789e-03 1.996114473387331986e-02 4.449739509528112813e-01
-8.498106953703949210e-03 6.220734641629409312e-02 4.632546066804559270e-01
3.045435186664596783e-02 4.461783985526025093e-02 4.769669366500287611e-01
4.154890526156883312e-02 2.378644347039377341e-02 4.795949758004494079e-01
2.892041445320651244e-02 4.952918956419559426e-02 4.950115403478586584e-01
-3.500311939247268550e-02 4.204718731619561112e-02 4.525450884962481934e-01
1.579168544685055284e-02 4.316138427612464107e-02 4.629878111463039958e-01
1.394298975598228310e-02 6.187476003160364418e-02 5.067705927676058320e-01
3.359705693088001904e-02 2.376797323339858645e-02 5.108193159814997664e-01
1.714936461056482467e-02 2.886740768248382411e-02 4.563013940084554854e-01
3.437981442902992429e-02 2.728972147722169561e-02 5.067551745604017555e-01
2.726276027313827115e-03 7.050891504939542365e-02 5.017301928178434789e-01
8.665675652849777130e-03 6.720461936716382034e-02 5.054791319445157693e-01
-1.345762581042548797e-02 5.487993132545698760e-02 4.584540362983601791e-01
-2.031207624826545863e-02 -1.375232713500783299e-04 4.371377499873311256e-01
3.095205536889171147e-02 4.778626518241579912e-02 4.909663583778353657e-01
6.540098061578149963e-03 6.551733002994378219e-02 4.690965506203393920e-01
2.588886436340512298e-02 1.069075169265707240e-02 4.513058595007674589e-01
6.127307291370487005e-03 5.567199523188467308e-02 4.639714375067199303e-01
-2.792563577508163004e-04 6.583099197378547429e-02 5.069964910735834662e-01
1.442674228086903571e-02 4.412357769802652957e-02 5.188477063599100658e-01
1.849151702301666395e-02 5.082236844420080085e-02 5.118314700042312371e-01
2.194102301939271013e-02 6.177808165935332052e-02 4.914017790888772219e-01
-1.630904195276927995e-02 5.425906521623224260e-02 4.581932932736269559e-01
1.397986158157163081e-03 2.900623520606136763e-02 4.510872854876283311e-01
4.341891597379150119e-03 5.011602412136971496e-02 5.218018586166618400e-01
-2.025951041761195337e-02 8.063107193236910761e-03 4.388407025487210955e-01
2.102656243007442610e-02 3.457854374207924852e-02 4.612097621333560715e-01
4.038172959265368556e-04 3.823296100687011839e-02 5.276156790651398421e-01
-8.533417933448667059e-03 -1.244648346161742608e-04 4.378825345064317753e-01
3.753119692735022023e-02 3.067869443616583897e-02 4.969623019440500555e-01
-1.601275661119790951e-03 7.057265757570982401e-02 4.745495960298362070e-01
-6.593333420579156404e-03 5.511721172274695185e-02 5.201844786981492108e-01
-4.160595033775258550e-02 3.021434281760486049e-02 4.470846740708666611e-01
3.743652511332348776e-02 3.441264361189347309e-02 4.893788955770054239e-01
-1.605188706407734145e-02 4.495380820518739967e-02 4.541551889484317650e-01
3.761944622050439335e-02 2.037468239373675313e-02 4.660153144227627831e-01
