2.804143805157332994e-03 4.980175275859975020e-02 5.231192335467532706e-01
4.933196476535698857e-03 6.141117046533114271e-02 4.661624876623111091e-01
3.601210860644957212e-02 2.297296892655432618e-02 5.075348960661487663e-01
-1.609977638963008828e-02 4.464234122434448948e-02 5.277334101589226112e-01
-2.957884559083816256e-02 1.796364707444806849e-02 4.427307492941287004e-01
2.360982499090870726e-02 5.681898112172334252e-03 5.323364337876330676e-01
-3.611244498757082422e-02 1.405582710547522785e-03 4.398725490754128997e-01
-9.689744426493309771e-04 6.571143184739486331e-02 5.042312494785456956e-01
1.244972330546868268e-02 6.795055522995198383e-02 5.005000548716339592e-01
1.786713439409300715e-03 5.221786614081691535e-02 5.214152088946328867e-01
-5.988505963777921055e-03 1.764712977212039464e-03 4.388316783458176551e-01
-1.997665355189813877e-02 3.722034724418162716e-02 4.503024797870631146e-01
1.107659096623399980e-02 6.111111416861193107e-02 4.693500373656212532e-01
4.111972106580989023e-02 2.597158402952412168e-02 4.839603228748506902e-01
-1.525843907649797847e-02 2.750068792761200046e-02 4.466791054120524684e-01
2.665608204197343969e-02 5.556001328193648642e-02 4.874257951159688407e-01
2.359718693217826430e-02 4.048898119064130163e-02 5.136147509856355819e-01
1.384206752547208728e-02 6.574699981109341507e-02 5.012862380307927523e-01
2.306065773630985166e-02 3.539402336418952244e-02 4.631561638744853271e-01
2.872285796790398013e-02 5.030847933546501310e-02 4.820919418250608213e-01
3.575958169471248060e-02 3.179077462764404866e-02 5.005797890442765796e-01
2.082758446357167031e-02 6.273827018337561900e-02 4.935742658275759642e-01
7.372818666767396237e-03 4.420870531254538632e-02 4.600969714207323591e-01
3.156962036546248629e-02 4.613702481622281720e-02 4.929045708609218202e-01
2.079436877478871987e-02 6.107119945878557166e-02 4.965360822221759340e-01
-2.513052883065473603e-03 6.304519745282251286e-02 4.645916769784749212e-01
4.404487812732234275e-03 7.310946811971791304e-02 4.947225025310102442e-01
5.722670276454123496e-03 7.791235259994461204e-02 4.849647674789270835e-01
1.868610700938148558e-02 5.409916675906613348e-02 5.100418710045410142e-01
1.240645143495674660e-02 6.399775697511841943e-02 4.720757741694812659e-01
-3.570994727286483372e-02 2.668637147968020568e-02 4.455235142433560114e-01
3.768620433357941502e-02 2.568773088470749713e-02 5.016210744698998969e-01
-3.192003769586879841e-02 3.398454531039102333e-02 4.478852093103882215e-01
3.495958453360759749e-02 3.667660905684922562e-02 4.765641496893841533e-01
1.058409996168523798e-02 3.970268386398903560e-02 5.232666143001436510e-01
3.235637598725889935e-02 3.365517350829571458e-02 5.054607363154143274e-01
1.685482186187960835e-02 4.039096217273087375e-02 5.195352725003610228e-01
2.683246718083372173e-02 5.348360461371249458e-02 4.918044476598387726e-01
5.466768042043212115e-03 3.583081247119705021e-02 5.278355828913794401e-01
2.473279387685419980e-02 1.719742612424545597e-02 4.537997355543116340e-01
-2.459122382975096471e-02 6.243868111890111400e-04 4.376081542061475149e-01
-2.138532657902428302e-02 5.892762651989402745e-02 4.637222534075763347e-01
2.447218948612446890e-02 5.459941396725301321e-02 4.787983240241021066e-01
1.493862634324233558e-02 6.270683192290263386e-02 5.038249459842828459e-01
1.739060227456716567e-02 3.786857415711385177e-02 5.212359885311537155e-01
-1.684869198469455751e-02 6.034406709190091173e-02 4.644376385445974642e-01
8.682080890749295510e-03 2.310643910968058004e-02 4.506973081134314496e-01
1.645317366595402953e-02 2.193919686204988742e-02 4.525423011344864577e-01
3.046195012196275045e-03 7.283949664488205411e-02 4.942096192052053971e-01
3.494102305299072453e-02 4.022358632583895865e-02 4.854573274789835136e-01
-1.242287458891723831e-02 7.197300610096877757e-03 4.395223355323163994e-01
3.446899171120133137e-02 2.244179096429046658e-02 4.642574753899026963e-01
1.600649556124645462e-02 6.464006469085621653e-02 4.994160651775395032e-01
2.793062939146683660e-02 4.225021232824976297e-02 4.713696820069556148e-01
1.664621777344911860e-02 6.638879404376492321e-02 4.961516347818582529e-01
-4.203507191384213589e-03 1.304894144043670587e-02 4.431064582158927290e-01
3.325221904643196891e-02 2.565259385030436295e-02 5.100726611898639407e-01
1.352100661479779461e-02 5.558775416126385954e-02 4.683556508281133679e-01
3.054014523983590752e-04 6.386476744163434305e-02 5.107395591981107597e-01
1.839608927552950982e-02 6.773754895178146773e-02 4.869476666009340260e-01
8.617197013390026986e-03 3.155731822210558479e-02 4.547254943640756664e-01
2.298977723743844334e-02 5.568170183608093377e-02 4.997861389510759866e-01
3.906640725570065253e-03 7.351702414983235512e-02 4.922078859187646871e-01
2.321532938858600695e-02 4.588488020616960511e-02 4.697971888431835552e-01
3.794103805982260158e-02 2.629302814133389898e-02 5.003124839340359342e-01
3.117627319565026769e-02 2.913479348131681884e-02 4.655738965521506456e-01
4.095932432659999539e-02 2.377856316254802968e-02 4.927887419902226562e-01
-3.858267889875972682e-03 6.762833326232106645e-02 4.679634780116020965e-01
1.029054451970796633e-02 1.915722291873501841e-03 4.421940044700941042e-01
-1.552687186928700461e-02 4.178785711478398557e-02 4.531337632681374239e-01
1.329861041325539929e-02 5.574478650507466715e-02 5.130335897387801047e-01
-2.026894433544517912e-02 3.745699730722015786e-02 4.503644640691310541e-01
-2.195003302121214736e-02 1.972640604935006411e-02 4.429880153114404973e-01
3.523780086208797707e-02 2.460673886937631699e-02 4.663846846486643938e-01
3.601043813574988928e-02 2.467690484886841257e-02 4.671818069117278927e-01
-3.283643928296337000e-02 2.189435717106107127e-02 4.438953989219466267e-01
5.934270445166081251e-03 7.138384765672838028e-02 5.018695288703934887e-01
8.318973965639958959e-03 4.435962470837793298e-02 5.227751300023267822e-01
1.830401963331943979e-02 3.477044724100646772e-02 4.598974115913750382e-01
1.488055659102563433e-02 4.516926969554635463e-02 4.637189102941292052e-01
1.972424844123269252e-02 3.893630864121611079e-02 4.631486381766097282e-01
6.519068276143668086e-03 5.719036914839842334e-02 4.650450378213495384e-01
-4.304930292462776781e-02 5.039168979385744932e-04 4.415888917670753866e-01
-8.983287715950895314e-03 -1.236046635333408038e-03 4.375122267585153657e-01
-3.070693345718832415e-02 2.211846322895656344e-02 4.438234827836992080e-01
-2.054009037233062857e-02 3.289482674215890579e-02 4.482227080348025750e-01
-4.998349859258234031e-04 2.929674143922734661e-02 4.507991182277635844e-01
-4.533731507059520285e-04 1.686479862904538551e-02 4.455340703218050313e-01
2.916061805344217356e-02 2.707919947320059847e-02 4.624897043348796255e-01
2.778498395766116139e-02 1.031361126445730185e-02 5.278458734703350697e-01
7.849655447188547130e-03 5.495248253074984379e-02 5.158731825339913923e-01
-2.534976807147855740e-02 3.608928448829601399e-02 4.491282766357437839e-01
1.133207892477525701e-03 3.393121081854263282e-02 4.534134822559013900e-01
-1.956587041710651856e-02 1.918628082852036343e-04 4.372547740447573772e-01
8.693661752924979405e-03 7.000301597306483881e-02 4.736764904701141754e-01
2.082852419859150192e-02 1.519294425928176782e-02 4.510560665884735809e-01
-1.052594049169653517e-02 -3.234109637079985323e-03 4.371550976972629066e-01
1.862791123996898959e-02 6.555055486055076652e-02 4.939781730420431116e-01
-2.908377835245143372e-02 1.349590124789816839e-02 4.415565058899044715e-01
-2.624450720681174506e-02 1.795247385620598810e-02 4.423998860121523546e-01
2.095294940682031204e-02 5.934252793166566731e-02 4.781577533232808097e-01
-3.095272472093496541e-02 1.992713063445742186e-02 4.433107131157623670e-01
-2.261522225886763299e-02 1.980648261787397099e-02 4.429894545584740495e-01
-1.828467274571965451e-02 5.419568293552490257e-02 4.583322858947071476e-01
4.060841753431762222e-03 6.570764975581767919e-03 4.423685502844126871e-01
-2.091119468266696476e-03 6.049944764897435823e-02 5.134270237161701056e-01
6.164747425379203151e-03 3.215221396430009704e-02 4.542235584461999376e-01
5.665445602015522358e-03 5.345827092514138235e-02 5.179944475249609326e-01
1.386906957623010306e-02 6.984117992182024837e-02 4.780562836581347397e-01
2.581723814960530227e-03 7.514897475367524060e-02 4.782710394122741127e-01
1.752713439283021778e-03 1.576058328842135786e-02 4.456298826250284506e-01
1.804476768863413211e-02 3.919470448062979673e-02 4.621819729206214644e-01
-9.300038091746901797e-03 6.171918755414079749e-02 4.630205319406556774e-01
3.113941461124850041e-02 2.705798636547396274e-02 5.128309073430648013e-01
-2.629397170959226274e-02 4.645534501199593755e-03 4.384086873602743850e-01
4.114020170260161008e-02 2.504592539143613711e-02 4.878731579543747476e-01
2.841235457579244228e-02 2.223838335840212788e-02 4.590276095412188506e-01
3.862109865511121481e-02 3.170088538473957163e-02 4.811037107038519389e-01
3.451770983207165522e-02 3.640742085384265914e-02 5.005373090259960245e-01
-2.951958615644002110e-02 3.868739642145783975e-02 4.499786746017258032e-01
2.345679075635765179e-02 4.313031913933880468e-02 4.683144795527661164e-01
-1.329292202566888757e-03 2.073996027199235398e-02 4.469709455657009389e-01
3.084073385939563317e-02 4.654635547622095609e-02 4.809150648239515768e-01
-2.755844470310275449e-03 5.877407672105338515e-02 5.166177591313104722e-01
3.131906704997827057e-02 3.184005523032105295e-02 5.082748832412862239e-01
-1.402698341591386566e-02 5.690493807642947599e-02 4.594967512422269973e-01
1.547580250774857266e-02 5.926418243122758001e-02 5.087148883566968705e-01
1.432474859356864388e-02 6.673002001578146047e-02 4.754428179010797284e-01
2.623280613852802673e-02 3.643523129074006939e-02 5.131462505890935777e-01
2.823615001227314236e-02 4.929710902687425844e-02 4.973667347568809793e-01
2.626811640299321626e-02 2.106738709207735608e-02 5.244235627249959064e-01
-3.457441983234182947e-02 2.600788626857288011e-02 4.452166454674761908e-01
3.805357207711723699e-02 3.114007263557395239e-02 4.943312981176122278e-01
3.594740089680224099e-02 3.797727780878144138e-02 4.852203248630186927e-01
-2.276068518252764503e-02 4.813950715643965095e-02 4.555623165152186682e-01
1.735817011730050527e-02 2.302642872915565062e-02 4.533477194064179927e-01
3.601263347003331311e-02 3.386191037002696247e-02 4.985000807358311303e-01
6.494624591786510043e-04 6.000132170631602285e-02 5.148348683602352871e-01
4.311137234414090177e-03 5.301385762751226194e-02 5.189791740612804682e-01
1.038485799136294047e-02 6.680713196656037911e-02 5.047999793411924729e-01
-1.150864371241142048e-02 4.447781095252734823e-02 5.283813041953013823e-01
2.930690545645424708e-02 4.549434496692550400e-02 4.759750365883311241e-01
-2.129566170578834142e-02 3.852925649182983858e-02 4.506937302677932466e-01
1.462201327030859289e-02 7.146845048137161205e-02 4.893370615662147594e-01
2.561580230682131490e-02 4.562451407498275407e-02 5.090245578185114139e-01
-1.132948984160646842e-02 5.318268137657594652e-02 5.235153769848417404e-01
-1.392872532695104554e-02 3.997860926443792123e-02 4.526449971965765817e-01
-9.865785036123056115e-03 3.037176691578925142e-02 4.489885836250627205e-01
1.420398078182014481e-02 7.399942920699152833e-03 4.453595258349643538e-01
5.572778557234078778e-03 7.274309256718274053e-02 4.749919351810185097e-01
9.173668776845340933e-03 5.475020366077246875e-02 5.154659472090452610e-01
3.809581172094270163e-02 2.386723857655906333e-02 4.693127754628987902e-01
4.168982000479064601e-03 6.490051021468268289e-05 4.401577056180249747e-01
3.548383134792332250e-02 3.949903305230959005e-02 4.826768285138538506e-01
1.460281259081243344e-02 5.782502350261412016e-02 4.702154274285375579e-01
1.465211505995608204e-02 5.384943496696247001e-02 4.681163177301036482e-01
-3.621557311473311974e-02 -1.506626102813944700e-03 4.397100742387638483e-01
1.798275148462784995e-02 3.851975080486699093e-02 4.617485920915209707e-01
2.434642521223104317e-02 2.886787942242590235e-02 4.601903866708869084e-01
-1.306382946668494319e-02 6.682425141612473134e-05 4.375326546663047544e-01
7.092286860482141866e-03 6.529708711699289125e-02 4.693848226987326067e-01
-5.739466743545675043e-03 3.254828229435519082e-02 4.509631010336449530e-01
3.201668609652051634e-02 3.135175973387773624e-02 4.677994942084217067e-01
2.912483078555171134e-02 4.717324778934979534e-02 4.778304268591865855e-01
-1.269683817402119004e-02 5.230449318812242093e-02 5.246136623956982881e-01
3.748982249171165654e-02 3.047886535846101863e-02 4.974717818600015162e-01
4.953600725810458454e-03 1.597177140670916901e-02 4.465808580425010277e-01
1.688827569366447082e-02 2.953234411973996304e-02 4.566345721887360987e-01
2.954804039483166153e-02 4.163906118622917596e-02 4.725536610036049079e-01
-1.890347134058722664e-02 4.394822258221417477e-02 4.535216519020804915e-01
3.866698149079021013e-02 2.859268686503716947e-02 4.951049843470151091e-01
1.422103846377993121e-02 4.697620816368872076e-02 4.642284133731009454e-01
-2.568715397819141752e-02 7.239912603569272076e-04 4.378264791262023170e-01
4.157680356898986462e-03 4.193568229315874918e-02 4.580571185597117068e-01
1.157858079987346585e-02 3.981314191716952416e-02 4.598049342346962609e-01
3.330606830437841254e-02 3.907269091693808122e-02 5.008982743373601165e-01
-1.448913351491339097e-03 3.353276994825347967e-02 4.524248311196563122e-01
2.856780727578146079e-02 4.320878911428764624e-02 4.727752125598112531e-01
1.808276502092718077e-02 3.146803574255867958e-02 4.581024887471296103e-01
2.057100321898259684e-02 5.895943651449533224e-02 4.772379942782619122e-01
2.454069827743535215e-02 4.386148686590877338e-02 5.107180603594801971e-01
2.119503001586929211e-02 5.507944828124362868e-02 4.747725076938418276e-01
1.934070126767459957e-02 1.428961915068172397e-02 4.500954584638545142e-01
-9.536576569713635376e-03 3.223130116405278217e-02 4.499362531968658652e-01
3.933106262170838613e-02 2.849903765725100499e-02 4.783246160952071557e-01
-5.373984397234131058e-03 2.832493471092122767e-02 4.491002808993847517e-01
1.905166688495950333e-02 3.270696182827177723e-02 5.236769529087371700e-01
6.817470460198803497e-03 7.212234198356198833e-02 4.745412558265166836e-01
1.379786347452209572e-02 8.670451192818732361e-03 4.458051985501108594e-01
3.282931224458614239e-02 4.435435508596720366e-02 4.887961696920977150e-01
3.143367617701790101e-02 4.143363432467820490e-02 5.023334217323560669e-01
2.616131274898698695e-03 6.253105310151049756e-02 5.122163205104379724e-01
2.134204782711297474e-02 5.403576620236487382e-02 4.740289032806226932e-01
2.398359376404234772e-02 4.823339007280749713e-02 4.719698919012738636e-01
1.410005882724184485e-02 4.279706788745812895e-02 5.198863612969923942e-01
8.469841583020488313e-04 1.720953600992697341e-03 4.399398562534793666e-01
2.184608830435066928e-02 5.075200587443071815e-02 5.088911788697325633e-01
-3.162246479678804817e-02 3.670837270648921735e-02 4.490119349030522455e-01
2.812594619363534623e-02 4.355422575966472198e-02 5.061099173081525793e-01
3.283224765698564140e-02 4.099527815580200629e-02 4.773007624770794211e-01
-2.488671005464038882e-02 2.681983210117467806e-02 4.455651436427371381e-01
1.686649888357686852e-02 6.290822310784606464e-02 4.755912546097307847e-01
3.723030980349876368e-02 3.460967870707829658e-02 4.916328210149040756e-01
-1.480351855638049538e-02 2.027409655675938699e-02 4.439913950516978236e-01
1.460013007302525881e-02 6.877108941182243085e-02 4.959980772681057970e-01
2.507132982518675210e-02 2.116920177061024089e-02 4.561952330415988688e-01
4.720360526477343326e-03 6.032818835084304693e-02 5.135148633240064209e-01
2.387248338952701818e-02 6.027977583947170814e-02 4.853328060449638159e-01
3.484814309752390371e-02 3.798533862675970707e-02 4.971376167148994774e-01
-2.919772405247792954e-02 1.133771927756227135e-02 4.411086195643514341e-01
2.312308049813690397e-02 3.539684279061824923e-02 4.632035956453641745e-01
-3.894728590853387129e-02 3.442608672587745694e-02 4.481617299227468321e-01
2.838055580539246975e-02 4.791407232645106956e-02 4.996067637264976491e-01
-3.486902448290637307e-02 2.187016613985996727e-02 4.441241787074818315e-01
-3.750165061783916620e-02 2.291081797705431244e-02 4.447571683401277953e-01
-3.203584344623099101e-02 2.749096854522263544e-02 4.456852578451666047e-01
9.582707544042345232e-03 3.009509095957885530e-02 4.543097486437012722e-01
-5.799782461393785879e-03 8.420119493396055130e-03 4.412551611298970999e-01
7.554687090864331718e-03 2.920069017147735452e-02 4.532042986003270157e-01
-2.366483621431406115e-02 5.111568760925924021e-02 4.568996886722795914e-01
1.928918701335071220e-02 3.901620241529450001e-02 5.185769431729682077e-01
5.774631613265850116e-03 4.753152497298575654e-03 4.420587624268450533e-01
4.293622063319268642e-03 5.070463720532392138e-02 5.218545895268140722e-01
-5.326123592488299190e-03 8.039043608392474477e-03 4.411911133741313051e-01
2.381755334140836684e-03 4.161054920192928247e-02 5.258280947197032651e-01
2.463879343628259597e-02 5.680682151270256136e-02 4.929410731135149271e-01
2.231385908155227374e-02 4.920062751603947876e-02 4.711934959342900520e-01
-6.853772460446377369e-03 4.127448351459959280e-02 5.285697604349814949e-01
2.747280534149550146e-02 3.771907332277118358e-02 4.680420847818548835e-01
2.678661745731629462e-02 2.424102383012146852e-02 4.590108388647601290e-01
1.636372607262134155e-02 6.787846707416807235e-02 4.794582820424177494e-01
-1.578504672662681130e-02 6.065959965165626522e-02 4.655407518324082838e-01
-1.302919683590252412e-02 1.947753684511019726e-02 4.440270937868152079e-01
-3.625710720433944489e-02 3.255189735076183862e-04 4.398357113001014618e-01
-3.986525999823853361e-02 3.227420889482788408e-02 4.475283519740892446e-01
1.454421283634477029e-02 7.152145399832379735e-02 4.896579938573555890e-01
-2.945242344447081967e-02 4.089251642344001597e-02 4.510384849176462541e-01
-1.464804235655836617e-02 2.660626097602955195e-02 4.464693081814937736e-01
-9.085189556044490425e-03 6.545620054858735867e-03 4.400015343668985390e-01
-1.479397477153831034e-02 5.109346950773738238e-02 5.228509469503803686e-01
3.780413128849010457e-02 2.476416254462321387e-02 5.025153572596529061e-01
3.474959725663044965e-03 1.567615499112299735e-02 4.460401156041203241e-01
-6.023969235046131108e-04 6.481461932809615134e-02 5.080417040834749320e-01
3.472046825487441757e-02 4.022351430754337459e-02 4.913810322859591406e-01
2.051425146775940830e-02 2.552101411008296517e-02 4.560329008143263474e-01
1.384173087684282405e-03 5.011352613113896626e-03 4.412441364684717704e-01
-1.713635038738236735e-02 8.001176971299589838e-03 4.389680712624257630e-01
-1.805693771760481792e-02 1.028003464350311404e-02 4.396295078830582681e-01
2.252509378034418114e-02 4.383361856309547777e-02 5.125601130841751507e-01
2.683193265438172694e-03 2.970876874000933157e-03 4.407630714161344110e-01
-3.310948313034637464e-02 2.384443125325924964e-02 4.444661694333720270e-01
1.619572034491177821e-03 6.576848142648328288e-02 5.101702680112449872e-01
1.203372716124505130e-02 6.879847296858521144e-02 5.000086371498468907e-01
-3.891485761965286783e-02 3.792564851069923915e-02 4.502553372519995656e-01
-3.293953994211413355e-02 3.494522385563728073e-02 4.482632773148879646e-01
2.190541109931477479e-02 3.862701681937707326e-02 5.166085199650538584e-01
-2.554894517875357443e-02 4.243467461881502562e-03 4.382354963123488711e-01
1.183898246943058952e-05 2.361361983235005235e-02 4.485006922324641376e-01
4.271926019140568145e-03 6.850222398904613763e-02 4.705393682242798303e-01
-1.986491142235378288e-02 4.085228691718490596e-02 4.519789976234181439e-01
7.061822598204677351e-03 6.928017099551077307e-02 4.720393963350826283e-01
-8.467394977705582776e-04 6.620027669254291425e-02 5.031063968113789198e-01
-1.422515086657578573e-02 1.571319332259315735e-02 4.422286402351845447e-01
2.358442507201537544e-02 3.280383930948348181e-02 5.198671229016739170e-01
-2.752824701422169201e-02 3.392310514599333748e-02 4.480358046195248023e-01
1.075918518761361659e-02 4.364495396967355001e-02 5.220783958485049059e-01
3.241145200702177931e-02 3.506543431083782025e-02 5.044232041119012244e-01
2.409421527039156893e-02 5.945780306303248552e-02 4.826166718175959325e-01
3.609738452147478321e-02 3.729258048905091660e-02 4.906786423020809140e-01
5.754988750620751263e-03 5.156335970411666386e-02 5.199986342896736335e-01
9.501000746024385393e-03 4.783578366690267175e-02 5.201688240251349793e-01
8.932430323418366624e-03 6.824013853114167805e-02 5.041148104971037158e-01
1.306719100960193961e-02 2.831880142404225378e-02 4.545751758966053435e-01
3.170604740183528662e-03 4.898537413139088942e-02 4.602005149725895139e-01
9.315939300796240857e-03 3.859504276815022006e-02 5.242757460725501195e-01
6.693392340265537366e-03 2.454762137743660144e-02 4.508027439863640518e-01
-2.252690658713402821e-02 4.355342207402656401e-02 4.527326183265205639e-01
-1.640783655164906527e-02 3.828109769364223484e-03 4.379572523403752471e-01
2.178718071543741738e-02 5.462926278617205589e-02 5.038888906030923875e-01
-2.521970042034581139e-02 4.774835334108096935e-02 4.552296594717624711e-01
1.281965584584628462e-03 4.971077279427753987e-02 5.236222200647538960e-01
2.559695549984325122e-02 3.178269717886433171e-02 4.627795675259994135e-01
4.053149550573263010e-03 2.730150664472134545e-02 4.512445848883488986e-01
-1.348803660188748962e-02 5.120331191665717513e-02 5.210819946718220352e-01
4.144913612599918779e-05 6.147266697811801239e-02 4.637566022769961660e-01
-6.600750154178594217e-03 4.234679660401653722e-02 4.551022988733874342e-01
-3.989940603092100024e-02 2.322210504177873395e-03 4.412599559780467362e-01
5.574929271183757043e-04 6.808520128140002625e-02 5.014843320280533145e-01
2.022551917956870102e-02 3.013320703726582450e-02 5.254492413902129844e-01
8.922247856253385373e-03 6.743872057336761094e-02 5.051986493013989055e-01
9.771566726046211626e-03 7.476406052769161981e-02 4.807567052985649014e-01
3.240426618930778574e-02 3.590692951192333421e-02 4.711924483158050903e-01
1.033282490192523675e-02 7.502659339406214656e-02 4.884999731872792239e-01
-1.094693152497015938e-02 4.629868317822705137e-02 4.556170875753671190e-01
3.185268057319911444e-02 4.552388592766911518e-02 4.820923572689805314e-01
1.443510681534811678e-02 6.964587954795393998e-02 4.950923091253999764e-01
1.710580355115124893e-02 6.565427059261505494e-02 4.964731476750140482e-01
3.721269546394403299e-02 2.925845467703274208e-02 4.728888266999323742e-01
-3.090558192203245180e-02 3.900965991071586592e-02 4.500409385306504695e-01
-2.569354394734948283e-02 2.235767391637644153e-02 4.437305916816948748e-01
-3.872501442870768251e-02 4.028155952462121603e-02 4.522706480458243972e-01
1.035273864686749902e-02 6.407471731728195397e-02 4.706007272719919254e-01
-2.298467040863957575e-02 2.789081981530732238e-02 4.460064185200453002e-01
4.012250477055798181e-02 2.845967951203448587e-02 4.838318316880199088e-01
3.309959120162312557e-02 3.875457540691538277e-02 5.017924335338492803e-01
-2.648507670836220892e-02 2.787526719573682824e-02 4.458941128384124597e-01
-8.196964611917146454e-03 1.224473751215880528e-02 4.421972240642152441e-01
-2.299052736763137345e-02 1.230645820063064506e-02 4.402749530732372740e-01
1.740943597708803636e-02 6.848702434412878848e-02 4.903741482095698712e-01
1.797411030963707787e-02 5.968320552493861647e-02 5.040508177062427153e-01
-1.487095684823907561e-03 1.798665063075853901e-02 4.457494725175654149e-01
2.894247940993713904e-03 7.734494895232665868e-02 4.796261774694464686e-01
6.398704487102323604e-03 2.656105725533160905e-02 4.516512618794984446e-01
1.640451412597448283e-02 2.486407205593841457e-02 4.540590562863893731e-01
-1.217575310388575340e-04 2.572126541537892233e-02 4.493490556870805008e-01
-8.895167313135990059e-03 3.926900366961848243e-02 4.534962753510610178e-01
2.246805527786562701e-02 1.667110083716479008e-02 4.522492986315690966e-01
1.739898965302733719e-02 2.897604832284317311e-02 5.273475923029474766e-01
-1.633645379980821696e-02 7.016598561265316100e-03 4.386939297478653632e-01
-3.719049611088240392e-02 2.920013650819913362e-02 4.463361226902398116e-01
-1.413986084040128391e-02 6.094865489837816147e-02 4.643060871331465278e-01
2.627954208470325084e-02 2.064268999409497179e-02 4.566579642858641930e-01
2.533118226878619886e-02 2.670710717333011491e-02 4.595487992731071558e-01
8.676818134375995778e-03 6.537445094619241670e-02 4.702393271172098377e-01
2.751721721589197797e-02 5.356519946764893431e-02 4.884602359245708292e-01
3.849655392193275516e-02 2.471352729598422573e-02 4.710503628875191140e-01
5.690007037223681133e-03 6.918702721535560651e-02 5.047261128363559335e-01
2.766605143107653611e-02 3.665752693201911050e-02 5.108532817389604963e-01
-2.725971804412585103e-02 1.887353257531042966e-02 4.427482327514391525e-01
-3.006731179175476873e-02 2.395989959774640771e-02 4.443805883774372134e-01
-9.696036739419060593e-03 3.943573708899466429e-02 4.533987128875545114e-01
-2.474470802861486463e-02 4.390505612004156483e-02 4.528177829718168512e-01
1.242054093183743435e-02 3.677561331119651167e-02 5.239406734576569358e-01
-4.203792256464456041e-03 1.131783412874272018e-02 4.425013606732580151e-01
2.382092025278634805e-04 6.089909534294073168e-02 4.633990790300179796e-01
1.919995320364601896e-02 5.324585411897025944e-02 5.102245168297153688e-01
1.970781347884786872e-02 3.982063556278753191e-02 5.175145452355380815e-01
-9.842401461683997210e-03 1.131987407377465886e-02 4.414987472908662447e-01
8.417383085251741934e-03 1.297416114149531341e-02 4.462826215223771320e-01
1.206914088705501181e-02 7.226397371196653652e-02 4.791785380330859656e-01
2.216877137107880341e-02 3.630045030851803550e-02 5.172783324127657734e-01
2.773412472130455664e-03 6.139954421029689136e-02 5.130869486263259782e-01
-2.209316833014087628e-03 6.510990046894189753e-02 4.663290713866003467e-01
7.602401829323974028e-03 6.895574173585697353e-02 5.045602953555629044e-01
3.807022438736414049e-02 3.321044770541032448e-02 4.860329998228774540e-01
3.882436554031030995e-02 3.105441053291284337e-02 4.804763365168855382e-01
1.614204279140175197e-02 5.007330055301999899e-02 5.142538198117837522e-01
4.212220299315370259e-04 6.582331886098431034e-03 4.416188302594112325e-01
1.640828077762293211e-02 4.628191632429581176e-02 5.165963876174048952e-01
5.118556325938890261e-04 3.735459843756341186e-02 4.548169084515245597e-01
3.222303962147129303e-02 3.941111111144857126e-02 4.737986299989032646e-01
3.710289084798559789e-02 2.531010857290732358e-02 5.035216843984763324e-01
3.734176729107879095e-02 3.070633528571456786e-02 4.977815105221082281e-01
5.148229583753580890e-03 6.501293872102831273e-02 5.097601600730877758e-01
3.069782698739382393e-02 2.907797747649646519e-02 4.650989596372458457e-01
-2.759567070756971038e-02 4.011055304602682836e-02 4.508005377625494137e-01
-1.453234125499993507e-02 5.893718895653596301e-02 4.611567212806679250e-01
3.724109032225753069e-03 6.946168559624174565e-02 4.709885152208272419e-01
2.581596676128787918e-02 4.755639177803661771e-02 4.736642861156570294e-01
7.819700304183286807e-03 1.806484553422691222e-02 4.482989499774314157e-01
1.163753086005998687e-02 7.396269916852316051e-02 4.826029605946486889e-01
2.494255364174464279e-02 3.761574917687577485e-02 5.143203134687731604e-01
2.652179697149892670e-02 5.501180112273209438e-02 4.836925104566576206e-01
-1.820639336141019471e-02 3.138164321144251701e-02 4.479672530491776716e-01
2.792296688027193913e-02 5.307702931157474990e-02 4.878196084037771385e-01
2.076834905694846176e-02 4.984151114452074066e-02 5.107921237153442151e-01
1.141004668340842888e-02 2.100794763406629503e-02 4.506443991919490966e-01
2.882772421583269101e-02 2.275221758844458986e-02 5.210489145559289437e-01
-2.281194470628158943e-02 2.102654550830080488e-02 4.433928458070464651e-01
3.238510934208180952e-02 4.182508211391732650e-02 4.773283310137971802e-01
-6.229317408079311502e-03 5.790194239261805403e-02 4.604744943159329584e-01
2.627346834973235193e-02 3.297184112824967650e-02 5.145762241170267481e-01
-1.333325981946550075e-02 3.337147909532228729e-02 4.497602335622797320e-01
-3.303935100194665270e-02 -7.245187709096437972e-05 4.391022350909368765e-01
1.475738520146117373e-02 2.560571039450169895e-02 4.537838971209074979e-01
2.402953722758676205e-02 4.880284304885871421e-02 5.075752489043213744e-01
1.537890526574106978e-02 4.172260057518367010e-02 4.622372566976825636e-01
-1.383743822860701665e-03 6.129219799160916249e-02 5.123850980549827794e-01
-4.416915560695837406e-03 6.273017704622355084e-02 4.638942470283839992e-01
9.252816875966279192e-03 3.166050535276812572e-02 4.549835820165703537e-01
4.092469746039421701e-03 4.657742865031173213e-02 4.598017221084484407e-01
2.658484551030666776e-02 5.077474757857873555e-02 4.992574904110509415e-01
2.545827475282147132e-02 5.354812317296241825e-02 4.792793561938914482e-01
2.554646250607448682e-03 7.419286765671706529e-02 4.767923168960937486e-01
3.286768633894282358e-03 4.304618434303800895e-02 4.582231395224147241e-01
-1.104052580237213123e-02 5.410532426785299304e-02 4.585855801586863900e-01
3.717630376176030843e-02 3.350204010550908440e-02 4.944680911693977166e-01
-1.840905431933081635e-02 5.063752816360791303e-02 4.566585947595976358e-01
-3.752112034662805073e-02 3.894044970786008156e-04 4.402660607517031033e-01
3.012826726984925430e-02 3.306955591120266935e-02 5.092789969204800649e-01
-2.711852857784049706e-02 4.542683943826208298e-02 4.537496592344066881e-01
1.305770693841952317e-02 6.423488406954369623e-02 5.043083138121314812e-01
3.765801797489593677e-02 3.345537630238697852e-02 4.922620308087638508e-01
1.868056743843069661e-02 4.814581268892575983e-02 4.676960204764424867e-01
5.702798866612309066e-03 3.561130652023671711e-02 4.557991370006077014e-01
7.458784951403124239e-03 6.670133874163630683e-02 4.703979613363595824e-01
-2.163622398052366183e-02 3.230935888596088434e-02 4.477686710529041325e-01
3.860092190429409952e-03 3.908235092895517848e-02 4.567339929100455165e-01
-2.158131306375987712e-03 5.928341717186609572e-02 5.160713456028245272e-01
-2.574888577882413366e-03 6.181265727792198406e-02 5.078003708797061977e-01
-3.125164186222908341e-02 1.947096189183974632e-02 4.432434769316144774e-01
-5.743791598505545298e-03 4.929222169897254369e-02 4.576845806477441991e-01
9.010819639822713681e-04 6.442832458717209776e-02 5.114993415007114130e-01
2.190940465879215315e-02 4.543192502875941646e-02 4.684336597994149254e-01
1.631519309732705481e-02 6.983834655963344629e-02 4.838424530789479094e-01
3.652411393464025796e-02 3.584529803193987896e-02 4.799625463089939870e-01
1.664020805253051821e-02 4.924426330101448063e-02 4.668424828467201415e-01
-5.728980439954219593e-03 4.281173055158151580e-03 4.397374974528187597e-01
2.343572981982194881e-02 5.014512535341793947e-02 4.732249172242412594e-01
1.271942657479882902e-02 7.277576531183355124e-02 4.917587237891666296e-01
-1.239303181990391439e-02 2.176280425167631538e-02 4.450297452334484039e-01
-4.201001529870625889e-03 1.029153154910021455e-02 4.421657403440114043e-01
2.183025403616501228e-02 5.650474718972688798e-02 5.009773580704628415e-01
3.018842103122154966e-02 4.084382795319680542e-02 4.725877257849629420e-01
2.823645432421193965e-02 4.081535759554693471e-02 5.079280902773760653e-01
1.855692626498115991e-02 6.764721442909747695e-02 4.881452254530945778e-01
6.257711489403409294e-03 3.513269966399380773e-02 5.278632126974990291e-01
2.660568492249301698e-02 5.561994490660879253e-02 4.880833138581051611e-01
1.785756671508649529e-02 5.912016745205498497e-02 5.049680674279756198e-01
-2.802222201878931326e-02 -1.906222186475068844e-04 4.381381910541870539e-01
-9.585510765872259920e-03 5.321173871811137046e-02 5.160974988501251248e-01
-4.207562363481835710e-02 2.903394504865863118e-02 4.469427394022561506e-01
-1.332604390566563546e-02 5.246168609695481960e-02 5.237000461384193617e-01
-4.711283355717241390e-03 6.818878482240646466e-02 4.683896388439008907e-01
3.438558471986004339e-02 2.396204968184958983e-02 5.094772465589422206e-01
2.365355728836981627e-02 6.066098654705258386e-02 4.862691870200074318e-01
2.455688581975591124e-03 7.669707499884435842e-02 4.798108357756076803e-01
-1.673637867813763253e-02 5.337440707895461239e-02 4.578397415677059046e-01
-1.559422022354276655e-02 7.021277354666731127e-03 4.387747976857834797e-01
9.884402490226941104e-03 6.677267992033376898e-02 4.719349657682440080e-01
-3.344343919399436760e-02 3.308390095460172348e-02 4.474933444797483673e-01
-5.752903689888670680e-03 4.356366323122307788e-02 5.274424131805953708e-01
3.262986428420887319e-02 4.395645100218569662e-02 4.931761451042768196e-01
-1.672439856370448036e-03 4.306971673082878038e-02 5.267029403700678181e-01
-1.823782210039434550e-03 6.457869258528931011e-02 5.055127916332236016e-01
-9.320753046924319662e-03 7.538597829282209922e-03 4.402828571885357145e-01
1.072196163389034160e-03 7.633538315450864864e-02 4.826610026982721680e-01
1.807066257699199360e-02 6.741211203666136464e-02 4.911231768967240230e-01
3.702591624120070597e-03 7.540483907299883395e-03 4.426685880257105188e-01
1.075540177236053788e-02 1.574869495513692846e-02 4.481632710317300927e-01
2.544722310489186748e-02 4.236507607598676006e-02 4.694537814266177000e-01
8.962442363800410955e-03 3.286723518152390167e-02 5.280419524289192701e-01
3.384248736084604151e-03 6.326002104846924212e-02 5.114871508276968015e-01
1.487490411883816456e-02 5.245741622297834389e-02 4.675030086106181648e-01
1.006400573846114033e-02 7.503896164741750974e-02 4.839942429611951979e-01
-4.867101328919140601e-04 4.599086471218815503e-02 5.253657908696078849e-01
-1.005086853141795578e-04 5.556933613850299769e-02 5.190063901788297684e-01
3.989749251566244992e-02 2.607377695088289316e-02 4.933064179614591316e-01
4.100968258077682810e-02 2.193929296424576916e-02 4.744740081921576813e-01
2.040617451819689773e-02 6.316568657077226145e-02 4.941325540765791335e-01
5.932842067413252735e-03 7.299629582677209620e-03 4.431131035650986982e-01
2.895801640284887540e-02 4.114571089720037156e-02 5.064098841711890397e-01
-9.427802968882594697e-04 2.028310822262582858e-02 4.468807582449748073e-01
2.432812730189599926e-02 1.644459800541535344e-02 4.531930861057891780e-01
8.530070588093140865e-03 5.719148697237082246e-02 4.661463068914368235e-01
-3.447637768929680269e-02 3.320089806342237798e-03 4.397105264189060669e-01
2.163040361686577144e-03 4.624909576980780479e-02 4.588663078997144429e-01
2.787530052757416013e-02 1.607424358719279980e-02 4.553830769614802820e-01
3.120763327105017387e-02 4.709019204978791978e-02 4.919929968050706925e-01
7.696169973376455059e-04 4.176854695393445588e-02 4.568701461372806083e-01
3.913346997131773863e-02 2.895387913862848203e-02 4.782990348207002973e-01
3.590964203318051245e-02 2.375843626770239234e-02 4.664461961740824503e-01
9.756813732515284138e-03 5.098578057125781327e-02 5.183413937205296751e-01
3.258996901609514940e-02 3.922345252332598564e-02 5.022215422851201705e-01
-1.136310835924646788e-02 4.653038464177615408e-02 4.556181212058461050e-01
-9.861167840513322680e-03 3.847636524839888328e-02 4.529411184104993882e-01
3.663944106426009206e-02 3.587073236822125449e-02 4.804315015781759346e-01
1.413758918246571517e-02 3.442423295362814079e-02 5.246786792291544543e-01
4.637759423844685890e-03 4.791284365173893028e-02 4.604783257813349073e-01
-2.735819061294535864e-02 3.301325555950065244e-02 4.476580436859110557e-01
-2.581335608296535678e-03 4.058640531010326152e-02 4.552891783480567667e-01
2.129981276528040458e-03 6.850559563695442222e-02 4.697126620361338212e-01
-7.824735699821991353e-04 4.164955306611671515e-02 5.270458642085360523e-01
1.842387520574218299e-02 4.272391092230236331e-02 4.645060302473663638e-01
9.349036780139492742e-03 8.271031042593699270e-03 4.443859772556791321e-01
-9.220342133956187583e-03 1.394130135958809164e-02 4.426434896258420459e-01
2.022084017743880704e-02 5.368247878765682740e-02 4.722841115109545074e-01
-1.730918639143933305e-02 2.947225948703516285e-02 4.472071820427532263e-01
2.185198024768190625e-02 4.777384153879925960e-02 4.698332390836296724e-01
1.402161852149245644e-02 6.959311814760898995e-02 4.779750266176403528e-01
4.503784570084452994e-03 4.919591193593750300e-02 4.608448145598861845e-01
-4.139440935202075289e-02 2.659741590569655867e-02 4.462096536780044698e-01
2.887711169837283223e-02 5.091043987635307522e-02 4.861633223817454219e-01
7.197243947608954716e-03 7.635242632861567735e-02 4.865742408606939517e-01
2.307745647482055754e-03 4.266229335305885689e-02 4.577415728426795227e-01
3.949673615944541971e-02 2.947185061591784186e-02 4.810630707179038845e-01
6.366534366260402297e-03 7.375437639449475280e-02 4.935742586560817879e-01
3.179902017940230974e-05 1.648025732351045269e-02 4.454940742928759079e-01
4.521857493250168794e-03 7.542279774169027839e-02 4.786361382888995042e-01
1.506534453393615011e-02 7.030482478423363824e-02 4.812162968202698954e-01
-8.591422175087265467e-04 2.916730910315421324e-02 4.506483332754753213e-01
2.772418249232690840e-02 3.095442869529895641e-02 5.159426296091222941e-01
9.955858597666327608e-03 4.445008976098280967e-02 5.221105359355715514e-01
3.621768973990613372e-02 3.507239277573852287e-02 4.960685912613957416e-01
-1.378770986799161304e-02 5.943106660804293312e-02 4.615673750424558741e-01
8.882194581273976375e-03 6.044292700365273829e-02 4.678061190404749770e-01
1.060741899672196231e-02 4.778779451807160794e-02 5.194496584001674355e-01
2.498474372715778560e-02 4.334841587501789967e-02 4.696934014225674359e-01
1.785882460142499545e-02 8.493461420573982651e-03 4.469499675265546368e-01
-1.460909514415816360e-02 4.155297764958216199e-04 4.375183585924322105e-01
