1.378088343170848391e-02 3.953241240874160595e-02 4.607989926402404901e-01
2.503056014737779084e-02 5.806972272200248975e-02 4.895934773616327229e-01
2.035615043648846684e-02 8.203385974778036605e-03 4.478997841996246732e-01
1.877340973410980204e-02 4.928816246898827524e-02 5.131937736005470763e-01
1.067051482607696625e-02 5.942826620717385488e-02 4.686753224138221485e-01
-1.191883912834627683e-04 6.608751479456005662e-02 5.071099956071751791e-01
-2.826533063229340684e-02 2.271716768380057164e-02 4.441350509599097940e-01
1.406777574697878203e-02 4.613895300572060792e-02 5.188944329267803912e-01
-3.910188300852156934e-02 3.887564950859925123e-02 4.514885639161836384e-01
8.017189981102736465e-03 1.353343913396400089e-02 4.465868966715760835e-01
1.023204690370194993e-02 6.518997360858742873e-02 5.078026561237950487e-01
-1.664658825857453020e-02 3.279876050665143233e-02 4.491574930910930963e-01
1.860754445858690733e-03 3.401698707170951186e-02 4.539899204192822113e-01
2.182965642491183772e-02 2.025243402822320994e-03 5.335308891973563616e-01
3.139279070456537334e-03 6.402691770632171209e-03 4.422435500804935971e-01
-2.768439977457770682e-03 4.018033470115927458e-02 4.553949246621632474e-01
3.580819992688003689e-03 5.244746218047799391e-02 4.619877067067124643e-01
1.906913630913206759e-03 2.836103473493835347e-02 4.513154937746671758e-01
-1.069259697359798908e-02 5.385969476218286506e-02 5.208210345799768604e-01
1.547408501286975935e-02 7.019221467630291922e-02 4.922224379565774410e-01
-1.176518738355199906e-02 3.600487217021689640e-02 4.516604939762446369e-01
-2.548965751366900206e-02 2.183027136326061782e-02 4.437732984813735904e-01
-6.000761644509496409e-03 5.626821799438747745e-02 5.203423268838551774e-01
2.014052239008545450e-02 2.629119750473585954e-02 4.565023697013376180e-01
-1.640474568878163165e-03 1.173878563565285485e-02 4.432456962328500394e-01
2.727614394922394520e-02 5.120208340993642054e-02 4.973105789129942944e-01
6.943346691714332927e-03 2.337964658597293729e-02 4.505973486349796886e-01
1.830769642987305559e-02 4.291844216425758085e-02 4.648360912191705774e-01
-2.453878042334138240e-02 3.230277796491306391e-02 4.478361470234051844e-01
1.428608301851532619e-02 7.207873134233831747e-02 4.880456992864419252e-01
-1.167060654522446284e-02 1.380024533352585021e-02 4.422242517491349334e-01
2.254548331296368779e-02 4.791210746853469954e-02 4.708069183766934729e-01
-2.823381996250105830e-02 2.197482261441716100e-02 4.438945200727217322e-01
1.425828801773973073e-02 1.227036806954181353e-02 4.476883184587522879e-01
2.508901067714564004e-02 5.168641080706258550e-02 5.023425306342464980e-01
-1.161848937341824345e-02 3.788354720219069133e-02 4.525941175762527302e-01
4.413315908203430116e-03 7.186947149804411017e-02 5.011198795793944116e-01
-6.440191393981349773e-03 5.819303983852640305e-02 4.609517576979686448e-01
1.126307696942527650e-02 3.140595708816255188e-02 4.557675920596640506e-01
-1.308660556815607846e-03 6.376958237037649857e-02 5.081669793400671598e-01
-1.990788477083738073e-02 3.833066299632181123e-02 4.511481752865378891e-01
2.785764558146108100e-02 2.912247155196818690e-02 5.185653467206957634e-01
2.843070792506111749e-02 5.070212212428190646e-02 4.817837010125921027e-01
1.917046053426438995e-02 4.916336205059178982e-02 4.688590330343540558e-01
6.968424139703692163e-03 4.805589939097719421e-02 5.226105434517464010e-01
6.235714206756136357e-03 4.242332707486035082e-02 4.592973566630605964e-01
-3.981339952684390116e-03 5.885586865990090344e-02 5.171597668635430356e-01
1.259831609970802485e-02 6.906004191749233467e-02 4.993975509287614245e-01
-2.055209929968502495e-03 5.028851958338465683e-02 4.593009319182811967e-01
2.914623694029230827e-02 4.868873945185357016e-02 4.965011958020342231e-01
5.050223606054831706e-03 7.862394559922465664e-02 4.832248567357503855e-01
-1.756731682963656727e-02 2.154370711166480115e-02 4.442038900816113745e-01
2.673438519830052817e-02 4.885990344225842053e-02 5.032064604758146320e-01
-1.865770136161193360e-02 4.717875911261865118e-02 5.279676442159549898e-01
9.919319136067011183e-03 4.372600389410122995e-02 4.611854247344594482e-01
-3.869962510720457299e-02 4.060173567905675518e-02 4.528860168913345641e-01
-2.167949039577700757e-02 5.016093473307090683e-02 4.567475526622157833e-01
1.552014246821356060e-02 9.662840101510602672e-03 4.469023903229205064e-01
2.605928702295680008e-02 5.669930277509702132e-02 4.869324001685574888e-01
3.063111330264019563e-02 2.542196836303119156e-02 4.630295207400179636e-01
6.474409181693341342e-03 7.506379223380231502e-02 4.906929929785174838e-01
-3.049873649794056577e-02 2.330049272219691589e-02 4.444118169283879927e-01
2.355489563430657185e-02 4.091341976298391858e-02 4.673101093978704879e-01
-3.880547671620021566e-03 2.920157138082080106e-03 4.396544723520917075e-01
1.541322961720799876e-02 2.564863569988562464e-02 4.542948635893593878e-01
-2.880921146931143297e-03 2.375547760869753736e-02 4.480608336967184524e-01
2.923014946943272574e-02 4.542710687601812097e-02 4.759582291462123305e-01
2.422614552268236368e-02 4.919439910232639712e-02 4.735754629505963820e-01
-1.774750667988866937e-02 4.059215577727304930e-02 4.525412533188986064e-01
-4.251146687481475311e-03 6.797759447991534587e-02 4.685752658604092069e-01
2.783173751239272943e-03 5.023770623738500404e-04 4.400935742447878440e-01
3.621420523198479180e-02 3.759740600397644406e-02 4.821082086769606923e-01
3.377714528139801747e-02 2.733852056527277807e-02 4.670834394144880442e-01
2.606676911652852646e-02 2.976618437219482119e-02 5.203096969955554041e-01
3.161107259590898583e-02 2.268198985366641496e-02 4.622309816909420110e-01
3.425853866456933516e-02 3.388932528130596950e-02 5.022765656738815698e-01
2.590795311122845446e-02 4.849694571574503926e-02 4.750132544615664476e-01
8.566265670662740611e-03 7.503758636288078779e-03 4.440210736355076349e-01
1.959332608513100066e-02 5.108310621356983855e-02 4.702980124093378289e-01
5.736725725307445858e-03 4.527822667623147140e-02 5.241249745776579427e-01
2.723769731799420557e-02 4.267341608611822240e-02 5.088305892480050607e-01
3.731102156576814044e-02 2.340422106858404058e-02 4.679901326657173177e-01
1.335282726434788847e-02 7.321680114405257345e-02 4.864490012630116600e-01
-2.310310727428739955e-03 6.162275862306587637e-02 5.089661695029747968e-01
1.450259617535071786e-02 5.251776753992605865e-03 4.445653238611290137e-01
-2.491469671629819443e-02 2.200541013706518861e-02 4.438555489615331195e-01
1.021132449404082640e-02 4.765857271219590269e-02 5.205913989879032977e-01
-2.258337349390870594e-02 -5.834180536343725951e-04 4.371466128820759023e-01
8.471052468097284641e-03 2.047272095484608395e-02 4.497415230859690416e-01
-2.286824811025879589e-02 4.798078352013292192e-02 4.558294874141101127e-01
3.667980081376231993e-02 3.456602423714416616e-02 4.786970057550601343e-01
1.686591456411851500e-02 3.456070577805606114e-02 5.239663168126996728e-01
3.202813911243571066e-02 3.208787684672894519e-02 4.685292398914970291e-01
5.630629798019675357e-03 7.405326587757783685e-02 4.921108251679598422e-01
-2.679385521013950486e-02 9.901736695256324258e-04 4.381401084910083732e-01
1.999548312810151690e-02 6.558403699250374419e-02 4.898038921728927741e-01
3.508236896408606365e-02 3.990810007646029139e-02 4.859464517127889405e-01
3.020057074459522525e-02 3.227612596882502294e-02 4.669417589032124338e-01
-3.220433760709010690e-02 2.248664449477956809e-02 4.442172622378186553e-01
1.774557937311981373e-02 5.882079809298971368e-02 5.062712605126009624e-01
-3.297328176838708325e-02 4.087857663461698376e-02 4.514640605364151349e-01
-1.597716293874188245e-02 5.173246974562739631e-02 5.257012716264605201e-01
-1.303630315579876013e-02 2.880283385008447147e-02 4.477904681817284627e-01
-1.212636214448556361e-03 6.506955985054441172e-02 5.064760730424108237e-01
3.470015101514961620e-02 3.696410461095255007e-02 4.995456277258945033e-01
1.854852667299054791e-02 6.752884721262214507e-02 4.860766747714996283e-01
1.033762029222652125e-02 7.411395659095612598e-02 4.935499634782671841e-01
3.013446962196559414e-02 1.658951761046975962e-02 5.241114577020004051e-01
1.538144567806877354e-02 5.320299798190544771e-02 5.138225620515437519e-01
-7.973994302624408045e-03 5.925114329098130073e-02 4.610724124222306819e-01
-1.535991401853552957e-02 2.584355239654835198e-02 4.463252798489990569e-01
3.016873349575492289e-02 3.803148862765647065e-02 5.070065424232701456e-01
7.378743856054002098e-03 6.044324807968737279e-02 5.131613391390136281e-01
1.384499969817305776e-02 1.913677393440661734e-02 4.507691114948024214e-01
-8.728221598682930904e-03 5.165629956766964320e-02 5.263629579764432798e-01
2.453491044254697828e-02 4.478767017290000152e-02 4.704978555343584112e-01
1.965749210543954809e-02 2.021553558325294223e-02 4.527271306239421533e-01
2.758649863382145895e-03 1.174805464270574015e-02 4.443703090910861020e-01
1.576847140949393100e-02 6.900049213632339362e-02 4.804413198562367815e-01
-3.569122459771240791e-02 2.228753151541239264e-02 4.445467490805364297e-01
2.756174376267084974e-02 3.156507843675066677e-02 5.154917001177227176e-01
-6.651020627243381042e-03 4.185758446185935261e-02 5.292382096013805715e-01
6.595202194317388231e-03 5.369614842295081930e-02 4.638595950038816862e-01
2.278421217970641108e-02 2.005821370347301777e-02 4.543645073494005371e-01
2.601390638611932732e-02 3.994134823990648508e-02 5.114033370242285770e-01
-4.907283668603457452e-03 1.904397611971061013e-03 4.391256084408736715e-01
2.166605561264829671e-02 2.643362154013221763e-02 5.256370361848532458e-01
6.829631107781927550e-03 3.245221939490572360e-02 4.548598047851877268e-01
1.557381881777926587e-02 6.092281041210900056e-02 5.070958215340262143e-01
2.699742147420600841e-02 5.372813126376198983e-02 4.822362996683420833e-01
1.970897782678725230e-02 5.388708571861096364e-02 4.721329173397885159e-01
-6.120878207270253647e-03 1.710241673923984518e-02 4.446151061630170820e-01
-1.255654544034164391e-02 2.068482841085357918e-02 4.447901812146875522e-01
4.469044422158156664e-03 7.804400363322763767e-02 4.812813522803880972e-01
-2.419815055469804257e-02 5.329315540913576871e-02 4.585477123931560595e-01
-3.997387167425278665e-02 3.678251531840327077e-02 4.498098853144121279e-01
-3.521834484824184000e-03 3.306202103617249255e-02 4.519998140270605202e-01
-1.286200511698661238e-03 5.933270236044991403e-02 5.167361431078734135e-01
-1.894057554737048690e-02 4.391692283303873234e-02 4.538560355971872351e-01
1.963387338327491835e-02 6.576391374759445185e-02 4.908350071524683611e-01
1.627684468643320406e-02 2.029619271765118610e-02 4.519765036989655260e-01
-3.243035539848416332e-02 3.416039869399023488e-02 4.482467060557294714e-01
3.531023267660951537e-02 3.969123769881094388e-02 4.845459582945826904e-01
-1.192915338410468346e-02 1.267812220703121509e-02 4.417143657061310957e-01
3.665281827892290234e-02 3.507242316458170084e-02 4.793817547147123381e-01
7.663436246610308596e-03 5.501578532297531077e-02 4.650489251103980815e-01
-1.801817765047270155e-03 6.451646945709245407e-02 4.663456948185013551e-01
-2.633024341260604279e-02 5.745353554608823715e-02 4.647013749711854103e-01
5.955647498645730287e-04 4.344368725633097894e-02 5.266957304614253710e-01
-3.215323628045589632e-02 4.107841208442001429e-02 4.514008651629981550e-01
-1.200395630091024429e-03 4.048786150245580612e-02 4.560291400886636870e-01
1.357622423190247944e-02 6.665588975074625278e-02 5.011484882975423272e-01
-1.116236876410708553e-02 2.723390253873171629e-02 4.476324277136902730e-01
3.205723508166906724e-03 7.109559512059253350e-02 4.733493585143140336e-01
1.076934139540344261e-02 7.102539946497460344e-02 4.763053799883290029e-01
3.576638815460357612e-02 3.859615782611985207e-02 4.847650899349068565e-01
1.605273803984424291e-02 6.663225207347529822e-02 4.972602738999113980e-01
-2.523670806414404083e-02 4.544677006666131974e-02 4.541199911308558268e-01
-4.845843731893889096e-03 3.352912043103518924e-02 4.519165115373224295e-01
3.104151324445746443e-02 3.045070179929186549e-02 4.665310787754237132e-01
4.757979801791281660e-03 7.012471051169140435e-02 5.039268909416022568e-01
1.958794112685055544e-02 3.697266248146433010e-02 4.620955769843833605e-01
-3.971851743350370695e-02 3.050628471862400215e-02 4.472935941811587712e-01
1.021455978599123196e-02 5.369549359218574180e-02 4.658574433599655951e-01
-2.194462919232833403e-02 7.367346881801089056e-03 4.387260942031102062e-01
-2.313917822555497730e-02 9.238220388547909237e-03 4.393069191413615515e-01
7.486355330443182458e-03 7.628777156140746640e-02 4.868602074310039995e-01
4.987850971503473424e-03 7.147209851349278775e-02 4.733552536710997627e-01
3.479319404335588783e-02 2.435079840605514426e-02 5.088131045494812543e-01
-2.676433379027523540e-03 1.558933402388841712e-02 4.446206029949156258e-01
-9.825556459188729622e-03 5.530131697578879318e-02 4.594720427296564158e-01
1.413558392405123848e-02 7.247471247902113889e-02 4.852450546711510881e-01
-6.499425711333207262e-03 1.255206526748215562e-02 4.427214612739137078e-01
1.625430853734471937e-02 2.482610323652888890e-02 4.542050585647567917e-01
-2.507469745984344106e-02 5.746572752481571983e-02 4.630481717384896667e-01
-3.394222482827946585e-02 2.420477143402015308e-02 4.448455559067525100e-01
1.147495119105300734e-02 3.475651009844992617e-02 5.266509453864010037e-01
3.460449636018293751e-02 3.229821528904897737e-02 4.711340688713291924e-01
1.329709017400175844e-02 7.173229385925951329e-02 4.943779768814725029e-01
3.910776332650763194e-03 6.378980886965003594e-02 4.674582009528590043e-01
1.423379067919649035e-02 3.276850120691752327e-02 5.270411189468886537e-01
-9.169335841885834296e-03 5.457891214392721069e-02 5.233472771958053160e-01
4.985072593624155154e-03 7.352389481664579896e-02 4.935118222660077048e-01
-1.122327086603795016e-02 4.367211816213844959e-03 4.389602781587217950e-01
1.590263610357232904e-02 3.544962250447375451e-02 5.238567737016620596e-01
3.762866206759439558e-02 3.262672820568621179e-02 4.789176119514065855e-01
-1.174209317530454898e-02 1.977957659828000203e-02 4.445924482018561164e-01
3.345956995464510753e-02 3.915674752830611283e-02 5.006859003413109965e-01
1.617258834270103585e-02 5.236131817060851734e-02 5.136292420172379192e-01
-1.751664600845039693e-02 2.654727551807677111e-02 4.462140070537667369e-01
3.357477028624394205e-02 2.556889218984183254e-02 5.099283674129138078e-01
6.920162339947352921e-03 6.404941911372867558e-02 4.689852366919226578e-01
2.421182477980643802e-02 5.417243374993649385e-02 5.002250983487230851e-01
-3.389064590852703535e-02 3.432861165937475725e-03 4.396807244020635719e-01
7.894058866872284697e-03 1.403254461431439979e-03 4.415989428726328492e-01
-3.846186253972864143e-03 5.536670369741607256e-02 4.605484999412476355e-01
1.358628679511196362e-02 4.016467907446360369e-02 4.610443704875901716e-01
1.478317537077342321e-02 7.015131298465067389e-02 4.942963159483548807e-01
-6.841902385460344599e-03 4.601361361587130716e-02 4.566856099316433104e-01
5.698843055105797840e-03 2.591015405780093539e-02 4.514156424839015913e-01
3.796422679058913952e-02 3.330485129010535977e-02 4.891572460789923582e-01
1.708126376232571228e-02 1.172306669172351254e-02 4.482749543678973825e-01
5.172685992142698509e-03 3.798436046024154800e-02 4.569881210611744793e-01
2.501971904810558825e-02 5.739309299234889722e-02 4.910942385481663619e-01
2.446359198186594600e-02 5.943374876689501429e-02 4.882519138032109240e-01
1.676461291096630751e-02 6.150749093431899517e-02 5.041676485069080949e-01
2.268188577702113379e-02 3.187744754589819790e-02 5.225273618446939494e-01
2.905772193184212940e-02 3.356378388812062546e-02 5.111682100054373290e-01
3.465692478059750198e-02 4.053999208060546366e-02 4.899425487472406915e-01
2.961726250995924681e-02 1.775238834807612437e-02 4.577111435226879910e-01
4.511453310397113732e-03 5.767062244363246187e-02 4.645919372212761744e-01
2.502359872211791514e-02 3.347983011771468037e-02 5.164030886410555521e-01
3.193740960767576381e-02 4.425362351359653224e-02 4.964939016601870314e-01
3.481591845655410133e-02 2.886491507676463425e-02 5.049132054902522038e-01
2.172794546576089364e-02 5.641413703812660912e-02 4.768564968508156032e-01
1.551276352824289273e-02 6.368017516960804147e-02 5.021484775176745519e-01
9.428575954503675555e-03 2.553513099436164474e-02 4.522944399602967791e-01
-2.727757994060149224e-02 4.940676339803009263e-03 4.387165814452246848e-01
2.169934103257254582e-02 3.301658226553989134e-02 5.223973106695579682e-01
8.004494909275527287e-03 7.266968628852292500e-02 4.999663429607792975e-01
3.907122449379128726e-02 3.068253374598868891e-02 4.884118686547528343e-01
2.864833568036689176e-02 4.218278926760057890e-02 5.066484555932434519e-01
-4.023047368033534632e-02 2.986167734989966446e-02 4.471890047762029363e-01
-7.417768904478530198e-03 5.729043541007491913e-02 5.183657600837744406e-01
-1.065117414273005630e-02 4.283968769426007434e-02 4.548057948507995829e-01
-3.083010107338808592e-02 -1.420579558319121994e-03 4.385662584810871012e-01
2.830692907996065072e-02 5.157997312250713062e-02 4.932346624590733253e-01
2.004945304919042090e-02 3.817370440199346904e-02 4.631401078254545611e-01
3.045026797608440389e-02 4.800961509282571787e-02 4.827201148004931497e-01
2.538165407537440466e-02 4.865616381236980564e-02 4.745502390770144352e-01
-4.010534826746331438e-02 2.914521974960620695e-02 4.469792256788869267e-01
7.592025614824471358e-03 4.944596280590593529e-02 5.212360545571381731e-01
4.178697219202030105e-02 2.412825414871339058e-02 4.844074645188642392e-01
1.910511409975024222e-02 4.531037351210510239e-02 4.667383082258645399e-01
8.472135838877405470e-03 5.368825817284205576e-02 5.172998419801737580e-01
1.606155374900022567e-02 3.784546670797719198e-02 4.608447623203271171e-01
2.395616618065263270e-02 4.823928269317578899e-02 4.722221159580785588e-01
2.535576272201954875e-02 5.117647123282443450e-02 5.025438353985784978e-01
-1.265251483283431552e-02 5.058117221267906249e-02 4.574242628225934637e-01
-4.979633761060361236e-03 -2.907409020461615597e-04 4.383988866194144518e-01
-2.193817385041216608e-02 1.855402396902229578e-02 4.427744846321675087e-01
-2.735145455125946590e-02 7.414359898400195090e-03 4.394095374065170589e-01
2.091072786032917991e-02 4.770135425617527680e-02 5.123468853911117282e-01
1.418057691626914071e-02 7.132279232501653743e-02 4.813301453572680355e-01
8.808384963269832654e-03 7.276349020748333618e-02 4.770704501597191061e-01
-4.186977801185823127e-03 5.876520612062084009e-02 5.172006825683358455e-01
2.393930341849649299e-02 4.848580499375368391e-02 5.088402438579791021e-01
1.935338761527425483e-02 5.467616350093842947e-02 4.723836350307291099e-01
2.587209632845326873e-02 5.060697075305731901e-02 4.772670207846825829e-01
2.628750795036089924e-02 4.579112736874844936e-02 4.726745813732838308e-01
1.443068225033172780e-02 4.899968255931004546e-02 5.170720880329392477e-01
-3.362066759285316231e-02 1.207845446790366132e-03 4.393573636202504074e-01
1.191215880321732680e-02 7.208457643171142792e-02 4.966876136184769641e-01
3.747784916409633432e-02 2.857431646971195574e-02 4.998890519985296210e-01
1.849016083279546654e-02 3.107791730654251711e-02 5.262941862996434184e-01
1.643892793935807298e-02 4.963230837404473961e-02 4.672259495936815221e-01
2.368076478298490953e-02 3.659862835034125711e-02 4.646347880539213882e-01
-8.827326137926543373e-03 5.654497699603113631e-02 4.599986690413568335e-01
4.091390823512094238e-02 2.356498429530582209e-02 4.944188522697525734e-01
-3.014723307559596249e-02 2.489459279302604772e-02 4.449166822657385501e-01
-6.011596688150905310e-03 3.314295502500447937e-02 4.514665000213168300e-01
2.427027414924308457e-02 5.109548394106902536e-02 5.047562755339346507e-01
3.659033831184215629e-02 2.422737773162230226e-02 5.059070089082532418e-01
2.604211544743676582e-02 2.206251182709625946e-02 4.575041003987582733e-01
3.520289525595392266e-02 2.404058640558076609e-02 5.083631907711474440e-01
1.284724307863040378e-02 2.739374703437542219e-02 4.542918605652865316e-01
4.629088709799057157e-03 4.835608444171991642e-03 4.419720168584812536e-01
3.420873906941614140e-02 4.148084806155173665e-02 4.905500662656714361e-01
1.854705527254113528e-02 3.140407964063015450e-02 5.259465288321389931e-01
2.385875834353619676e-02 2.483842405979619361e-02 4.578058397123349055e-01
8.904791000283809876e-03 2.388679252060013289e-02 4.513377778000715046e-01
-4.006071032028857976e-02 3.932010186473387098e-02 4.521357888766086019e-01
7.729905841579395170e-03 1.844504864788694409e-02 4.486416456601262093e-01
-2.529624215371078025e-02 1.558429304866337101e-02 4.417095586043750521e-01
-1.765388924107938289e-03 6.962387933632795123e-02 4.716056944655828143e-01
-1.204864291844550718e-02 -5.263147160163593463e-03 4.368992273176292573e-01
6.886508459879944408e-03 3.031704785862256515e-02 4.538062584966278679e-01
1.849726027945228918e-02 3.514512647309313981e-02 4.604256127828228462e-01
5.052167745878635534e-03 3.905687568124405207e-02 4.574339517098640617e-01
1.803146086890414224e-02 4.665718468660029483e-02 5.157463761078212583e-01
2.415165556726078105e-02 5.850283541269473558e-02 4.918466650685958119e-01
1.366567180886959013e-02 1.831590859277675704e-02 4.503555594739525603e-01
1.449292297811606914e-02 6.251874231633940127e-02 4.730685757494646482e-01
-1.773264584729431978e-02 3.487613666078416552e-02 4.499128601439729147e-01
-1.039288336037268515e-03 -2.701459588286617142e-05 4.390456349314466600e-01
2.325799370032226310e-02 5.987016539692078393e-02 4.819945867217627078e-01
-1.303139310351441194e-04 5.293781240036140451e-02 4.606588886855169651e-01
-1.374570648660383351e-02 5.178402602357702611e-02 5.228017924365508939e-01
5.657222362990994846e-03 4.290498515093808113e-02 5.248440181547002759e-01
-3.057779701345605256e-02 4.693719916522864216e-02 4.557548490186318357e-01
3.671159937792994182e-02 3.633882477076112033e-02 4.837927384513006079e-01
3.906594129566024788e-03 6.039847333515659805e-02 5.144412269865914489e-01
1.857579918856448395e-02 6.155287039095394541e-02 4.771240122064779321e-01
1.624988306264963864e-02 5.524354349211124671e-02 5.120508410783883857e-01
3.961913642601244678e-02 2.863378859901009876e-02 4.911684667607693622e-01
-2.097066721886336679e-02 3.980690072325469148e-02 4.516575128244413317e-01
-2.282263302948003836e-02 4.472861312050332994e-02 4.537474483125841784e-01
3.160444026339697537e-02 2.273064454957297864e-02 5.178015489960188233e-01
2.946881855351268786e-02 2.951300351844447778e-02 5.143705319452159808e-01
3.504807762785557695e-02 3.488201682612193655e-02 5.006998805150054688e-01
2.137785085458399070e-02 3.318200490842433681e-02 5.225880777210516470e-01
-7.786811998186499856e-03 5.341807559677689415e-02 5.250853030140621991e-01
1.149990394202034943e-02 3.538149427979891959e-02 4.578106325703619195e-01
-1.826424388657914982e-03 3.252583142063393551e-02 4.521673094290601935e-01
-2.765085895907154825e-02 4.985118666718003910e-02 4.569544248719363266e-01
1.048296002014737112e-02 5.675020409990837872e-02 4.673906957440204790e-01
2.262069122548322070e-02 6.017965528002637565e-02 4.936578103115342731e-01
-1.912383275889984954e-02 4.941460914721808317e-02 5.271825325501016124e-01
9.290148638041999252e-03 3.425627900368827770e-03 4.425918587276724270e-01
-1.733105928404802057e-02 4.533261339333257561e-02 4.546863118162047801e-01
9.536260068391882398e-04 7.002098775453011181e-02 5.005282360870134672e-01
2.669185054014746802e-04 1.511141881443280217e-02 4.451604406070852615e-01
-3.602741213124235897e-02 2.185204256181726493e-02 4.444828298104435693e-01
2.743504499556838686e-02 9.544304084533716814e-03 4.521314372612332266e-01
-3.601202374674315754e-02 2.986095488572558174e-02 4.466352230758580677e-01
-1.071768894404097339e-02 3.651479881756729273e-02 4.521218308274450037e-01
2.220688521084377906e-02 2.992700204434948011e-02 5.241657616456862900e-01
2.232037237983389155e-02 6.243488448146914532e-02 4.835384714606147938e-01
3.968209646904169441e-02 2.904082478518170418e-02 4.885659287948951879e-01
2.035188735027069692e-02 6.223242481900077144e-02 4.965576274455970052e-01
1.764210891304898721e-02 1.140413233035448073e-02 4.483030425091609761e-01
2.160772844578851340e-02 6.199899484610056632e-02 4.931678011279529983e-01
1.427515060555828875e-03 1.531139319183704058e-02 4.455399011807258947e-01
-2.698445032784838396e-02 8.511632276690644233e-04 4.381545147258971151e-01
1.452810452546787062e-02 6.952467985612789669e-02 4.956533877581529857e-01
1.319379470486289202e-02 5.870878916838757899e-02 5.116491782029114477e-01
1.534733007466883292e-02 6.941217199441337971e-02 4.801806697957323178e-01
3.319516461812624386e-02 4.019629124108951151e-02 4.995230956027957858e-01
-6.744577518994898137e-03 6.028993229410814503e-02 4.617742553766635005e-01
-5.620332612640756287e-03 6.729096340076512472e-03 4.407883184235576457e-01
-2.112541628822213122e-02 4.363582010627044261e-02 4.533615593927066145e-01
9.300325490586862712e-03 7.191092790822325997e-02 4.760221891104053360e-01
-1.365945966159136729e-02 6.369334362622434617e-03 4.391224079021605609e-01
1.946707810175836439e-02 5.246045994986715116e-02 5.109282158218655390e-01
2.833449184917561856e-02 2.589453548544142295e-02 4.612815650779392151e-01
1.006755591372189909e-02 1.538740035655900354e-03 4.421411182172909071e-01
1.551501688770013342e-02 4.304839193763370514e-02 4.632339464730579337e-01
1.245927373445120459e-02 7.373081902355640982e-02 4.839856985574185755e-01
-1.746411743790930032e-02 5.019593268585205437e-02 5.241007587528019318e-01
3.815020516081109314e-02 3.289935299565324017e-02 4.812677436747739290e-01
-2.505299269930772940e-03 4.338290995359581070e-02 4.568066231796031884e-01
1.031358490081934684e-02 5.306507804093379965e-02 5.169120445622434890e-01
3.757666759606934775e-02 2.929331417250643013e-02 4.992307258707571749e-01
1.082515011173378928e-02 7.366616969910254331e-02 4.804001110360903715e-01
3.400798927418967332e-02 2.278231996592159844e-02 4.642808967169881895e-01
1.676561036625119280e-02 1.980032524451038126e-02 4.518600042520988236e-01
-3.363254944969440441e-02 3.456965041365533259e-02 4.483984140127812990e-01
6.846752020968035687e-03 6.905345025835379902e-02 5.055482987219745983e-01
6.865178220033507465e-03 7.256840456151734953e-02 5.002197323214123692e-01
3.307817684883107567e-02 3.815900281358683421e-02 5.025035537051701917e-01
2.647870692568615389e-02 4.139008358227341117e-02 4.699356979245349897e-01
1.089007487120503305e-02 6.417100063609552929e-02 5.083018991178667179e-01
3.498345991533301919e-02 4.037628174027012989e-02 4.848437107955785308e-01
-6.556818891878678397e-04 6.215558807748518266e-02 5.130502153810601040e-01
-1.811942153148858939e-02 5.640637546861208829e-02 4.598590708836268748e-01
-7.249864130864626388e-03 2.734947319776617758e-02 4.485315755505613899e-01
4.101906323270668696e-03 6.013767461288041516e-02 4.654616833776354934e-01
1.983573584931408451e-02 5.708985274868808718e-02 5.047664694049824874e-01
1.947897187332146840e-02 5.950659982872890524e-02 5.020117949210405328e-01
2.363228441119265277e-02 6.333400093300601066e-03 5.322045859827873038e-01
-1.564369081069605025e-02 1.887803587386533560e-02 4.434744952361681092e-01
3.855339686062730226e-03 5.010786095006784097e-02 4.612461390586161669e-01
1.870991384666605833e-02 6.458921769564787696e-02 4.961269899894316104e-01
-4.317709014550100838e-02 -6.140391357732602907e-04 4.412396313425133720e-01
2.067463982903027311e-02 5.362533509739307591e-02 5.078792546189278001e-01
-6.924280818865220094e-04 4.107349997999701352e-02 4.564375571120632413e-01
1.998426788145130084e-02 4.578201919048399682e-02 5.146572899489374464e-01
1.764477027213112031e-02 6.840019094820588841e-02 4.843996018401239834e-01
1.707024112517006170e-02 6.447931209457367918e-02 4.776129917879810005e-01
3.307559689187736240e-02 3.342567469222416932e-02 4.704029019013198920e-01
8.168150548006070100e-03 7.442969232910445765e-02 4.927277159695343522e-01
2.517533803333365031e-02 2.873720859480447670e-02 4.608501164765240188e-01
-7.749795858129074171e-03 3.239329314509040159e-02 4.507121541337119619e-01
1.562285057519236312e-02 5.776729544488279355e-02 4.712442338307835099e-01
3.157581354491367787e-02 3.627352120882879755e-02 4.709192353115845830e-01
-4.234994530435451376e-03 8.612683600932683273e-03 4.417213832671083584e-01
3.217220409356409683e-02 3.323615086555804093e-02 4.694234246193569327e-01
1.296449043418309958e-02 3.396641432896951168e-02 4.576316135225100279e-01
3.437344837306249845e-02 3.035261923014409211e-02 5.043512512132802827e-01
-2.057212305869034197e-02 5.930454762660786194e-02 4.649846805843708686e-01
-4.585217210170136441e-03 5.986462402123624710e-02 4.620176111065795177e-01
-9.878382685126300966e-03 8.283835135220022489e-03 4.405594305470041938e-01
-1.025952518790933937e-02 5.090728904235338609e-02 5.270804758511485888e-01
2.796521842589051038e-02 5.100872750729534832e-02 4.957922979051395118e-01
1.591418234025514938e-02 5.772947508419538215e-02 5.109420758733249635e-01
1.555446595645158976e-02 5.833570007690207920e-02 4.715107973356698623e-01
6.003468515108189262e-03 2.083382526058155659e-02 4.492078715156469504e-01
-3.608095330379819388e-03 4.509823475253259273e-02 5.273341319356927848e-01
-1.350660408826504996e-02 4.457371851308799399e-02 4.549046941341849948e-01
7.520471460313805229e-03 -7.958030588453681234e-04 4.407730730563357291e-01
3.012169708295455925e-02 4.829285714914215849e-02 4.943756095582074739e-01
-2.547335400007593592e-02 2.469298411835693652e-02 4.448128396513858496e-01
2.538565624064520986e-03 1.517314215085790313e-02 4.457671908890600276e-01
-2.382789692470963991e-02 9.793979965788341194e-03 4.395914431753977225e-01
2.762709924277045176e-02 5.246095146386938607e-02 4.930106448622094129e-01
-1.477898252817779617e-02 3.246520582625055107e-02 4.493135222657832495e-01
-2.131826818230536658e-02 4.228746445134313331e-02 4.527170451976996746e-01
1.337300543389793005e-02 5.679695752793810504e-02 5.128333651884263711e-01
3.946748266584076958e-02 2.991423498846309051e-02 4.830058839515167790e-01
-2.188572159937673955e-02 2.204746820435331267e-02 4.440116860603390836e-01
2.514907759684607835e-02 1.239771144034014158e-02 4.519177929794221948e-01
1.170064393957527711e-02 2.128717141543545396e-02 4.510742834354408148e-01
3.530930829951817174e-02 2.802576199920100292e-02 5.047760216454514337e-01
-1.657670044980185872e-02 3.448923428279993680e-02 4.499416707526195935e-01
3.668381715290696538e-02 3.451350177875606162e-02 4.953530713738305558e-01
3.435888988915749426e-03 6.957537474119178389e-02 4.713532399022037356e-01
1.841171419860234207e-02 4.605030078955195394e-02 4.667056429523312455e-01
9.499022650022025116e-03 5.728522153977415321e-02 4.670934553386178467e-01
-2.030650247226070682e-02 2.567309190412574854e-02 4.455289942371908340e-01
-2.378644577542786409e-02 5.822978334267730344e-02 4.646064031284470874e-01
1.895214783619935880e-02 1.330679148902078404e-02 4.496875136354162583e-01
2.483492576043234284e-03 2.756014202217419579e-02 4.511217691306991240e-01
4.640846526395578722e-03 5.380760908988117125e-02 4.629859685300782846e-01
6.040247174014044818e-03 7.276038396190548374e-02 4.756105983511532131e-01
-1.899405659088474960e-02 5.872679077403746700e-02 4.622441709060789994e-01
2.512665768439462793e-02 4.542944946599349748e-02 5.101414420505556713e-01
3.554884325500898973e-02 2.711479754817575777e-02 5.052748215685431976e-01
1.496727207549158195e-02 4.714849176150755217e-02 5.176538108217861867e-01
2.695970192243872174e-02 3.872571572920075617e-02 4.685635757671333668e-01
2.473881121297034566e-02 5.230514937016223637e-02 4.772129865221258482e-01
-1.204876846201302469e-02 5.232139647184309850e-02 4.582977114872182067e-01
-8.529060866015569786e-03 1.066915414524453876e-02 4.416789125982335529e-01
1.549626019618975670e-02 7.076933130658384641e-02 4.881320928651289859e-01
9.763552221492730401e-03 1.420478538659807576e-02 4.473828424530584824e-01
1.361093792119733373e-02 5.647188593089724068e-02 5.129645301268924706e-01
-2.158568961789018859e-02 2.649568760902729775e-02 4.457901369220329535e-01
-2.683840497379377452e-02 3.333246758667956361e-02 4.481211746502998250e-01
2.680020006964234369e-02 1.077578803989608439e-02 5.277366327478566488e-01
1.523483297814043347e-02 1.902581954204231318e-02 4.511145923336056796e-01
6.294355919121367299e-03 5.138911295052577682e-02 5.210405320431320542e-01
-1.396481818429529814e-02 6.102592599935885431e-02 4.648756094979486497e-01
3.465015906942930241e-02 4.076132485912941500e-02 4.824150456645941443e-01
-3.907874121237573349e-03 5.586154082837919282e-02 5.213726449900575322e-01
-4.992933063354857565e-03 6.277379928378626350e-02 4.642447934836689827e-01
-2.191338380990237589e-02 5.586082775629352265e-02 4.598208313869703301e-01
-2.374734417402138073e-02 6.801430010955671068e-03 4.386342184864545080e-01
2.593187065355773147e-03 3.634259117088257246e-02 5.288733415395741044e-01
-1.839089361283352325e-03 5.504650843058282034e-02 4.608894964363163815e-01
1.439643012998570969e-02 6.090181481703185740e-02 5.087571091924540934e-01
2.881166372504077519e-02 4.247226132004785354e-02 4.726970743568524869e-01
2.262459607747447851e-02 3.398018435356776196e-02 5.202279110264649287e-01
1.524839572339709102e-03 7.448314041676677710e-02 4.803886352241379387e-01
-1.340957354112286282e-02 3.333474608849483489e-02 4.500132503396532258e-01
1.892735192518449003e-02 6.719414756918067055e-02 4.897477331199784345e-01
1.945498202254022577e-02 3.827629569317556046e-02 4.628083002990993067e-01
-9.405268256127318621e-03 4.615774175405158025e-02 5.283578250903938622e-01
5.743416665518783631e-03 1.922933502216079768e-02 4.484285505143336681e-01
-1.300273867620927587e-02 6.017150767385252147e-02 4.625403162531405710e-01
-1.994567238700964418e-03 3.762340333998755171e-02 4.544514580277424498e-01
3.252169983514496820e-02 2.843029969576364030e-02 4.665920484383782596e-01
2.611802509601269043e-02 3.959616112246942821e-02 5.116010694516527346e-01
-1.850650855286297206e-03 5.320984335850311581e-02 5.232675515334250793e-01
-8.686195905203437234e-03 2.193606944094298947e-02 4.460650947970823954e-01
-1.428949302629475317e-02 4.575173584687639017e-02 5.291854921617976659e-01
2.465901843044684266e-02 5.909257838490453857e-02 4.856074587904941064e-01
1.592606205189846941e-02 7.032388745049716894e-02 4.890971093735326791e-01
1.811899649639677271e-02 5.583013267965542675e-02 5.095193146078247359e-01
-2.210447320421568898e-02 4.276264890149052145e-02 4.528006359294324823e-01
1.708094103086805690e-02 1.581338435688031327e-02 4.500806803427563896e-01
2.335074645274765048e-02 3.671975334796702406e-02 4.644719703601227767e-01
-1.977734088771190141e-02 4.940746092657728045e-02 5.245434706905613975e-01
1.841522573631915530e-02 4.710289896494651574e-02 4.673004992673130409e-01
3.891775437442665520e-02 2.960815744524276233e-02 4.931061216026455529e-01
-5.753962902392539651e-03 3.991257701113645057e-02 5.291115595234515689e-01
2.080304697636304115e-02 5.737307486662727302e-02 5.025262691863174869e-01
-1.872696820388792399e-02 2.851625143143889443e-02 4.468133650248501398e-01
1.098177219422512632e-02 1.791937604870397910e-02 4.493691863195560243e-01
2.932651534190573728e-02 4.567431062474312797e-02 4.764666164019428218e-01
4.849491844290110959e-03 3.686052364066034343e-02 4.563686004438521349e-01
2.837992871704716341e-02 5.020324716552403838e-02 4.805927035290324389e-01
-1.514160137416292046e-02 2.881783658417287012e-04 4.375691778233622986e-01
-3.800861121097984241e-02 3.722877243365739497e-02 4.497226317002373519e-01
-2.593780996536702507e-03 4.058027351268427008e-02 5.289096529030112848e-01
7.033596928211013725e-03 4.226382201624785673e-02 4.595040201295139681e-01
2.357327573402890047e-03 7.565219506188268495e-02 4.850351198500488237e-01
-3.921261561623961417e-03 5.307726657996995195e-02 5.240783524798044990e-01
3.183594728391437451e-02 1.999649027093624437e-02 4.607804755690793064e-01
-1.759880885994041105e-02 3.134936040445893135e-02 4.483356461001074544e-01
1.638941629625479887e-03 5.075289078709534218e-02 5.238906233565391313e-01
1.531611841681823627e-03 5.538301531368746561e-02 5.193736680222538205e-01
2.208332094835180684e-02 2.798352963133956747e-02 5.251386853124007104e-01
3.574553626968810655e-02 3.847138424106845422e-02 4.819523756117642388e-01
-7.047891391554816920e-03 4.577522650386282171e-02 5.279294379171429741e-01
-1.516048726222794102e-02 5.445144234912997760e-02 4.588281649329206124e-01
2.890549391517218542e-02 5.008808370000118748e-02 4.821927715730058295e-01
-3.727524746240108711e-02 2.438095684174077307e-02 4.453547164307620210e-01
3.310797305765691978e-02 3.778292124030219190e-02 4.738053515441476571e-01
7.500955204579305008e-03 7.523662691888266529e-02 4.803693659576780961e-01
-5.174604861768438910e-03 4.516603819805025625e-04 4.386176410177358709e-01
-1.316723975090756081e-02 2.883442149097475288e-02 4.477726876927940469e-01
3.181502188496889566e-02 3.060072510062436177e-02 4.673395666139292803e-01
3.443001520814054084e-02 4.149393557175656833e-02 4.855427549092896644e-01
5.362157357965152520e-03 4.625343577985586985e-02 5.239645351700613629e-01
3.066869565275290657e-02 2.179019923312378731e-02 5.196572756499477919e-01
2.480126940145793019e-02 2.462906975470025017e-03 5.337067338437312403e-01
2.418505248374649974e-02 3.539172501557381889e-02 5.161261447464176033e-01
-1.309346008765087561e-02 2.978926598361593403e-02 4.482578823946476443e-01
3.060972458791735157e-02 3.524012197193970852e-02 5.077779461172208242e-01
2.609098164583765339e-02 2.135169883849337771e-02 5.247061522288133384e-01
2.194197174991333044e-02 4.744976565310995292e-02 5.116439652556221684e-01
