3.589874915883696851e-03 7.204730104625703402e-02 5.007285398794979470e-01
4.817069600420156514e-03 7.353140687454547131e-02 4.933761680059147170e-01
5.257328202466008717e-03 3.195102645935565117e-02 4.541802260326326945e-01
2.261450887693289627e-02 5.643166895947245021e-02 5.002911424520449790e-01
1.104948106866171856e-02 8.264125426097952698e-03 4.450226244739456383e-01
1.328138520453250870e-02 5.557606657852685178e-02 5.139838077563977370e-01
2.081300616659439995e-02 6.044228313036782013e-02 4.981241078689473967e-01
2.359573926696582544e-03 1.153780831396770436e-02 4.442447675981060495e-01
1.893415622687250402e-02 2.020467774269717534e-02 4.526199052820800706e-01
-3.900384726441190851e-03 4.691456997570429832e-02 5.271446801031314244e-01
2.380036276097624581e-02 2.329729778092228323e-02 4.569477433735871785e-01
4.967095814303143508e-03 3.034789564900652881e-02 4.532710641383995154e-01
3.244152086992362766e-02 2.880369624575818133e-02 5.094690331060031108e-01
-3.432678880640886027e-02 2.538318976528017301e-02 4.453306192510464445e-01
3.448142954563539198e-02 2.597019817091811983e-02 5.082334479163136409e-01
1.467421200072576565e-02 6.558756345857234826e-02 4.753622913113498272e-01
-3.549318725950313669e-02 3.711104658262262546e-02 4.495460918557391827e-01
-2.042214915125411395e-02 5.528790530653196478e-02 4.595968060021205503e-01
-1.086830513076767965e-02 2.909976864964511356e-02 4.485183298479344938e-01
-7.768597880537493963e-04 4.097341819651555139e-02 5.285474811768701153e-01
1.692376178656309488e-02 6.778457217501296372e-02 4.809883153790721622e-01
3.762667361689004536e-02 2.584390756353929092e-02 4.703523266756342025e-01
1.996032692310442669e-02 5.383966219822818727e-02 5.091759349333138118e-01
-5.918876246669193750e-03 4.538623858214459877e-03 4.399736053966409877e-01
3.005772870047802858e-02 2.859505339507044386e-02 5.142281972633567788e-01
3.640503958372584559e-02 3.552832610567960292e-02 4.792947714390107250e-01
1.044643822396310040e-02 6.859639684045786001e-02 4.742045467160333483e-01
1.447319609665485840e-02 4.664931323504174082e-02 4.646182201598266781e-01
-1.896037395577797671e-03 5.488418996929955024e-02 5.218803979278409111e-01
6.294790094199629628e-03 5.137846401262120832e-02 4.628586546984716499e-01
-3.173300581874094473e-02 1.314727444014431035e-03 4.390519773791026203e-01
-4.180355190166669399e-02 2.744668411252756263e-02 4.468446113034825751e-01
3.632953593187965985e-02 3.060847142889567413e-02 5.007338360837980673e-01
-2.086789780203213585e-03 5.724660223152967103e-02 4.617216012443988715e-01
-2.242388013270536686e-03 3.789602848872133944e-02 4.546131565843191114e-01
3.744223636308555148e-02 3.476511031918026046e-02 4.824707418336297571e-01
-3.934678853951366351e-02 2.985609339750533095e-02 4.471665363743351218e-01
-1.858406531875507472e-02 4.689038695953065550e-02 4.553667376779372833e-01
2.132403610775316857e-02 5.607745835648975108e-02 5.036823298487903555e-01
1.069519585024119451e-02 5.255649204738251784e-02 4.657174099891357444e-01
-4.971284711562843663e-03 7.675613774196372342e-03 4.412997968909386226e-01
-1.991172423890800666e-02 4.399823580652220678e-02 4.538545413139261075e-01
1.230958122722577638e-02 9.400274206738029603e-03 4.458861111059832516e-01
1.464128225905175079e-02 3.832284105309688438e-02 5.229261518966119571e-01
1.947879992927477669e-02 3.439659313621355741e-02 4.606363832706101280e-01
-4.330861489439900153e-02 3.472751486702903290e-02 4.491160834496593646e-01
6.675826514190366656e-04 2.435891699402132834e-02 4.493127607430124071e-01
1.167165340956443156e-02 5.729776535035781965e-02 4.685123565141881552e-01
2.225616220661022146e-03 1.716378920988186757e-02 4.466254289882736761e-01
2.801970549895508103e-02 4.249893850006109669e-02 5.077343632056199318e-01
-3.237625905130506188e-03 4.652876025527358933e-02 5.270933397901591544e-01
3.696613782000746085e-02 3.591634384036865996e-02 4.823250959670682958e-01
6.070635976193511016e-03 1.052766457199560794e-02 4.447600072984337904e-01
3.461699715959438983e-02 2.485907253722305019e-02 5.088424247117376842e-01
-4.274088130106486888e-02 3.288161147322498506e-02 4.484932653392557644e-01
1.238556817211197356e-02 4.336811621957868679e-02 5.220255338586076155e-01
-3.989886927585492571e-02 2.417660028011979143e-02 4.457106907264429263e-01
2.506879649369048169e-03 5.293494834467525612e-02 5.217146624839080760e-01
2.797569056298812237e-02 3.900576110103178007e-02 5.098012969703413777e-01
-7.204473376527095393e-03 2.008430186377095899e-03 4.389261662306452871e-01
2.432151374618442188e-03 5.377655996794284549e-04 4.400650572537198602e-01
2.280334570969813970e-02 2.087948515680644254e-02 4.549306095899475766e-01
3.995833981568807508e-02 2.886984035876546603e-02 4.856214327585222090e-01
2.360352895236405082e-02 2.639987794038770735e-02 5.246173753577700882e-01
1.086880603941537890e-02 7.463643682377209265e-02 4.831152426085317253e-01
5.007340848953369290e-03 3.760679322456889767e-02 4.568623549706993248e-01
8.527689267753563868e-05 7.016613330232474022e-02 4.718442216717285698e-01
-2.467964077726428340e-02 4.260864506699477139e-02 4.524833691835178362e-01
3.416708387298012656e-02 3.025795211547147728e-02 5.049165004712149463e-01
-3.916506343939175037e-03 4.349120360480919489e-02 5.284223295735750447e-01
9.291744341521791101e-03 6.671671085197965201e-02 5.067934600597476802e-01
3.240059673786915839e-02 2.298494090897974448e-02 5.166878030092389995e-01
2.780312680844206769e-02 5.246815470664250441e-02 4.838034822714549765e-01
1.403901200504308229e-02 5.621988701416957834e-02 4.694679916058314140e-01
-1.792812717180127316e-02 4.740021611618902564e-02 4.556737911111884420e-01
-1.305103177648176066e-03 6.121744998572328789e-02 5.131083373759331989e-01
-6.100861499069047331e-04 6.414577130467907784e-02 4.663928726200923802e-01
1.507832664191084172e-02 4.630915192923115709e-02 4.647601360802744996e-01
1.114503024057240770e-03 5.722567733414674757e-02 5.181717753933696713e-01
2.429892840404426942e-03 2.831826541654787824e-02 4.515461911155598251e-01
2.796452989242978818e-02 3.541148339976731008e-02 5.116654403296777565e-01
-3.391696633052002779e-02 1.459480409280373026e-03 4.394559834638798179e-01
2.508660297965817354e-02 5.239412910360675968e-02 4.778960057046142129e-01
-7.048026564702097353e-03 6.307058055337713687e-02 4.646229789371658092e-01
1.926695596365939761e-02 5.596528069665312327e-02 4.734681311414652982e-01
2.629619587756213545e-02 5.526277261071666641e-02 4.825967100901353835e-01
-6.155175058743516704e-03 3.692218678012666733e-02 4.534141254868921389e-01
1.165285786055291622e-02 7.365620914328292745e-02 4.819684146700250471e-01
3.166841179824121666e-02 4.643552873823274252e-02 4.917632228222558743e-01
2.854367869439476679e-02 4.652312697315717782e-02 4.763675708799873232e-01
-1.847803784511566072e-02 -2.865467071680311006e-04 4.373473220932837524e-01
3.158213314824386692e-02 3.895705978676929776e-02 4.729222541005419500e-01
2.782262915068820820e-03 5.464438795863361953e-02 4.626300010024558818e-01
1.611120912345522654e-02 5.748604965942916145e-02 5.111829293275991226e-01
2.283256948439375128e-02 5.866207910148558968e-02 4.804058350281188994e-01
7.420116433423029276e-03 7.079579612636799357e-02 5.035379797541168490e-01
-6.408401995408137194e-04 3.939648966870654828e-02 4.558439854796959012e-01
2.748278630190393451e-02 2.946629819001024900e-02 5.189852477771121908e-01
3.310455909428571680e-02 4.426873450801030452e-02 4.870182646096770651e-01
9.740949977064945059e-03 6.805356377891523534e-02 5.045571494106626531e-01
-2.417371030408043894e-03 7.015619947965204273e-02 4.748564297852968519e-01
-1.006193229942517996e-02 5.351368336726608499e-02 5.190812002993329122e-01
-3.638188198990491978e-02 3.887127743550665426e-02 4.508089617714669539e-01
5.924271949058070898e-03 1.311784144115433516e-02 4.458629527780240687e-01
2.649867332940184644e-02 5.306703437334754636e-02 4.963798835541463617e-01
1.107540729973251203e-02 6.329504214036078824e-02 5.097442085207748441e-01
5.008305281640335407e-03 5.401172026867706588e-02 5.190870590738076995e-01
1.844600697473290293e-02 3.369963075608174707e-02 4.597418426654334422e-01
3.007642246981308970e-02 3.339593597637516981e-02 5.096680695690871676e-01
2.477687408621477225e-02 4.612913997332557942e-02 4.716109849971588663e-01
1.369146267838588713e-02 2.067768475480096478e-03 4.432277051365029474e-01
2.379907231002484358e-02 4.343704359625535916e-02 5.121075027520559653e-01
2.595397518540745047e-02 5.431388432353525392e-02 4.944801716630864430e-01
-1.178470561609403985e-02 4.201509671876004631e-02 4.543640080606127785e-01
-3.245071074292681101e-02 4.354367922336006835e-02 4.535732387810598176e-01
-2.830164848709022449e-02 1.832583238876445489e-02 4.429777394560527326e-01
-1.042749027206962484e-02 4.713981085698029302e-04 4.378721994678882456e-01
-1.858541392190494329e-02 2.185838017829610722e-02 4.442381572116114175e-01
3.759056542522981603e-02 3.155291569376766914e-02 4.960686579327540091e-01
-8.314032745565547514e-03 3.965374783613125585e-03 4.394345774250919545e-01
2.698185160301884433e-02 2.663090320227606486e-02 4.608019443477002763e-01
4.823070039916294710e-06 1.037618470994561976e-02 4.431642737516093278e-01
-1.257086287089375330e-02 3.119484660765146217e-02 4.491781977174200691e-01
-3.066072380269557578e-04 6.136080277823517670e-02 4.641013950483712236e-01
-6.533483009961239818e-03 3.484896270802129159e-02 4.522820949746427788e-01
7.481397256872228223e-03 2.476847093413287945e-02 4.514213765030732906e-01
2.079663491347509205e-02 1.266453457329311076e-02 4.501706864521115570e-01
1.369576399620949479e-02 3.579914671093957501e-02 5.248329714043622474e-01
-7.881895428237332621e-03 2.954593161679962103e-03 4.391552711883029425e-01
-2.396684146152981698e-03 4.534402893906620130e-02 4.575843819882888797e-01
2.284687476316015278e-02 6.206028700745119808e-02 4.865685979521188753e-01
2.019228385594053904e-02 5.641849223327402574e-02 4.749931249752528672e-01
1.421222671215640471e-02 6.629337441908131345e-02 5.008819159579738223e-01
-2.523033859296553577e-02 5.099452887963945406e-03 4.384348677395694116e-01
2.088952471023384008e-02 1.145656227375344179e-02 4.496602813163275147e-01
1.521555760248904758e-02 2.330587224552290934e-02 4.531343945219907798e-01
2.344132964334211949e-02 5.119813616893593988e-02 5.063705293381652872e-01
3.475444938715398224e-02 4.036828399112064175e-02 4.903147195643090539e-01
3.283433948605540137e-03 6.021216981729494988e-02 5.150718021018262371e-01
4.283956719055499393e-03 6.993951475633142234e-02 5.042889185611636460e-01
-1.137927785580673118e-02 5.109411835273666019e-02 4.580169900795750260e-01
1.931045481663874741e-02 5.867245098978735030e-02 4.756050573613920807e-01
1.204421611973718192e-02 7.058229444109727357e-02 4.771257084413718652e-01
-2.655578085823345758e-02 4.771179828935005057e-02 4.556785709220684821e-01
2.955439065291176962e-02 4.993258698008082308e-02 4.929637557508986245e-01
3.308992038318048223e-02 4.437286777377332653e-02 4.866605045713675581e-01
4.159076689910527064e-02 2.404530402277131260e-02 4.812501704760801524e-01
1.363950374721984056e-02 6.684889515550995753e-02 5.010354286198519524e-01
2.286432558934226381e-02 2.603118496067063220e-02 4.579689034235687184e-01
-8.649453139133638294e-03 5.065072697537612717e-02 5.271241064043229452e-01
3.154646105531871275e-02 4.706240363826095369e-02 4.855097530162178487e-01
9.019441162453628244e-03 6.213264942466255325e-02 4.692448314320988301e-01
2.239124843225081402e-02 3.781630781650412165e-02 4.645645759909215466e-01
-5.519614520986022496e-03 1.594108918522530935e-04 4.385212308241444590e-01
9.443183785327985760e-03 7.007663402460294344e-02 4.747090448002826424e-01
1.319538022196586717e-02 7.265353464411664075e-02 4.918252923918299269e-01
5.739940011581123012e-03 2.817277955986948260e-02 4.524944832835817166e-01
-4.984279336196548345e-03 9.385523219347069804e-03 4.419403486480856791e-01
1.521958589183911373e-02 6.073811661713157672e-02 5.081225169907356287e-01
2.576546338776944042e-02 2.159233812499299771e-02 5.249521994586500151e-01
3.016343689281095891e-02 2.528774917642254150e-02 4.626104989724133532e-01
1.744707943990996338e-02 4.846336289842546885e-02 5.151320911556215298e-01
2.158655851375775037e-02 2.685472925988583934e-02 5.257400683775711459e-01
2.510169051905952048e-02 1.294160674409626163e-02 4.522230033430994500e-01
1.904123789613836049e-02 5.069683157969440135e-02 5.124183158504543867e-01
2.535751053977531796e-02 4.724547604965207565e-02 4.731153962100446142e-01
9.107748747906652120e-03 5.910338021527894448e-02 4.678388964079776002e-01
1.869942318852391150e-02 6.578765201075116587e-02 4.941981932490838725e-01
4.242728749977260280e-03 5.437485681330379850e-02 5.191796850367172977e-01
-3.496992836313720949e-03 1.780228218704082294e-02 4.454318222972250552e-01
3.494004827953824631e-03 2.938250235495202742e-02 4.523665317909516537e-01
1.255433056831890132e-02 7.315076089528629866e-02 4.919236097211101555e-01
1.858649042970913351e-02 4.277001763770355708e-02 5.174678736461107986e-01
-5.469153605803593089e-03 4.396204627298635342e-02 4.563773440430539674e-01
-1.743090807850473239e-02 3.674013722040087027e-02 4.509275900346720878e-01
-2.151190888773650556e-02 2.341621883577008761e-03 4.376238702023096394e-01
1.619034394134488339e-02 4.972336026821091298e-02 5.153122547381001617e-01
-2.614438787261860048e-02 2.077249311750980348e-02 4.434966272336007820e-01
2.420962403637597071e-02 5.263476030160862268e-02 4.768105819412194468e-01
3.695144754326534775e-02 2.966513129440434202e-02 4.730072685600584803e-01
-2.848029951333075696e-02 3.918758887091485649e-02 4.507410677140482602e-01
-1.226449997594795255e-02 2.160327257386700575e-02 4.452812344081660267e-01
1.367161327307565150e-03 6.489287394527427921e-02 4.673397928016919667e-01
1.106276548981663214e-02 5.191969257518342512e-02 4.655778948811693518e-01
2.065709386465531053e-02 3.073096712489960247e-02 4.592640524132413082e-01
-3.974136782535485704e-03 1.590938235152727226e-02 4.445448484853777305e-01
3.803199880329995869e-02 3.273407052224038688e-02 4.805146916049621297e-01
-5.618498340912943256e-03 5.719617513347799442e-02 4.609369272499733716e-01
2.118448857544509914e-02 3.761856639637768673e-02 4.636256612388842124e-01
-4.810746951730632097e-03 4.292531929250780615e-02 5.289478016644326708e-01
-3.603093327291777975e-02 -1.296154192998553870e-03 4.396912447449856653e-01
-2.852423373122021932e-02 2.621422913028908022e-02 4.455120318514502187e-01
2.346671596368446466e-02 5.995598821678746471e-02 4.824327848754371151e-01
7.629140873821389779e-03 3.483996981033383317e-02 5.284756377104360414e-01
2.490875294062667653e-02 4.542832338843784401e-02 4.712823606297185108e-01
-3.244245251827256038e-02 3.130784959351625568e-02 4.471992048261956842e-01
6.525339231423136523e-03 7.101795236782690313e-02 4.735863427284888183e-01
2.927371646294067015e-02 4.593136613238154448e-02 4.767602913055577485e-01
2.600598080762205749e-02 4.361326990481374094e-02 5.099884144712536482e-01
1.736165109715848490e-02 6.904501484400354938e-02 4.885697419086986737e-01
-2.198668679075974769e-02 3.452666461314146673e-02 4.491270853427408172e-01
2.467718993174830913e-02 2.439585629056273061e-02 4.581173548262924555e-01
3.317075962765289598e-02 3.909437320909675551e-02 5.019024563067048250e-01
2.696047969753587875e-02 5.354784486490556106e-02 4.920157168814494608e-01
1.755993864819789529e-02 6.512555548172285769e-02 4.789818351423869580e-01
-2.487020948228689521e-03 5.098011173761374942e-02 5.252489728405279612e-01
-2.315442629168762423e-02 -3.722114271759351459e-04 4.373078240675212225e-01
-2.424913538203789243e-02 7.243633289100071329e-03 4.388965832513403997e-01
4.372057001977239059e-03 3.352111522240465435e-02 4.546789147239588824e-01
1.914392410386454857e-02 4.953887714914043117e-02 5.129650997179839855e-01
2.343791605463061561e-02 3.407686033094836642e-02 5.187838997644307337e-01
1.569834153801287838e-02 6.618876131944738395e-02 4.986215737814212456e-01
2.038064523561870095e-02 9.765813641498685693e-03 4.486786405111444220e-01
3.389915661765757066e-02 3.849131547414313959e-02 5.006002939188494150e-01
2.852481628875793221e-02 4.398493105312488438e-02 4.736708545744494625e-01
1.030964065268743200e-03 5.965328353483737717e-02 4.638027212836365876e-01
1.295876565712139085e-03 7.219499214338734316e-02 4.757575477442455014e-01
-1.256862217489922509e-02 3.221996985984867251e-02 4.497066779468822939e-01
2.727715900332217808e-02 1.468141850786897074e-02 4.545207263190461644e-01
1.554285245750354830e-02 5.380898480531282058e-02 5.135980096552875684e-01
1.282312143295171770e-02 4.896786343220205923e-02 4.649611097375269675e-01
8.499294912533948698e-03 6.318470623690485011e-02 5.107927639848944823e-01
-1.784479046102934244e-02 2.422123820937022859e-02 4.453440526696454405e-01
-4.243060421404493132e-02 -1.107906912283523546e-03 4.409495567804048166e-01
1.272626716665668963e-02 2.129683303003196589e-03 4.430041633220469510e-01
2.726868065800432464e-02 2.775828066897392116e-02 4.617223972649642794e-01
-2.612064976656509191e-02 3.740558658463311037e-02 4.500722878343093591e-01
2.320672085766515777e-02 3.723395985744552827e-02 4.647821523819982703e-01
1.563227902311354472e-02 1.008481835474505338e-02 4.471732746853319118e-01
-5.014728709621813982e-03 3.741942331711455710e-02 4.538708170214522108e-01
-1.866645096216257077e-03 1.182946741589947261e-02 4.432824898163711946e-01
-1.375058118929704462e-02 5.021431216955692112e-02 5.282237692813351870e-01
-2.573876937448191238e-02 3.334920574986207503e-02 4.483076606373267436e-01
-2.627483450949711849e-02 4.328890068217584874e-02 4.528828090343027246e-01
3.840206081303310787e-02 2.840187992689049284e-02 4.973956065577584407e-01
3.521371916000733127e-02 2.679281992458764847e-02 4.681526285738463189e-01
-1.439860867957737899e-02 3.048201280988202880e-02 4.484788689745382029e-01
8.277161624833571062e-04 6.753179953650914613e-02 5.042597449983406976e-01
3.103896918754485770e-02 4.812139252043454857e-02 4.900347603209899150e-01
4.802577193325085689e-03 7.125205596469971758e-02 4.730691711395551002e-01
2.533474616728587786e-02 5.434600511554209951e-02 4.801112314846044393e-01
1.917916647338725744e-02 4.619266289583830870e-02 4.673945155036189902e-01
1.545696994296127773e-02 5.827580241239136566e-02 4.715190559134126436e-01
1.013305472709817232e-02 4.483363160030834349e-02 4.618524750445246463e-01
1.917647581282322031e-02 4.515882089063581045e-02 5.159479999341712864e-01
2.400453459862461614e-02 3.768211085611879174e-02 5.157117047543055000e-01
-9.363313219032245310e-03 5.507352522563394026e-02 5.226558863309670455e-01
7.435491159504525709e-03 6.662156060380990119e-02 5.081786630389397708e-01
3.424062365993143370e-02 3.310370903599170467e-02 5.028957801977683717e-01
2.848926043021300647e-02 5.003620458352236317e-02 4.805922886899884894e-01
-2.028153795937500184e-02 4.305035599723123357e-02 4.533603617995178858e-01
-2.540227646176820842e-02 4.598752763680045291e-02 4.545825293738851025e-01
2.761791564955734524e-02 5.352068127631069011e-02 4.888772507776428244e-01
1.873243197783266978e-02 3.996127302746329407e-02 5.190972357851113550e-01
4.115134069648686277e-02 2.365461995155312622e-02 4.919958043835911954e-01
1.606648406160102877e-02 7.045048364381582828e-02 4.851018123643647817e-01
1.479668886233862293e-02 3.075346898925015657e-02 4.567710956546626178e-01
3.678795668236629207e-02 2.402491590185319020e-02 5.058352131276256936e-01
-1.831739579880843627e-02 4.322798279437374547e-02 4.537703729392901786e-01
7.525527650887606571e-03 4.772048686800139244e-02 5.227568831728709453e-01
-2.283244564660740980e-02 3.677337894215384345e-02 4.500507245704100101e-01
1.672027554789171176e-03 7.066504296474140911e-02 5.009668113852536742e-01
-1.837272366083117850e-03 6.519085384402699412e-02 4.670096275145862452e-01
-1.057923160418158814e-02 4.769781772078625359e-02 5.285969199492416282e-01
4.040914630412272696e-02 2.397158227172719105e-02 4.975632899420093791e-01
2.334159070439510361e-02 4.837975729650758477e-02 5.101810901899594963e-01
-2.796132308899047791e-02 3.751503795809018466e-02 4.499854543026545750e-01
1.539606540292788074e-02 2.258596336344900757e-02 4.528591173325188790e-01
1.275595760135162134e-02 5.074098872215855593e-02 5.175176680948506691e-01
1.415486253795299014e-02 6.527038369184921807e-02 4.747260376512766888e-01
6.565043581292197977e-03 3.460050967145765488e-02 5.287556317743028478e-01
-6.679564844841940144e-03 5.768082684712667191e-02 5.139090427814717588e-01
2.543905371231481270e-03 4.857241186313102088e-02 4.602958644776158903e-01
-3.769294454294933733e-02 2.772606626295935975e-02 4.463751260697670920e-01
1.370057417211955481e-02 2.143482414111407691e-02 4.518198331683857538e-01
2.729629001352331177e-02 4.635824461221778325e-02 5.057145973987072773e-01
-2.006884786381060975e-03 1.475723483906501120e-02 4.444963748943460691e-01
-1.931714182036598296e-02 5.910044239981799424e-02 4.629818274166890291e-01
-1.249143170768449509e-02 8.537160068811442890e-03 4.401368315614909155e-01
1.116418624002177284e-02 6.772298969915593880e-02 4.740498627841882029e-01
3.189977678891431356e-02 4.119514618162778419e-02 5.022963732638090484e-01
1.049553578728726691e-02 7.500518476633438736e-02 4.855592536275230575e-01
4.603316938901971453e-03 5.073739357618281196e-03 4.421031514266398066e-01
1.469552039316628089e-02 4.756877434983139419e-02 5.178422259942736527e-01
3.475513125015912419e-02 3.638245839372102747e-02 5.003346826079407839e-01
-2.893769514507175261e-02 4.525112380087249059e-02 4.543820218960542556e-01
-1.556409549304480291e-02 4.009911331499016462e-02 4.528062300577162524e-01
3.429974849727548264e-02 4.200533672138970220e-02 4.847735743811917297e-01
2.829554170643753738e-02 3.451317576548103977e-02 4.669314089801556156e-01
2.941282670578574537e-02 3.657412177131011410e-02 5.090119655829001832e-01
9.363381805441840441e-03 6.869206713174820511e-02 5.040121530513830272e-01
-2.646300803076990366e-02 3.690541430495303254e-02 4.498248379878621028e-01
3.172261967482572359e-02 2.189664028049361638e-02 5.183353650253500478e-01
-1.142855060037880136e-02 2.299973204579218444e-02 4.460004502250808356e-01
-2.656773973583961140e-02 5.709254758081473008e-02 4.635058662852483691e-01
-5.777906760940645751e-03 1.212629822894564259e-02 4.427480105866961058e-01
4.018841009802189002e-03 4.757033139812595623e-02 5.243353155909868946e-01
-2.689223086090226922e-02 3.658741318499504624e-02 4.496519434970800422e-01
-2.680833730347190191e-02 1.835121335870207402e-03 4.382771604926032905e-01
6.033071510766548073e-03 4.946864474018777824e-02 5.226503471498747944e-01
2.029312665378736960e-02 4.023209724516677716e-02 5.174302774426390306e-01
2.388921595124891134e-02 5.836182460387909915e-02 4.934144406034286501e-01
3.420306806276669775e-02 4.069349831272786600e-02 4.809685941395859810e-01
-1.850988250333059776e-02 5.082613147237766138e-02 5.257712627595928501e-01
-1.314251933453773093e-02 5.921334005444791465e-02 4.617468545586219664e-01
2.443639380487547599e-02 4.995034515386873736e-02 4.747074746790682642e-01
-1.462677828030199863e-02 2.867686199249116705e-03 4.380447296371882682e-01
2.380288218562111313e-02 3.474863279626019125e-02 5.168476571002512676e-01
1.880696571944993596e-03 6.758624122590539685e-02 5.074746716168291316e-01
2.598572212230840922e-02 2.583016579762363596e-02 4.597376929087320652e-01
-2.805061879275667566e-02 4.356409811116279673e-02 4.530306909065093257e-01
2.215236517950368560e-03 4.626787939174999142e-02 4.593741686310566230e-01
1.623811992799589418e-02 6.316451987866686379e-02 4.753476521732862836e-01
3.215714119449028519e-02 4.229787152813264256e-02 4.776731573694031896e-01
-1.182455112292522641e-02 5.127825799854721089e-02 5.185910731961876907e-01
-2.476455312707019629e-02 3.407564587969677539e-02 4.486945479616513133e-01
-3.380436991263083280e-02 3.478409166422060175e-04 4.393462397990493540e-01
-1.710875766870261286e-02 4.814503271475165797e-02 4.561092894424515487e-01
1.422437076037441454e-02 5.339691095773545920e-02 5.148904284771605999e-01
1.193177286483948669e-02 6.410599262922249408e-02 5.071527229041798979e-01
1.988168361141519000e-02 4.518857831416111387e-02 4.672794185240139453e-01
-1.774016302118549410e-02 1.363350878615733272e-02 4.411006011879392563e-01
5.290422290139630557e-03 2.868232692455957925e-02 4.525896856777236743e-01
5.314524130105763994e-03 5.222165615573244601e-02 5.209195201904615047e-01
2.168098678419634606e-02 4.359115087495512436e-02 5.140488320678668899e-01
2.103280618035220650e-02 2.654017866466605244e-02 4.571156034625885600e-01
-8.883025294223381024e-03 2.356871289068164510e-02 4.467506937151289326e-01
2.531707972681963500e-02 2.517047688477109038e-02 4.589527097163395020e-01
1.120010990056262076e-03 7.017420412557827392e-02 4.710977495342582588e-01
1.320877095754048255e-02 5.457521355595091467e-02 4.681001022651698484e-01
2.905615099768168313e-02 5.073687453111982298e-02 4.929492994425289099e-01
-2.466341647838350172e-03 6.050742766362710717e-02 5.144874370332176428e-01
3.198622092565973907e-02 3.261846312710521556e-02 5.071175189229364388e-01
-2.876864978510966855e-02 3.539351107040369232e-03 4.388223151798724131e-01
-1.327651001103268870e-02 -1.162850642332560400e-03 4.374561018616818231e-01
-7.839726461689941472e-04 4.236139547333070410e-02 4.570627966349924964e-01
1.695018314978412235e-03 7.505201949915010773e-02 4.805485910820522788e-01
-1.204841547667840837e-02 3.292472534329142497e-02 4.501727613014590568e-01
5.012869857679191216e-03 1.422239615576068213e-02 4.460860045895310710e-01
2.275687724447240934e-02 6.061259716134108355e-02 4.924294809805067064e-01
1.272807056431889475e-02 7.137587731410637015e-02 4.789738049454650426e-01
-3.402958822882053841e-02 4.043221970592104919e-02 4.514975310622993954e-01
2.411179632746589252e-02 4.950996216384696835e-02 5.073591585050674091e-01
1.851700170091328743e-02 4.360286095022488512e-02 4.654675509295628788e-01
3.651107081303125307e-02 3.603469436324892305e-02 4.804697163367265267e-01
-1.854267652637403563e-02 4.022685916245918175e-02 4.523611668000522834e-01
1.082260941848288242e-02 7.365087145321390361e-02 4.944325140648905825e-01
1.760049979308431212e-02 3.913995696297528637e-02 5.208399953482077960e-01
2.498029683450218863e-03 3.748891963131698729e-02 5.288869451549368383e-01
-5.845347891155887668e-03 9.036002901946334903e-03 4.416555844815291954e-01
3.208595314966160295e-02 4.631579855588174172e-02 4.877488577185776775e-01
2.496496086156443917e-02 5.222454937756462051e-02 4.775476547729996524e-01
1.880602513359300176e-02 3.578798696883327135e-02 5.225518045472754558e-01
5.049428812483466693e-03 3.768134916353948344e-02 4.569104752073843700e-01
3.433263557440107555e-02 1.853529912484021269e-02 5.181515700667020941e-01
-1.452678926125494131e-02 5.741970013560836195e-02 4.602975187707172289e-01
-1.526731876232962672e-02 3.216370730819075041e-02 4.491910068625465935e-01
-1.470570904710999903e-02 2.206568579445931932e-02 4.449927328057693976e-01
1.614821186098279807e-02 6.371760709040295845e-02 4.757193766554757008e-01
2.555844625607801065e-03 4.263452879583923966e-02 4.582503668281948106e-01
2.022350671998614582e-02 5.840365269455044528e-02 5.024358480495607626e-01
-8.006924475571174787e-03 5.993536948537452752e-02 4.616201921314039835e-01
-2.342139411348584735e-02 1.328787871652762492e-02 4.408487589288189179e-01
2.736088499474925717e-02 5.292902626391656623e-02 4.819131969746569544e-01
3.672347758046444477e-02 3.458969176557068204e-02 4.952335900978599992e-01
2.185669951137474837e-02 5.705326426279817148e-03 5.323684240424370051e-01
2.535552055957048662e-02 5.273196178742880352e-02 5.000350509062919668e-01
6.869294973287408748e-04 5.895459528053818149e-02 5.167910643682150917e-01
2.701516326939156290e-02 5.017467357938912992e-02 4.786356487069592380e-01
-3.860545152248136269e-02 2.715943759082526179e-02 4.463368519212144725e-01
2.334576650925636668e-02 1.050496985191207155e-02 4.501882789535792684e-01
-3.455830085817513525e-02 2.055048826983765092e-02 4.441064917080222996e-01
1.847906789762495880e-02 6.749413339687999891e-02 4.846974249839501869e-01
-7.423184081464419617e-03 5.739117965744877647e-02 5.183728849361715074e-01
3.470907783822995731e-04 2.652903469003626766e-02 4.501534781947092445e-01
-1.513172873033487645e-02 3.418024049211323273e-02 4.501598970242494113e-01
2.457568556354444364e-02 2.452101268655272268e-02 5.244077105352915602e-01
8.860431246053578763e-03 2.022337057143576075e-02 4.498150540800905928e-01
8.301784718343819744e-03 7.210823750838611657e-02 4.757382944777113765e-01
1.525652847705883698e-02 6.825879750397904379e-03 4.455795254519072102e-01
2.066396606477851478e-02 1.232222656756678907e-02 4.499690083393000917e-01
2.621891260853492778e-02 9.257149499451867991e-03 4.511541589097532445e-01
1.745565748615741930e-02 5.630921715021533491e-02 4.718268522820328603e-01
1.084007015387672239e-02 5.589691888342381704e-02 4.673288968440874602e-01
-1.327963047856773118e-02 4.902946166175234377e-02 5.286761342620482917e-01
2.828616370987645928e-02 3.211644857212085646e-02 5.134559482230566241e-01
-1.383254866901238028e-02 3.119310058842975769e-03 4.381233974290268396e-01
4.311092221580535046e-03 2.618875002352681267e-02 4.511890287498422913e-01
2.568115100721266551e-03 3.145987708479289213e-02 4.530501820177698091e-01
1.931569290063652258e-02 3.473621222784665369e-02 4.607349971857661597e-01
-6.652345839202860461e-03 2.765366123821535321e-02 4.488706450969764394e-01
1.800736706381493232e-02 6.621369042823176121e-02 4.951214088307249184e-01
1.248533656482410902e-02 5.137864032777851586e-02 5.173749841517253367e-01
1.893039052304732600e-02 5.477431755551200043e-02 5.097851020838135572e-01
3.463697122049146093e-02 2.435818936262820755e-02 4.659015994097928104e-01
3.534828923297329839e-02 3.379533509148335835e-02 4.741072236699463982e-01
3.652356651084983502e-02 2.094020239906799197e-02 4.653299164802091603e-01
6.762194669091359592e-03 7.445761398279067411e-02 4.789831072276001245e-01
6.789144190364563083e-03 3.615947298164841339e-02 4.567906796632670852e-01
1.849408855297923759e-02 1.742299672271454061e-02 4.512467935908621164e-01
4.898881649832289437e-03 2.213040835468592371e-02 4.495622110618859857e-01
1.677801614759721199e-02 9.991791699895542431e-03 4.474752551653868871e-01
3.396272160045523542e-02 4.274687799131283300e-02 4.848857516913698817e-01
1.544364626728873986e-02 2.877400970226268694e-03 4.439486309133260367e-01
3.507519493751869860e-02 3.272135698209599486e-02 4.719547799329764648e-01
1.661979135653913336e-02 4.895090790768935607e-02 5.155126662918567693e-01
1.870044083043274474e-03 6.662646873702839090e-02 5.096778829520298704e-01
2.085606778644332263e-02 5.067320704297263723e-02 4.712856085381693649e-01
1.990436338696017007e-02 6.439067495272811359e-02 4.823400111155319858e-01
1.427956459755432006e-02 4.150968908009675107e-02 4.620816298314580628e-01
-1.987596789770429417e-02 9.572633110684630395e-03 4.395655776773679801e-01
-1.362503614620533265e-02 1.719414929216358037e-02 4.431987263762706131e-01
-2.086325708256542982e-02 9.257631042234931371e-03 4.394386348779746876e-01
2.782682370062130109e-02 3.172720432632335913e-02 5.147623997539531038e-01
-1.353118523487123123e-02 5.039307704192622778e-02 5.211072997376277049e-01
2.959939926164238330e-02 4.962069460409473248e-02 4.935014072049823119e-01
7.355666278721569550e-03 7.032218380133319069e-02 5.041427398017479522e-01
3.825000954660631031e-02 2.095434992855040382e-02 4.677555186709697055e-01
-1.309809645809775942e-02 1.752387518404025304e-02 4.434429414437642269e-01
-1.173446719013828375e-02 4.457445411287418169e-02 4.553512169285570677e-01
1.990740119335708894e-02 6.215875279721602698e-02 4.978045465542893511e-01
-1.035834169542323470e-02 -4.250292450589557985e-03 4.371197839790174622e-01
1.069160227855850062e-03 5.305180546684604148e-02 5.224633908566815865e-01
3.693241506374574795e-02 2.864692841300586074e-02 4.716067670027643821e-01
-2.147797732558082151e-02 1.950688865667127986e-02 4.431981866936258729e-01
-1.133702415342550257e-02 3.426064107000349745e-02 4.509870477146443735e-01
-2.778398241040398731e-02 4.867528534242520494e-02 4.564711909353667552e-01
3.104451981870249774e-02 3.166276171499426278e-02 5.094644281817835019e-01
2.162707124205397527e-03 7.336258037434774393e-02 4.927636788592245631e-01
2.845127769275185639e-02 3.622103757426151788e-02 4.681832704619783292e-01
1.444775860215317259e-02 5.843934956527606361e-02 4.708828133491900214e-01
-3.686011049714411902e-02 -1.084487894996609240e-03 4.399429229858996537e-01
1.998196907260243321e-02 6.323114899404519429e-02 4.808958314331841510e-01
1.900268035944045059e-02 4.758999854042256922e-02 4.680524286425594704e-01
8.137662783532570790e-03 2.504919333407016821e-02 4.517195337967460644e-01
-1.311855550661682884e-02 5.673021757213132094e-02 4.599506222631750685e-01
4.059653635741969357e-02 2.429068540966348652e-02 4.944570888663277208e-01
1.906177777839361716e-03 3.559097752598805453e-02 4.548784557224877512e-01
-3.811265499719321270e-02 3.207941095958494193e-02 4.476234333511918129e-01
3.714158425601801154e-03 4.585045690216107278e-02 5.250013576374568114e-01
-1.959440628393510631e-02 3.324883318332802484e-02 4.489375782958218153e-01
2.239419165782390725e-02 2.804450154112848176e-02 4.588375153487367353e-01
3.213369590430245615e-02 1.842230331502042046e-02 4.601202656427194060e-01
2.523700179795054441e-02 3.348870267147917822e-03 5.334705834333345331e-01
1.661515401871709041e-02 6.968770306855853747e-02 4.903138205406604722e-01
-1.497471735523780642e-02 6.010723275351595452e-02 4.630483781262498821e-01
2.430418431469735449e-02 3.134048220228490000e-02 4.619064001404791786e-01
1.738302697010489853e-03 6.444613816541092111e-02 5.121477605110108522e-01
1.333322207308972919e-02 7.206224734186390812e-02 4.937218191564274328e-01
-3.076058762364363222e-02 2.693591709260665778e-03 4.390587474265116863e-01
3.572928776609420043e-02 3.718229924291684835e-02 4.955175594074090473e-01
-4.202830937070615308e-02 1.810725689027753481e-03 4.418497512602171384e-01
1.811977243159634821e-02 4.322834746765808617e-02 5.176163664710342616e-01
3.837604629932665767e-02 2.416586208380962220e-02 5.022994909808207176e-01
5.832165256821639741e-03 3.343471811103934654e-02 4.551242239472947926e-01
2.936792459370006145e-02 3.815958412245534087e-02 5.083952127637685336e-01
-1.880897146381029644e-02 2.382963032858319286e-02 4.450198617624669395e-01
-7.108881766636531221e-03 4.103584506293560252e-02 5.294638157485670460e-01
-1.023663743198370210e-02 4.808090547683661897e-02 4.568966453603734434e-01
3.705860101277266144e-02 3.530849219205949019e-02 4.909604413422158364e-01
1.184712688399774082e-02 6.846690063542376636e-02 5.016453571991221771e-01
-4.320380588781131889e-03 5.976663042840777568e-02 5.157893227691340288e-01
2.139572283448033449e-02 6.044005554646563610e-02 4.969141753249515236e-01
3.403832570744819153e-02 3.577752644321643971e-02 4.731928143705154688e-01
-8.736538127506968815e-03 3.484926213752451672e-03 4.392273965850717055e-01
-2.143273733975418691e-02 5.099034531070623100e-02 4.572127038871767746e-01
2.479946965282351160e-02 4.315517333730362060e-02 5.112504026943588409e-01
1.165014897680154496e-02 4.460473007773826243e-02 5.216863068388091218e-01
2.430636484734210664e-02 5.287121977372898074e-02 4.771866332969744717e-01
2.689342190543825284e-02 3.680864887499084304e-02 5.124256422474737782e-01
-4.378501867391077287e-03 6.553596630164100489e-02 4.668320935142834527e-01
1.412087598242508374e-02 3.627815345973062211e-02 4.593800079587005980e-01
2.720406716857727905e-02 3.591606645720248764e-02 4.669569847436494947e-01
1.013503348277580013e-02 2.452921613183086172e-02 4.521016457849566517e-01
3.114349432764416253e-02 2.924243130409746871e-02 5.113602155138058381e-01
2.929172877258888821e-02 2.959794682683208888e-02 5.148701208973571752e-01
2.421170128520735293e-02 5.766727611963395200e-02 4.937488230279755141e-01
3.944114699021549278e-03 6.916180905077251584e-02 5.056768178761125165e-01
6.758511244400952633e-03 4.672043137320366218e-02 4.612925767463834648e-01
-2.068881071617371167e-03 3.800104148890504768e-02 4.547188275890389764e-01
2.489857053846889975e-02 5.554883222579270335e-02 4.953310762930503985e-01
1.447298241713426518e-02 5.446838144512935326e-02 4.687879520527522548e-01
4.130568690524800274e-02 2.519786787432155839e-02 4.826745527420939208e-01
1.028102839506638173e-04 4.289318927497424994e-02 4.575706073720501865e-01
-1.037696839118695639e-02 5.253477164209404554e-02 5.175260609993089789e-01
3.214158757721411602e-02 4.573324883507835087e-02 4.902115559194999972e-01
5.646763441863281163e-03 7.388992342803499258e-02 4.775428846693460239e-01
1.154306735080390910e-02 5.761088753892085884e-02 4.685836894852057344e-01
-1.632526478197663874e-02 3.556602667754064223e-02 4.505845788803123364e-01
-2.723472201621940283e-03 1.795559962980107158e-02 4.456937986528918816e-01
2.579367426565357460e-02 4.417988249174711890e-02 5.100253301204143996e-01
2.834731792671576350e-02 3.220985387137921541e-02 5.133680164524618839e-01
7.052054051239551972e-03 7.257595720163714792e-02 5.004592392811227919e-01
2.062517590427051864e-02 5.804330829030859146e-02 4.768124693182731466e-01
-2.240553377729533752e-02 4.732525536909124725e-02 4.555420296050526896e-01
-2.611225182061937405e-02 2.046985835991466888e-03 4.381887083243518610e-01
1.475807644265422942e-02 4.355942014345297320e-02 4.632847418812435780e-01
1.209151686214335504e-02 6.249585172042078363e-02 4.714164243581664970e-01
6.222380955791976392e-03 6.827048933280384369e-02 5.068564000670708891e-01
3.883929508780450263e-02 3.108620791779244386e-02 4.809526206050692143e-01
