2.180662738432496625e-02 2.907828706461487375e-02 4.591896042866945304e-01
3.848251602248082583e-03 4.267142174828743306e-02 4.588803799963362406e-01
3.527033716708741218e-02 3.993402047743226102e-02 4.845597048938051210e-01
2.684926101406583023e-03 7.733769074170196434e-02 4.843998843193521031e-01
2.784198872101390984e-02 3.158265569837721831e-02 5.155427487458255076e-01
2.055976860322313374e-02 6.319078043611880968e-02 4.952584157094049866e-01
3.738827401797488459e-02 3.487574638064701305e-02 4.858049892615501908e-01
1.644954020146181459e-02 6.969005393128469006e-02 4.840839942918228611e-01
-4.028034426613812634e-03 5.473093759684032750e-02 5.238177561068204646e-01
-1.408946307856414476e-02 3.750163598388150249e-02 4.521562707516576518e-01
-1.951542030155436688e-02 5.038305291658935758e-02 5.259184199613918809e-01
4.000597732607346496e-02 2.241853158763597309e-02 4.728365004429109231e-01
-1.541177699676003765e-02 3.929999433628564298e-02 4.527015985800491027e-01
-9.088144899743386823e-03 1.235924691449798163e-02 4.423796937706203636e-01
1.673598140463200545e-02 2.278171173284249812e-02 4.533807780142042887e-01
1.393516962970196144e-02 4.120504108694023060e-02 5.225701806206527467e-01
-1.252848218957314241e-02 1.848255268646474200e-02 4.440789942742246477e-01
2.387916331120172597e-02 4.177689139560987475e-02 5.131419284414433513e-01
-1.448776539121510165e-02 2.718160951497053390e-02 4.471905248265839461e-01
-2.336974227246472677e-02 3.650113910603049183e-02 4.500588621848804483e-01
2.908669633982559344e-02 2.970651133906201252e-02 5.155788958044983383e-01
2.172987705580125758e-02 5.400235815727630340e-02 5.061695725759989273e-01
1.831960654678920636e-02 6.465541669732209618e-02 4.797737286151323444e-01
3.943377782343865552e-03 2.916559159312652472e-02 4.525576895932228449e-01
9.554728885155235746e-03 6.739688107984209697e-02 5.060652606488590388e-01
7.293689948193189665e-03 6.398074133199763147e-02 4.694979224941168705e-01
2.972662486676793964e-03 6.132665846822762945e-02 4.657333415250453634e-01
2.917470863764832362e-02 3.504238974126154538e-02 4.681351699858055659e-01
-1.884012034924316750e-02 2.556064609040564761e-04 4.374716262234620290e-01
-5.238201393836086628e-03 5.248971862427437990e-02 4.596229346727588316e-01
-2.363694073299278664e-02 3.326455488753182060e-02 4.485913522343539794e-01
2.241266431060659134e-02 3.023878977709715254e-02 4.602367763154174285e-01
1.918570270606201594e-04 2.515067647732332698e-02 4.496628854955836974e-01
-3.194278823192913536e-02 4.216174452919897037e-02 4.525430160833540105e-01
1.191213580672427497e-02 7.168802123382210512e-02 4.785800393032073052e-01
-2.715156428115825596e-02 2.169993301148713180e-02 4.439677914373251211e-01
-8.155543992838439407e-03 5.594202540870166218e-02 5.201619730767313987e-01
3.385519456375091912e-02 4.263862991762589622e-02 4.872527473020294431e-01
3.005403879786495980e-02 2.920358678048095430e-02 5.139194046140027616e-01
3.086268003096661119e-02 4.443953585748440516e-02 5.004972297524944436e-01
9.874440311056366382e-03 5.442695029322587585e-02 4.663277965593794483e-01
-9.062380375599674714e-03 -3.959064130300820467e-03 4.372761870957638242e-01
1.409993874837523267e-02 1.680171832740423588e-02 4.499401037150077554e-01
-3.117013931350904460e-03 3.324416246796031010e-02 4.524486475591708579e-01
-1.393171398502510150e-02 1.022720496256042215e-02 4.404587977900281115e-01
1.120510048064961989e-02 7.270053230541674572e-02 4.968739936545036318e-01
1.576093015345311418e-02 4.921737640206745590e-02 5.165614960696512936e-01
3.669670003287016369e-02 3.457384394027790409e-02 4.956653124528834775e-01
-3.894722333938185465e-03 4.081221308189661445e-02 4.557014013414726339e-01
9.886986670811831815e-03 3.909230747400502248e-02 4.593567961625087959e-01
1.054879466454321409e-02 7.218707612437735843e-02 4.991705499147922054e-01
3.202321646007783018e-02 3.752331713061457519e-02 5.047311559985533380e-01
2.193908791429268965e-02 6.530274674672345743e-03 5.321298366211364428e-01
7.359484834250146733e-03 7.678823575360130271e-02 4.837855629043883443e-01
2.307630441077717157e-02 1.368729127754914239e-03 5.339406840815957844e-01
3.437528217763934947e-03 7.399717876738129418e-02 4.769629327365997318e-01
-3.964743861580306838e-02 3.775037159028112044e-02 4.509238566416821081e-01
1.748344702381975091e-02 6.169323997794230741e-02 4.759504332342326949e-01
1.614974457764328450e-02 6.834627849023168500e-02 4.953447842114157562e-01
1.127602928010186349e-02 7.476987408182289574e-02 4.869976824173061214e-01
-7.827704516421788578e-03 2.672416352197676606e-02 4.483962660366198616e-01
-6.421846797586928078e-03 5.787542466821165438e-02 5.140813804653183716e-01
3.336746445753956125e-02 4.213523122941439242e-02 4.809121412867415901e-01
-2.383875477493456463e-02 4.782208539861546037e-02 4.560555567446715197e-01
3.717815049818695011e-02 3.522003263809059259e-02 4.889039792614447988e-01
1.142955053250678012e-02 6.959541436617509846e-02 5.012430347317243795e-01
6.907713163406064075e-03 7.712779934062884146e-02 4.842971297320568524e-01
4.113292722897192444e-02 2.210007808528136747e-02 4.754669104755627207e-01
-2.787288439365406129e-02 2.928106950894597549e-02 4.468050525976509646e-01
-1.857569640170553260e-02 5.111312670280200587e-02 5.263300507966980346e-01
-1.494722734698054759e-03 6.112463345929042280e-02 5.145408607981367677e-01
2.101113287637897814e-02 5.791653338647608992e-03 5.323509740605709695e-01
1.205985044572796538e-02 6.425135072493387556e-02 4.726449108982483382e-01
1.404314631498793965e-02 3.418131473492348749e-02 4.584087736878050268e-01
1.834170020244771122e-03 -1.178217967697750557e-03 4.394256888928551597e-01
-3.151558845495669448e-02 2.482001588898831088e-02 4.451750535009282861e-01
-4.920051382983259627e-03 2.154188827867394018e-03 4.393299418029731340e-01
2.810972938696158080e-02 2.340638655086122941e-02 5.222949231843904139e-01
1.691570599165927863e-02 1.345695056934592508e-02 4.491426812843766769e-01
3.234779955968420523e-02 3.350326198211940609e-02 5.063512078594539778e-01
3.754415930323687367e-02 2.310538709734732271e-02 4.683093128377299186e-01
1.222864149016764969e-02 6.710462953259686836e-02 5.033096664276093257e-01
-2.916823462902791431e-02 4.476789039007612186e-02 4.542404449933235555e-01
3.572783738205930620e-02 2.748136559863505191e-02 5.048457827757598659e-01
3.504121440930992037e-02 3.401535256388887873e-02 4.736822465711265639e-01
4.169051880729727003e-03 7.484669373271296555e-02 4.786105605733133594e-01
3.727071460519843643e-02 3.012772693517805009e-02 4.995258280920014116e-01
3.724652768847639545e-02 3.272561307233690792e-02 4.778963922468560388e-01
2.034217921495483361e-02 6.244825604905445554e-02 4.806631086627184413e-01
-2.854439563198792051e-02 4.482890923672051137e-02 4.541891467873150900e-01
2.346763705051851598e-02 4.685845634468219917e-02 4.711335650249344198e-01
4.155858962233784093e-02 2.228783828792918476e-02 4.772798893265928766e-01
-9.877171765283859414e-03 3.471674255075613696e-02 4.516811941200080116e-01
-2.252320328127192448e-02 2.213095250772950662e-02 4.442080367312239431e-01
3.582073431528782180e-03 1.080602791337983287e-02 4.443087298923542039e-01
1.322186232379299851e-02 2.944800698289834831e-02 4.556521981278651157e-01
1.309323366976623826e-02 2.777624869771848359e-02 4.547798102517413565e-01
9.991238340239416010e-03 1.748297415425915675e-03 4.423114774056986498e-01
9.937332546111890194e-04 4.976129368269380238e-02 4.602799358279804909e-01
4.015477566053814867e-03 2.108107457979873159e-02 4.489670761516013076e-01
3.559762511467080837e-02 3.874055442249998982e-02 4.878413127492619017e-01
2.337148614390260198e-02 3.450083430034341092e-02 5.185105753068299794e-01
7.060068295608035518e-03 7.107429890945038409e-02 4.741878016559165632e-01
-1.032154916598141542e-03 6.634340013961005644e-02 5.027857758614360240e-01
-1.001588742645760990e-02 -1.037830552308034162e-03 4.376922518589307920e-01
-1.078442455752471989e-02 5.216247449694139809e-02 5.276993978159720822e-01
3.660169353768487344e-02 3.651914808596419537e-02 4.883562499481536312e-01
3.822053850947600313e-03 6.092569285330617923e-02 4.660346486783426556e-01
-2.546183824051950761e-02 3.799177347730500059e-02 4.505749194053798035e-01
1.775108298515208974e-02 1.769573886461742185e-02 4.512815323794380218e-01
8.867663427678626475e-03 5.229442828481663252e-02 4.647988187279779027e-01
3.855548619319859593e-03 6.210542753159711826e-02 4.667724450515175483e-01
-2.270614977730148198e-02 3.145079096046620587e-02 4.478757179440500114e-01
1.845635436499667298e-02 3.878167691727180816e-02 4.627206336362819084e-01
3.907312389442006012e-02 2.439481678718137536e-02 5.004833429836758052e-01
-6.082887340397045116e-03 3.426155785226693302e-03 4.396160318609676487e-01
3.169527576712330777e-03 5.430770302205727845e-02 5.203971032558707410e-01
1.022976603186222071e-02 7.520748982590926002e-02 4.869095969799236423e-01
1.622342514911376959e-02 3.562269344080950390e-02 4.600165091038196929e-01
1.944973355461607559e-02 5.028216635314720906e-02 4.699161579757458185e-01
-4.078627645786352118e-02 3.271462155602354593e-02 4.483578492554041728e-01
-5.618057250016311559e-03 3.240914750648833664e-02 4.514775842919694915e-01
1.047137139090214067e-02 4.728448838179075825e-02 5.214504422876179435e-01
1.795972539980154881e-02 4.852503588810382767e-02 5.150477367902762671e-01
3.236015229662442261e-02 4.515682705813699183e-02 4.915587624962168278e-01
6.214340113610850383e-03 7.570356717293146021e-02 4.900593674909570208e-01
2.636225127945577770e-02 3.418965760709731516e-02 5.148539364075571667e-01
4.026822616120530329e-02 2.785169751558527057e-02 4.869845329806102852e-01
-5.524789344079919506e-03 4.517347836376665177e-02 4.569988304277101121e-01
1.656507043436812945e-02 6.812340932703565832e-02 4.808192891581820061e-01
3.778861163936342304e-02 3.313737859834572919e-02 4.932207206022609647e-01
3.647006579966485112e-02 2.458747223888632649e-02 4.679234462958558050e-01
1.556055740157468066e-03 6.955138528385773622e-02 4.710662628670931884e-01
4.391355382606220575e-03 3.874821400416871009e-02 5.278679895268123534e-01
7.469618582175980952e-04 2.697057369600853061e-03 4.405284735675682461e-01
3.185362065759345107e-02 3.522186017330537766e-02 5.061267043870004700e-01
2.426778551590940206e-02 5.998033042015381289e-02 4.882042430545405209e-01
2.419192226243198005e-02 3.168996759519565609e-02 5.215001677843107419e-01
-5.009950911850772834e-03 5.195240256416238517e-02 5.261637284209826904e-01
-1.647775156907866842e-02 1.776864037034725161e-02 4.430175498865373540e-01
3.611927257819678300e-02 3.540973582007481829e-02 4.968062508084383211e-01
-1.571857693890214847e-02 4.072950949063988690e-02 4.532717798483258953e-01
2.137114290667723945e-02 9.199839875912534798e-03 4.488947099201514024e-01
4.055714319079548741e-02 2.709149354759847819e-02 4.868532750549517951e-01
2.900903874540265021e-02 2.525766653449477289e-02 5.198869901022432627e-01
-9.068226019998458162e-03 -7.489382199377669046e-03 4.367213760258453203e-01
3.702108028843136694e-02 2.552288603574910317e-02 4.692279395981332479e-01
3.518502450787040770e-02 3.963818640511799357e-02 4.877892934476156239e-01
1.194331805621628474e-02 7.370731415718120849e-02 4.828372355297680940e-01
-1.614115060343185911e-03 6.236310378243518915e-02 5.096232428281244342e-01
-1.193126187512416787e-02 2.289719145325138858e-02 4.459892969831710241e-01
-1.116316769675032052e-03 4.906496996262760951e-02 4.594783963163512341e-01
2.466920531032322159e-02 1.938061817681174109e-02 4.552912553924208239e-01
3.254317047830718179e-02 2.515254822177100807e-02 4.647177910676053014e-01
4.115213852349742379e-02 2.469871956085042952e-02 4.895638651974473232e-01
2.160388485462484340e-02 5.306925137680860993e-02 5.077011935735857850e-01
1.895468423134941821e-02 4.434794041210846777e-02 4.663485365568329488e-01
3.365534017993047911e-02 3.799881792947400194e-02 4.756482862830297420e-01
6.447957818523770285e-03 7.451448873051270960e-02 4.919325711903845266e-01
-2.004422744111268584e-02 2.846147188028688713e-02 4.468428164366106681e-01
1.060544713841808304e-02 5.296069537815349670e-02 4.660700743109241762e-01
3.115677752875938358e-02 4.148409910939349077e-02 5.035003415003899141e-01
-2.609635666403944954e-02 1.987640528697203271e-02 4.433255354591819630e-01
-1.840962114078737930e-02 1.369413184977437241e-02 4.412092449372272407e-01
-1.027169072252976344e-02 6.192253407249460190e-02 4.641413165391599094e-01
-6.225333709136533777e-03 5.462860193782768242e-02 5.247354717474164154e-01
1.639112337591307547e-02 6.921202088609823555e-02 4.828224985756895959e-01
3.532890169648358197e-02 3.906985169929994006e-02 4.938248661628829583e-01
7.184786715867990184e-03 7.269660369572535086e-02 5.005180579362351612e-01
1.317056860447565238e-02 5.195807589859959691e-02 4.669025429600168198e-01
3.609982267047379730e-03 2.184402605913790714e-03 4.409673214693232146e-01
4.007775179127019000e-02 2.853837870730986659e-02 4.860364403453648618e-01
2.698577723056038921e-02 1.257926009014720056e-02 4.533816613094884818e-01
2.317051360449383715e-02 4.816936608660962738e-02 5.107341557358896500e-01
-1.570631052488453321e-03 6.012665839848459204e-02 5.170689818365585833e-01
-2.060491288613486641e-02 4.793069056889379120e-02 4.560919711266449572e-01
-1.597005318656011252e-02 1.258798128225959573e-02 4.409257662987525750e-01
-2.873652819598390348e-02 4.913105558491720481e-02 4.571850589374227836e-01
9.504218002178139654e-03 4.261030934828338723e-02 4.608007187417040296e-01
-6.366943072309007648e-03 4.363506626787447273e-02 5.297374658209637044e-01
2.205696051361200408e-02 9.227554243361623179e-03 4.491792519350308877e-01
-1.281597762087945298e-02 4.855706596134238412e-02 4.568955714500827492e-01
9.970994539236777143e-03 6.715694804612795665e-02 5.060251123698208398e-01
-2.185821752494849363e-02 3.232104087156056904e-02 4.483036486881155080e-01
1.094594051935998506e-02 -3.944877258775835241e-04 4.417931868756411751e-01
3.976298235478049892e-03 7.331407258516976777e-02 4.937860985427473537e-01
7.438797901463897050e-03 2.531020705086237804e-03 4.419847510552760150e-01
3.568446130897335450e-02 3.852516167275232828e-02 4.885774897972449682e-01
2.572231856565339661e-02 5.291457066914614232e-02 4.794546552165183106e-01
-1.098392264016758227e-02 3.554449991480313625e-02 4.518736189226009170e-01
2.381345584224038928e-02 3.742225669022602313e-02 4.654849199103326396e-01
9.128531739446849730e-03 7.368633615051461971e-02 4.789810618908672546e-01
3.869295547002606778e-02 3.142036636259640942e-02 4.904815603591309303e-01
1.025502302298109472e-03 2.886687796530680583e-02 4.515286543710012035e-01
1.476162577785669269e-02 3.358219670314503691e-02 4.583779302882905471e-01
-1.139340007746343034e-03 3.929037912583351749e-02 4.558230523365774389e-01
-6.185760558405185155e-03 9.239041294071437260e-03 4.417504022333691993e-01
1.969657407922625458e-03 4.151461613858942884e-02 5.277985070458525163e-01
-1.483224670208703640e-02 4.973227277985881739e-02 5.221116576818194410e-01
1.667439008975666812e-02 2.312542878906593408e-02 4.535202433430940427e-01
2.959905910047596830e-02 3.817421436960941744e-02 5.083272904408785431e-01
-1.101773107022149464e-02 4.306332932898161020e-02 4.551531020083884882e-01
2.225107831433006250e-02 5.192948849474265938e-02 5.080698712374948078e-01
1.223738487075914753e-02 4.827842806442990409e-02 4.644787511115892054e-01
-4.090392197760384096e-02 2.494865626998784419e-02 4.461990975691843553e-01
3.351561247737421152e-03 7.790903032557824903e-02 4.845050733044031777e-01
3.640209070164390076e-02 3.242114454480717750e-02 4.752339112056486181e-01
3.345764054647151070e-02 4.298013987105980122e-02 4.918568924983524604e-01
-6.178776166155085757e-03 4.021882587092952266e-02 4.550304732474587666e-01
-1.231167465552175395e-04 6.561145003176854784e-02 5.083435392235374772e-01
-1.864878764884379120e-02 3.390029740843524680e-02 4.495797707124518094e-01
2.400389695543056826e-02 5.023619283219452059e-02 5.070445947958256427e-01
2.024561826449472468e-02 6.204752095790840027e-02 4.976726851298415299e-01
-2.448112738271435856e-02 2.348822708008646912e-02 4.446147730319959801e-01
-1.341833808064268017e-02 1.825184764991955077e-03 4.380003412171864507e-01
2.250110253919972159e-02 3.891741928237069797e-02 5.168545547388039285e-01
-1.756409007942644554e-02 6.033558963894583571e-02 4.673225052173697325e-01
-1.511558901514952619e-02 3.877791678518859725e-02 4.525371804283054855e-01
-8.843007749222295266e-03 5.029776237662181987e-02 5.279970391348394188e-01
2.255828256633499521e-02 1.014154167417117940e-02 4.498026274996293483e-01
3.743259589858261710e-02 3.248546879159517481e-02 4.956458036297293201e-01
1.660416327836078745e-02 6.952056096404102270e-02 4.841333777075664258e-01
-2.754788405847061888e-02 1.419374542133062383e-02 4.417755159830906164e-01
1.509426327180727820e-02 7.011549676590898839e-02 4.943412052094273146e-01
-1.872654832150681681e-02 4.121256923951496787e-02 4.529866244979712797e-01
1.051512000373685043e-02 1.660065326659555113e-02 4.488292705996352328e-01
-1.231237973745847800e-02 3.933316047450647474e-02 4.534149327440596400e-01
-8.243155223466674258e-03 2.363932420820102562e-02 4.470495259571318769e-01
-9.590978111657832289e-03 3.971460956971091527e-02 4.541716568988748981e-01
2.220226485785457490e-02 4.467080104824907444e-02 4.687529813964764203e-01
5.580796731987022925e-03 7.845565369741509809e-02 4.845209143381329353e-01
-7.102526260058735462e-03 5.778098259410011095e-02 5.181166559994986320e-01
1.855024130282512465e-02 3.967327723128247219e-02 5.199192917637525113e-01
1.940519310911129058e-02 6.003543622821280040e-02 4.770971022063474898e-01
2.140427782169074603e-03 4.425002860639855318e-02 4.589124467918265782e-01
2.407132088007092607e-02 6.674103101675533251e-03 5.322069681250741757e-01
-1.293045696721229973e-02 -4.031508232249149219e-03 4.370795230692834932e-01
5.342045307319857189e-03 5.914933631585716362e-02 4.660764883116937929e-01
8.405060169458520788e-03 3.438210329185369812e-02 5.287929938396889185e-01
1.245962552938761035e-02 4.365814456475514138e-02 5.222465697209929258e-01
-2.821957042213920665e-03 3.302117635366545734e-02 4.524098522956336854e-01
1.747604411787160097e-02 4.254397245281939244e-02 5.187040016376818219e-01
-6.578558055188189931e-03 5.250248510228632676e-02 5.264102489426002451e-01
3.940099808539834769e-02 3.013406469850669553e-02 4.873757334906181349e-01
-1.285020190813672587e-03 4.113120356407762301e-02 5.292243031032627387e-01
2.405627662642772016e-02 1.722424380698337615e-02 4.537696890544699047e-01
-2.819773024283768470e-02 4.041578549659434472e-02 4.515577502413779531e-01
4.263864455167400321e-03 1.290259186448802775e-02 4.453941135608964763e-01
-4.172873257105524057e-03 2.067859681555454451e-02 4.466284354938206413e-01
2.029290711885860265e-04 6.604908742037632341e-02 5.084673292603574257e-01
-2.566095496613692364e-02 1.675068910424338739e-02 4.423035514005324020e-01
4.325030930090846895e-03 7.749850302767642696e-02 4.859745793336179287e-01
5.824967554235064432e-03 5.430349837246784168e-03 4.426199751390675896e-01
4.005032159855975715e-02 2.414116549353521879e-02 4.983990667977281075e-01
3.175702934873234073e-02 3.202765973984032094e-02 4.684255108924428868e-01
3.751504002505878788e-02 3.463917140972611053e-02 4.835765027395239057e-01
3.287010264155139361e-02 4.429041939673865336e-02 4.907443207680432518e-01
4.008596506633767265e-02 2.651953229449755325e-02 4.925163648209422984e-01
3.064319630074295933e-03 2.580671501108246224e-02 4.507817098886737761e-01
2.257601011313001282e-02 1.703057605485173293e-02 4.528229104986513098e-01
-1.599409142377221024e-02 -1.187434831095991739e-03 4.373715036790170041e-01
2.755733484637377245e-02 3.063078709091952845e-02 5.180623457513741092e-01
-1.867164231283273933e-03 4.524499207506394588e-02 5.277102199606128474e-01
2.533346052156444650e-02 4.042959265743561320e-02 5.124184820528114859e-01
2.487111311136304057e-02 4.588811052534544355e-02 5.106409980890667111e-01
2.731985105889636264e-02 2.451918909319499712e-02 5.224968487963600472e-01
1.736597577896563729e-02 4.594514834984063378e-02 4.662277447580990275e-01
-2.755508834108923860e-02 6.732030131964952813e-03 4.393554422991511887e-01
-1.457706244463405354e-02 5.744484504273988934e-02 4.605606132681531184e-01
1.515787149025078773e-02 5.268970181635699440e-02 5.149249246177768358e-01
3.052483122348629771e-02 3.983574213534020469e-02 5.057488039431313753e-01
2.695265357112158755e-02 5.371715148344283902e-02 4.916870351398876515e-01
9.783236901212770051e-03 7.002338306278632629e-02 4.750952253209557163e-01
1.345892975265885680e-02 6.194625349250242052e-02 4.722715559853808420e-01
2.480271989807955255e-02 4.782253777527624428e-02 4.731432420259700233e-01
-3.891057310100202310e-02 3.687295000349276319e-02 4.499343997815978269e-01
1.639071678195400811e-02 3.318884452801463408e-02 4.588123115343020753e-01
2.274101739587054347e-02 4.157054409929852173e-02 4.672874294709516430e-01
3.823999758444574654e-02 2.802093280627510063e-02 4.991457073907655806e-01
1.199028325371379912e-02 5.341225758852444910e-02 4.670467326125939400e-01
6.421470069636265807e-03 7.382709570908480012e-02 4.946291709778177781e-01
8.718084628945813042e-03 8.023101823786585318e-03 4.444058321480738871e-01
-1.120280355491898305e-02 4.932055560539519434e-02 4.574957454705528281e-01
-1.323241597433514813e-02 4.597159595038229768e-02 4.558011219140101211e-01
2.352571127780409693e-02 5.655373479564538425e-02 4.796111235868524836e-01
3.313838655618099593e-02 2.322636364891047384e-02 5.145836707954554168e-01
3.310343426647342768e-02 3.246550267128091999e-02 5.056454965846385319e-01
-1.042633831569568167e-02 3.980914729160609650e-02 4.540253848585685259e-01
-2.040225444067757937e-02 1.654713267685085226e-02 4.422252519051755315e-01
2.387805845866181748e-02 4.609157289874602631e-02 5.114079735456963371e-01
-5.607037067225018566e-03 6.145275843451869502e-02 4.633733584718144338e-01
1.792924076663707927e-02 6.015933155100090107e-02 5.050063658300315561e-01
-1.768665169970361911e-02 3.837916627609137821e-02 4.518355479794987639e-01
3.587507348976137767e-02 2.482081274555847025e-02 4.675173703569319161e-01
1.778770414927541635e-02 3.986438783258383634e-02 5.204723505233131986e-01
2.029524515380139171e-02 2.662591806908305714e-02 5.270203015673079472e-01
2.748963619071547598e-02 8.090609019618826003e-03 5.305192679763155450e-01
-5.882790205777609083e-03 2.192178268858984910e-02 4.468028769674693423e-01
2.233982076022416816e-02 5.493001673768409254e-02 5.037996615868586270e-01
3.058521096807890333e-02 2.023553880503532049e-02 4.601360644795230992e-01
2.666265098038965789e-02 5.002238853082238701e-02 5.017904577385058351e-01
1.401074308508715692e-02 6.435375985575816915e-02 4.741888843903200867e-01
-4.056116129678185439e-02 1.751894919190538072e-03 4.414842634716833469e-01
3.794407426760958678e-03 7.220396974250521682e-02 5.006243488699387845e-01
1.625153978368682611e-02 3.096124080822027294e-02 4.575971758459955741e-01
7.989420449568428173e-03 1.547624838941735140e-03 4.417863525650688739e-01
2.124593974865096949e-02 3.873147894137531771e-02 4.645480025703807025e-01
2.557900491339720056e-02 5.279051314905321146e-02 4.997986893386864860e-01
-5.592029404833423825e-03 4.911862247286662847e-02 5.274428431038774567e-01
3.978428986870342909e-02 2.602997413620520770e-02 4.950182705385389736e-01
1.649880948347580423e-02 6.371638451385409907e-02 4.763662029557669819e-01
1.938888871480978771e-02 6.676505388763986915e-02 4.875848665642935065e-01
-5.044775855438105375e-03 6.838164996852549860e-02 4.707155812859891708e-01
-1.943717248502058181e-02 4.079272341139013845e-03 4.380777894423529828e-01
2.865574783950510657e-02 3.283857931329262764e-02 5.130093852351103045e-01
2.340242074270363487e-02 2.371062767225689399e-03 5.336780411196418994e-01
1.890956072176074379e-02 3.413003744355255081e-02 5.237843687431333883e-01
-1.471791445674383927e-02 -7.556198448130784298e-03 4.368721002077258220e-01
6.798781674580076095e-04 4.877135413742861303e-02 5.256491722002948341e-01
4.694373563254083080e-03 7.437845384589006348e-02 4.918625335585716796e-01
-5.626852547737572208e-03 2.767891510817530043e-02 4.492727359838247780e-01
2.245142732407841638e-02 3.267350311532409707e-02 4.616431537450138567e-01
-1.691564830314728866e-03 7.043758886645928863e-02 4.753227809426032180e-01
-3.678652813766203865e-03 5.452836859541428799e-02 5.238646054220075232e-01
2.607111158691781568e-03 5.040725921634853224e-02 4.611677173912798744e-01
-7.419118760935265039e-03 5.746165219778041205e-02 5.150422395773396333e-01
-3.550240872164299455e-02 2.106291854215386079e-03 4.398691224038585590e-01
3.784130542780173717e-02 3.378094429038733248e-02 4.815792155422535803e-01
-5.365523528944635134e-03 5.264913098436804773e-02 4.596513146649829351e-01
2.860164832060572461e-03 4.200596514204039261e-02 4.582732918382641518e-01
3.941005251286596595e-02 2.624951650855836954e-02 4.976260061314648486e-01
3.323232010827503052e-02 4.134139588639584861e-02 4.976305500124051373e-01
-2.532393552604764869e-02 3.247671359783915052e-02 4.481250398930193835e-01
-2.353737841368792189e-03 7.014680047590703127e-02 4.748929369338628081e-01
-1.724207436920343131e-02 5.444402208769857227e-02 4.592574261814107439e-01
2.512878669692866773e-02 8.683679279733996087e-03 5.305280323365545447e-01
2.494765084981874492e-02 3.623332623337097158e-02 4.655561371024980466e-01
-4.645687817634136518e-03 4.141613588760133940e-02 4.557937359428392288e-01
5.297906154595595669e-03 7.569235482909406065e-02 4.799407646953635087e-01
3.231965378295349745e-02 4.554348580511814737e-02 4.900156723197643949e-01
1.637052935630749217e-02 2.828221196432440659e-02 4.562514880202612755e-01
-2.662622844814408266e-02 -6.037921874835032454e-05 4.380256718807876148e-01
3.629947528694302955e-02 3.725452113915773272e-02 4.866836211372743137e-01
1.497735407215612310e-02 3.862664995501041004e-02 4.610624681920080237e-01
5.487235958561906095e-03 6.567844961418418948e-02 5.103446097775828916e-01
2.027063697073754750e-02 4.316260802709197264e-02 4.665280085794565323e-01
4.072039895432893325e-02 2.403508700275877250e-02 4.947548483022331522e-01
-2.169861902247569724e-02 2.747027277571972848e-02 4.463791145188072407e-01
3.897357226474866803e-03 2.101691866685709981e-02 4.489054266754856082e-01
2.933030351647960762e-02 2.562934991936963169e-02 4.622050256669538726e-01
2.436149224346213088e-02 2.007707150106492408e-02 4.555153229391718517e-01
7.672583508646439385e-03 7.228680327411224349e-02 4.759056877030475863e-01
3.109691606714080903e-02 3.969295010990104428e-02 5.049557605184824549e-01
-9.807618813588599854e-03 6.164515755411088815e-02 4.638021592426655459e-01
7.677893107790594897e-03 3.932366104870198276e-02 5.261131534446091829e-01
6.697833430046034632e-03 8.599191918827636325e-03 4.441266520693974984e-01
-8.619319889910492805e-03 6.251963335213210626e-02 4.645206705964921579e-01
2.450538390993299565e-02 1.936641373792093168e-02 4.551846104312812225e-01
-2.964629311571725587e-02 3.422073594589804951e-02 4.486048882838267748e-01
-1.500817438557070643e-03 5.009011628472134076e-02 5.258318697365804706e-01
-1.960157738572032918e-02 3.082211233605778450e-02 4.479984020517159826e-01
1.004172972992278812e-02 3.442424483794835621e-02 5.284293525537404612e-01
1.025840570803998424e-02 4.611336760878426144e-02 4.626317950743925600e-01
4.031556122844606738e-02 2.501637389756699442e-02 4.943554416947836816e-01
2.354219180893583896e-02 5.906983010556161179e-02 4.935937315202081344e-01
3.466504300359917606e-02 3.829724161281846534e-02 4.983678326430495131e-01
3.352815712861514225e-02 2.865490458474193730e-02 5.079020546072017250e-01
2.212973557754084955e-02 5.595577025106038271e-02 4.772218678655946733e-01
3.647600377336438632e-02 2.543934099606152271e-02 4.685236514655354290e-01
-1.234290643598471432e-02 4.806361429589198903e-02 4.567349616493240894e-01
2.090341280874548346e-02 6.103619787351478171e-02 4.975983018153303794e-01
1.700102824648992705e-02 6.136558282887241700e-02 4.749669355385119918e-01
1.657656093184194795e-02 6.057489574578332064e-02 4.737658828329310290e-01
-3.505985946602303144e-02 2.959649469324860879e-02 4.467843004839493481e-01
2.124699674092322618e-02 3.379074913011348436e-02 4.615003045848145025e-01
1.259511629646605478e-02 6.973366435572141142e-02 4.768234227439083761e-01
3.568646516472931407e-02 2.955340935574593542e-02 5.028235794455533370e-01
3.959755247760243790e-02 2.973544580569293522e-02 4.866251799350883034e-01
1.215244281589137644e-02 4.730665829078192081e-02 5.202068949758570371e-01
2.893281105319767121e-02 4.417860427813495583e-02 4.743709786922651328e-01
-3.426231918776941748e-02 3.328233122396254129e-02 4.481379713699226164e-01
2.264782587783101611e-02 3.535386489473428540e-02 4.633174737909185326e-01
1.648344487155682311e-02 4.961982066965684585e-02 5.155836059638454483e-01
1.189043486244062246e-05 5.267846937949902802e-02 4.609777985835942227e-01
1.668740671475139534e-02 7.864197743321732145e-03 4.465896394131761982e-01
3.841731649548116301e-02 2.779992002228563394e-02 4.747445673966200763e-01
3.241941776448534727e-03 7.014914608964728515e-02 4.720291353468258899e-01
-3.212394857884129373e-02 -8.122908585508528245e-04 4.389217406981021363e-01
3.112636676127358837e-02 2.429248064468968876e-02 4.629901540636023327e-01
4.061097494242228712e-02 2.496774603723336469e-02 4.779175386205026244e-01
2.353908198992016049e-03 1.677638177341730930e-02 4.466045563988285116e-01
4.306271180895585374e-03 2.607438283567541960e-03 4.412736417971630520e-01
-3.283473958707031071e-02 3.399482545806381539e-02 4.484577569462486202e-01
-8.470203941311763712e-03 4.709237295810976554e-02 4.570957431984535857e-01
1.230528782150800034e-02 7.311174250054147672e-02 4.934921034820119456e-01
2.726765672254739207e-03 7.645301583478399110e-02 4.796376194290654649e-01
1.962678210660317307e-02 1.355243948845903830e-02 4.502169523215590052e-01
-2.064405101603391038e-02 1.671083755717156505e-02 4.422807605489078031e-01
-2.503711884604490831e-02 2.229405193865907631e-02 4.441579248385451040e-01
3.328179994543355169e-02 3.414639373390341431e-02 4.712530362348311130e-01
8.765938406078912712e-03 7.409335617653579897e-02 4.794760053577065140e-01
8.792248856035713572e-03 2.540711192565312665e-02 4.522454867955837954e-01
-2.263314787875867970e-02 1.242860418506296430e-02 4.406357614550216462e-01
-1.121493167184221124e-02 4.703910184937142025e-02 4.565573415328713081e-01
-2.439172152980881303e-03 5.496955015038695186e-02 4.610942848997285903e-01
7.225283138523616935e-04 6.125823275392046352e-02 4.645024598399065119e-01
-8.348138681818858056e-03 6.243374816970276991e-02 4.643987909843383388e-01
-7.631639711563405377e-03 4.483023958160800571e-02 5.295363315389056691e-01
4.457610585015597468e-03 7.179955480602713547e-02 4.745044626443018498e-01
-1.029583036380551410e-02 5.028952078552433036e-02 5.284289105387741659e-01
1.001117128979801124e-02 7.436404265677204473e-02 4.808464694879787671e-01
7.126348426562138273e-03 5.835038318380221349e-03 4.431123575054535246e-01
1.469370016599564135e-02 7.196089403524567885e-02 4.853826819183288954e-01
-2.960890323302375893e-02 2.822726035192009257e-03 4.389235585956364205e-01
3.312593238745559915e-02 3.406391461234275359e-02 4.710528809408166540e-01
-1.125826701714980130e-02 -4.969101551661704239e-03 4.370085976367238390e-01
2.773541663846902650e-02 5.345191503667411081e-02 4.869541838217860130e-01
-8.100412953916842629e-03 1.636656256326308664e-02 4.441414493644144090e-01
2.034158619211741750e-02 5.612843268944647107e-02 4.751081804372285222e-01
-1.802375700907907913e-02 6.020677278900803814e-02 4.669679202441332500e-01
1.496257709068586801e-03 5.484493268076828104e-02 4.623841058658020309e-01
-2.379755429959110741e-02 4.633722667509084653e-02 4.550732634397869347e-01
7.799351917125302291e-04 5.043703046247569044e-02 5.250054419368815894e-01
-2.133071243183735921e-02 -7.248827690874599938e-04 4.371858711283543308e-01
-3.288574527801217933e-03 5.854539977848783466e-02 5.188413230507421536e-01
1.595443660379778847e-02 6.182019830531549492e-02 5.058950844321751239e-01
1.393975027434131084e-02 6.612564288582241379e-02 5.020213528195832664e-01
9.933427892568841636e-04 4.142309787128543863e-02 4.574317647925646435e-01
-2.292493410903465034e-02 5.845463200761185502e-02 4.646164130653385738e-01
2.903633053050538176e-02 3.496705478153275259e-02 5.104907947234810228e-01
3.833706991152954768e-02 2.945092416429153856e-02 4.765528519104673677e-01
2.987914752684314550e-03 3.126378627297643487e-02 4.532489609948442966e-01
-2.694606386424688860e-02 4.492268944789280447e-04 4.381589945403717157e-01
-3.187639375952658338e-02 3.286642939693481397e-02 4.479953007908434870e-01
2.355357307659300750e-02 5.990880975236442807e-02 4.915538832732643248e-01
-3.159940887187182718e-02 4.284453294317505656e-02 4.530459561920460176e-01
1.311225252538305436e-02 5.830203164046950798e-02 4.700445327793955075e-01
2.260635823264219718e-02 5.623915192214028191e-02 5.011088581548046594e-01
4.269501157817301960e-03 9.490399994618661794e-03 4.438962125728684316e-01
-1.080302552864360194e-02 4.692267817445875538e-02 4.565929899097751488e-01
-2.618208423912824281e-02 3.909981736396599822e-03 4.385022117257778018e-01
1.504677965792901133e-02 4.539124779315866637e-02 4.644767879057591919e-01
3.281627924385939477e-02 3.896184121659160282e-02 4.750016304652076027e-01
-2.213247850722857395e-03 6.964890574325910411e-02 4.725635163604091082e-01
8.698482347639506160e-03 4.182140799840372569e-02 5.245924449455586780e-01
1.018697647419889579e-02 3.932889040532253772e-02 5.249295974730167069e-01
3.275947334078496004e-02 2.443899681297787008e-02 5.129232035940852752e-01
-2.763458408926944276e-03 3.858246445071290137e-02 5.297655724164462843e-01
1.243196946434187503e-02 3.723868886602896972e-02 4.593699510200852099e-01
8.939489806773968927e-03 6.780547923041041480e-02 5.060494434149459542e-01
-2.457901182436354748e-02 4.839532442321528571e-02 4.564157135673296839e-01
-5.180061807656365959e-03 2.255655386464663556e-02 4.472026172816374046e-01
-1.920560921589585870e-03 4.736924956024668454e-02 5.269619186489599150e-01
-5.004504275602484308e-03 5.892172010538651583e-02 5.147282621399789093e-01
3.429165581770375615e-02 3.070110703535306254e-02 5.046256149449588335e-01
-1.843899338916915771e-03 2.739500394272542660e-02 4.501173044879531737e-01
1.317475399355760510e-02 3.673588510211944769e-02 5.249087468950284219e-01
7.145239722783715969e-03 5.234787915796283719e-02 4.638772616936434612e-01
3.139198281170386962e-02 4.451691512667155237e-02 4.985166917149970178e-01
3.090877770553758508e-02 1.923294054789254082e-02 4.597746843277324968e-01
1.347654070678536153e-02 3.389303606279062131e-02 4.580360070091494262e-01
3.532760812584440774e-02 3.930433364891434272e-02 4.884552242797104982e-01
2.967695993551613259e-02 4.060454166760632533e-02 5.065007607746124796e-01
1.269413703691752923e-02 7.295702375059065492e-02 4.823040323321951539e-01
1.149511122702983126e-02 4.573864302078033128e-02 4.630355762966896216e-01
-2.378974049701308019e-02 1.983641963880726847e-02 4.433448923782872808e-01
-2.061946442849564576e-02 6.772970554963033546e-03 4.387152404707843623e-01
-1.606552999290112443e-02 3.880459891731848077e-02 4.523365353705213754e-01
3.577151105233106199e-02 3.821507547405521982e-02 4.816512514639568754e-01
2.540662338772157330e-02 3.683858837171183342e-02 5.149129886747353391e-01
3.082644643526415498e-02 4.833812490424446023e-02 4.864375122583329270e-01
3.692033555930401053e-03 2.580193045793771275e-02 4.509740504672631323e-01
1.860403470358555980e-02 5.878001813976960199e-02 4.749478750153420803e-01
2.836940178984636435e-02 3.980998785587232247e-02 4.706089483655332972e-01
2.463614526867386259e-02 5.880469119416265045e-02 4.836916574521903378e-01
1.876426872198126705e-02 4.848579729349229012e-02 5.143305572267908854e-01
-3.124949957601866855e-03 4.533204467269733029e-02 5.280017533743899261e-01
1.356096763593244228e-02 2.442646518332525912e-02 4.532592867581605178e-01
-2.093061028412222802e-02 5.923162501934542412e-02 4.657741557935295429e-01
2.406295303531681001e-02 3.424956034327764076e-02 5.175585028781523045e-01
4.014106623813971930e-02 2.824099626182807049e-02 4.830497883142210735e-01
-2.145683112235246062e-02 4.082831511281356796e-02 4.523604741757334957e-01
-2.523056113503151926e-02 5.778660169326742951e-02 4.651342004852736522e-01
1.140106276366248568e-02 4.120109885909949143e-02 5.236366004159088705e-01
-1.375041633630492283e-02 4.925938730431951573e-02 5.293619015191084465e-01
-8.331250139547904596e-03 3.079038085718845130e-02 4.500779373835846475e-01
-1.644609829360998282e-03 6.612324778232381295e-02 5.017789166296222625e-01
2.681562864047079553e-02 5.515154181577844317e-02 4.892858922098131669e-01
2.898242889196587721e-02 2.144447638363691094e-02 4.594832049730621093e-01
3.737816051084751068e-02 2.546500833034084574e-02 5.033286081822521130e-01
2.361676110618780161e-02 6.034106604164883592e-02 4.900445824628258396e-01
-5.652901331848888752e-04 7.040222036424553798e-02 4.741601674619326801e-01
3.826277932589865465e-03 5.743993171418933924e-02 5.174430940710545990e-01
1.699187192812966554e-02 5.178562908110558721e-02 5.138871007305929606e-01
-7.534708594966873715e-03 5.676731608092534104e-02 5.183190679511314736e-01
6.816483108377152655e-03 4.456350001693966389e-02 5.245867824409603530e-01
9.813669128868642011e-03 3.320147614447652162e-02 4.564407249172189318e-01
-1.316166523670271420e-02 4.396301072375419922e-02 4.550904844651975090e-01
3.537089485550255069e-02 3.553823148170869722e-02 4.995073399946267645e-01
-1.202061742243235205e-02 2.113139501669564213e-02 4.452678545286344880e-01
