-1.282321024473413729e-02 5.182127516496903841e-02 4.594932809303194921e-01
9.301162510013939039e-03 4.636163388086934900e-02 4.631929323843425594e-01
2.094019860860186349e-02 3.400328867935085986e-02 5.243940259687315253e-01
3.030890139820238346e-02 2.859150954831871788e-02 5.162003622742389330e-01
1.969630627956162408e-02 3.169827594204534249e-02 4.600133548154763941e-01
-3.573374039719411782e-02 3.966292647877474320e-02 4.525896227299708863e-01
4.069064765270568977e-03 2.008520072345144902e-02 4.491573362015228721e-01
-7.189008381889621692e-03 3.148052809672163138e-02 4.514943860853852797e-01
2.660592350664712363e-02 1.420092648838952760e-02 4.543945233300150655e-01
2.741288839414265238e-02 2.118794968945943852e-02 5.251146436820236518e-01
3.482309871051716965e-02 1.937617052212580598e-02 4.633624546149286982e-01
5.118927797679864548e-03 6.688024094651066898e-02 4.713813133689918056e-01
-5.656670935247208598e-03 3.858479683635676616e-02 4.553878781201798898e-01
3.862428182638351359e-02 2.268804771278070190e-02 4.700407940403253382e-01
3.933134833917539125e-02 2.466112376559765132e-02 5.008037292315193900e-01
2.233240419660597470e-02 4.397844238868410527e-02 4.690719812047950410e-01
3.288383078083880265e-03 4.059356243355932009e-02 4.586970479686898194e-01
3.320593565401155217e-02 4.517493449626713842e-02 4.854252081793167251e-01
-9.771761492380980074e-03 3.534996240096748010e-02 4.529001810049080867e-01
-3.266827078952265484e-02 3.805911715329950845e-02 4.512304254110812152e-01
2.295153541040741846e-02 4.809034607647540149e-02 4.721315480868935599e-01
-1.463557466583460809e-02 4.450811291727334307e-02 4.560985759274916451e-01
2.379421911469619885e-02 6.138358549354861610e-02 4.895228542757826262e-01
1.485452049659225990e-02 6.165438411663635987e-02 4.738698043873219579e-01
-1.180060813871006836e-02 1.371451281426188870e-02 4.428254424574335490e-01
4.187869743297494701e-02 2.387041031209487588e-02 4.872591319650270703e-01
-8.547550364558880592e-03 4.694197748473129261e-02 5.323370258917152764e-01
2.959383202491206941e-02 4.628769403652253922e-02 4.780073345871368451e-01
2.610902529904447419e-02 4.723887470074103478e-02 4.745489230873081721e-01
-1.192497360804462177e-02 4.785568739495205115e-02 4.578496594361006755e-01
-1.215336478902291975e-02 1.777655328835956242e-02 4.444383163441672502e-01
-2.771844263396315566e-02 7.984482548578555189e-04 4.385614975704425489e-01
1.094142179797272588e-02 2.453521817261369864e-02 4.531306387145410119e-01
4.442346020499624362e-03 2.874856157634051237e-02 4.532528548034219229e-01
-3.377500082544408234e-03 6.026802347305384999e-02 5.171837888502581748e-01
8.396459475308769987e-03 2.724759986477892637e-02 4.537060347082180201e-01
8.145271443154562460e-03 7.413328318712819609e-02 4.970257415998154404e-01
2.151680856483151327e-02 6.233520066498068196e-02 4.971730385254840567e-01
2.793490840498689259e-02 2.418303743592895017e-02 5.233862192222175080e-01
1.663083342292297553e-02 1.547899914325183077e-02 4.504647438865843623e-01
-1.675871651962610939e-02 2.842234124460200559e-02 4.480903767497848023e-01
3.840867335013936623e-02 3.164620638913800965e-02 4.947180636554527333e-01
3.244652268264898443e-02 2.523730061825315424e-02 5.151522715798996233e-01
1.526483408113437322e-02 7.190029263590083652e-02 4.879999382494680793e-01
-3.373023485381522468e-02 1.913642832732344139e-03 4.396804707496060338e-01
2.130588226174250435e-03 1.991525511409833818e-02 4.485572685510010316e-01
1.679528786111467165e-02 6.298443948939917714e-02 5.051879558349675614e-01
-1.770377823694315594e-02 2.166865028325751577e-02 4.450764864695111456e-01
-3.430890946402528202e-02 2.621035751120076931e-02 4.465370043705835790e-01
-1.230655459803759594e-02 8.757306695652654696e-03 4.407932972129809945e-01
2.947119625595537654e-02 3.639402867522979063e-02 5.109206163028670034e-01
1.949293667357484758e-02 6.367031280695747975e-02 4.991548337082509224e-01
7.561261678015510600e-03 3.871812941899600846e-02 4.591911135243003650e-01
3.532859332316620055e-02 2.328114247689566998e-02 5.103174808829880060e-01
1.483271813544801560e-02 5.087827397042576222e-02 4.680643143751196944e-01
-3.171589170518079176e-02 2.028431945928688487e-02 4.445225821498510754e-01
6.092501338629794511e-03 7.269534592190614319e-02 4.766897892914519486e-01
2.139019294349718547e-02 6.343934869831267809e-02 4.835432905648557877e-01
3.498428935457307404e-02 3.123227402170956207e-02 5.044412256275977446e-01
6.714371679586123715e-03 5.357156097055174038e-02 4.652294428918266056e-01
-2.841202912296040065e-02 3.132601565292370688e-02 4.483347406504761823e-01
-4.289839473594268121e-02 3.513821436944929155e-02 4.503837354820858785e-01
1.333184847057267142e-02 5.512142630936686660e-02 4.694894924086338572e-01
1.567697870812505279e-02 5.810771196975859226e-02 5.132623595461682786e-01
6.150839883965471960e-03 7.330372046794711438e-02 4.778031084579086318e-01
-5.629646130577223816e-03 3.604514253606327934e-02 4.541520266304293063e-01
-5.020982757709265346e-03 1.113458758067173426e-02 4.431115582241306750e-01
1.542589301364502390e-02 5.980180153252130648e-02 4.732753917344111327e-01
-3.953219143487665330e-03 4.334645752075036440e-02 5.318568861954510174e-01
1.397215234833442017e-02 6.514798345432533389e-02 5.062251880941115445e-01
4.012217415975483092e-02 2.302598099396026624e-02 4.739267078487885421e-01
-4.595407707789126925e-03 5.483044431093534593e-02 5.281713864323258623e-01
-1.773715800382452343e-02 5.400740937605746222e-02 4.602176913935528968e-01
-1.403002982617095051e-02 4.947996402295432028e-02 4.583699419647250251e-01
2.847760294788020605e-02 4.821443992734456702e-02 5.034861906765568662e-01
2.620730492088555602e-04 6.230849412559286843e-02 5.130526721864077100e-01
-1.639081220464478489e-02 5.921687721303262736e-02 4.638968347253219493e-01
1.746290171304502870e-02 5.704063818726300139e-02 5.127419201244289848e-01
2.987630377751503141e-02 4.603403431350441832e-02 5.036489698155718342e-01
-3.655015092563149853e-02 3.235734892822204889e-02 4.486564030082991206e-01
7.357050240514721381e-03 7.528522368876897075e-02 4.814309210901001057e-01
3.610186527250157373e-02 3.839105834826408298e-02 4.928019484346010670e-01
7.566271001977747240e-04 7.045823518886239201e-02 4.738976360720834613e-01
-3.931592008760399770e-03 5.243065273309014535e-02 4.610162612623281420e-01
1.294819384465180703e-02 3.863105222129352596e-03 4.441031700883414368e-01
-1.403182438829605333e-02 4.371304570489221303e-02 4.559071690415349987e-01
1.762370673402275170e-02 5.961276651218719302e-02 5.096221222400619810e-01
1.731703002489895157e-02 6.986505294680059319e-02 4.903372535683228617e-01
3.107823988939223056e-02 3.297688344268917549e-02 5.103246207491087816e-01
2.860149033047558811e-04 4.971147829667697110e-02 4.611347941207500356e-01
6.622893670068403030e-03 2.701450527468371790e-02 4.530938080646825239e-01
-5.053742125306679919e-03 6.841152347231915787e-02 4.722071983519734450e-01
-3.371414214014929571e-03 5.997697312223698729e-02 5.197284040546096273e-01
3.354055218967384039e-02 3.980815541535261126e-02 5.024918449234145879e-01
-7.101089020037170373e-03 5.290290430923860407e-03 4.405336716153560594e-01
3.455390249751955252e-03 7.579307179238317649e-02 4.871763622478778033e-01
-5.225464943500039358e-03 6.157802678402968938e-02 4.647619075016510282e-01
2.012126391250070902e-03 4.265440208200717981e-02 4.591957012255215576e-01
3.410220911370410307e-02 4.157734486190258621e-02 4.818570043979194528e-01
-3.591417015320583911e-02 3.030269476881981838e-02 4.478922972907543043e-01
2.696063953861263518e-02 4.920542823601710414e-02 4.777344239523875213e-01
-1.133485775198109398e-02 1.866433956653631293e-02 4.449895074938193251e-01
3.422063649298143911e-02 1.961086957631865552e-02 5.185152780254124183e-01
-3.346158670626726839e-02 4.016720542096079843e-02 4.523612600572116116e-01
3.031326207307448797e-02 4.437284880436780099e-02 4.769758990864102488e-01
-1.898175533914516627e-02 4.246087020256673894e-03 4.385022257662070100e-01
2.829142480465094214e-02 2.739553920169679121e-02 5.210926707702100424e-01
1.652495698262304580e-02 1.384501679536690941e-02 4.496714486055863325e-01
-5.272086266206499165e-03 6.351307823387841722e-02 4.664770336735746814e-01
-1.520262975487000554e-02 5.974412857331769244e-02 4.642980664733201701e-01
8.406861154166016606e-03 1.749976295667698967e-02 4.491727567788326159e-01
-2.027968423960597316e-02 5.908219658219900083e-02 4.649312518205894751e-01
-3.397168329716593327e-02 3.437451582293875318e-02 4.495439984901042907e-01
2.541240485114443920e-02 3.312726966797888833e-02 5.204760253255824587e-01
-2.804963457210536346e-02 2.862024044452172664e-02 4.473797868297433866e-01
6.957022816510572034e-03 2.992336043551456493e-02 4.546024229485596813e-01
2.170557798986954071e-02 6.475448247064688467e-02 4.889480137856443975e-01
-8.087858751444116853e-03 1.407995421731837032e-02 4.437239382130157006e-01
3.992598246674222695e-02 2.768776320827826681e-02 4.933353909594079822e-01
1.690412430956717005e-02 6.297193106113865846e-02 4.767737330929305295e-01
1.435124277309501178e-02 2.802106241405218773e-02 4.559748886059831752e-01
7.077427480503220396e-03 5.097909134120819780e-02 4.642629773584700525e-01
3.757309254114930136e-02 2.747010839755133216e-02 4.722536451573584038e-01
3.601996663713272900e-02 3.908206175704808522e-02 4.838703688467566044e-01
3.477024771852132989e-02 3.946634452396707154e-02 4.804152576695119303e-01
-9.170108681105104340e-03 6.075990168005995090e-02 4.640941747883326474e-01
4.706600637717911484e-04 3.632025953765154191e-02 4.557500851840463607e-01
1.585084530103050490e-02 3.023975037994669837e-02 4.577347350608980125e-01
4.628915972361142064e-03 3.917175303529520092e-02 5.307073714241445916e-01
3.761331239482028355e-02 3.499449497884544319e-02 4.894125836368970472e-01
8.609952618017623766e-03 4.849231763754869445e-02 5.248508790051569228e-01
1.923761039817006857e-02 6.798488048429832120e-02 4.906078025289885014e-01
2.062171776616642319e-02 4.426510581160029295e-02 5.175318453236465999e-01
-2.971069127357012923e-02 3.707018049539340804e-02 4.508397258322906498e-01
1.132568611214340021e-02 1.188901242415349620e-02 4.473430961233041958e-01
-3.788860091103631728e-02 3.970261334080005949e-02 4.532772706197530921e-01
-1.954130414668681440e-02 5.979898500372413106e-02 4.692942076351976910e-01
3.987179036092486362e-02 2.975376519846804901e-02 4.848261808042522714e-01
-2.473886498148920518e-02 2.758748027381455539e-02 4.470990719749320941e-01
1.759208596302064970e-02 5.362693133076291974e-02 4.711387103960850697e-01
2.008402638206252186e-02 3.721217130087946245e-02 4.634418423437109968e-01
-1.230571412300613537e-02 4.569074710859857141e-02 4.569642836620035897e-01
-4.529394254122522459e-03 1.296140244371695935e-02 4.438354505879420486e-01
-1.541556218631316526e-03 3.895674031388855763e-02 4.564470731703258455e-01
1.659949593661042000e-02 7.051337027216317277e-02 4.865759668490606815e-01
1.660106766456771049e-03 4.489341721766645921e-02 5.297139486495960892e-01
-2.850236372343782458e-03 1.318054290508004905e-02 4.442118575204180297e-01
-5.876739591661481708e-03 1.417084366824705255e-03 4.393160210116544562e-01
6.908142011828152969e-03 9.064721227253748348e-03 4.448361637688276193e-01
4.587801776554394431e-03 7.152200524408075522e-02 4.752385844340762389e-01
1.139405021492503021e-02 5.415596371371453333e-02 5.188615992994410897e-01
-3.295452775902045495e-02 2.830496990814787214e-02 4.472324136338913791e-01
-2.133306372684075358e-02 2.766650921187233797e-02 4.472323891527211770e-01
-7.609049480761800269e-04 6.199411838175410833e-02 5.174219222396836404e-01
4.229573598630457371e-02 2.332008964492245789e-02 4.843443880735823770e-01
2.715633510019914779e-02 1.009148869137967142e-02 5.289610401558658692e-01
-1.053102481503984458e-02 4.796066402595240002e-02 5.323157915106070392e-01
2.307981868921903101e-02 5.423250572173013428e-02 5.060983396738814033e-01
-1.501181480457948469e-02 5.040044986158496998e-02 5.316966250856310916e-01
3.282865993661468907e-03 7.218337742828948023e-02 5.001563630023276863e-01
3.178980918551838758e-02 4.321342416807246595e-02 4.782545994660839517e-01
1.265199333642455688e-02 6.625418216441394947e-02 5.068193996246197486e-01
2.531051939184474422e-03 5.073725373940016908e-02 5.270100989496249166e-01
1.963041771677340869e-02 6.631398669198693141e-02 4.938890361151088704e-01
-1.379021585501088651e-02 1.784818333127356077e-02 4.441317387065200628e-01
3.972343875845457672e-02 2.759781742823029169e-02 4.943360177554093626e-01
2.266311158221414115e-02 4.036984592277235995e-02 4.671238235282665907e-01
-2.209865591835967133e-02 1.442407651940097284e-02 4.419188029815393493e-01
8.163366282913923216e-03 3.499437623099065087e-02 4.575685852282616595e-01
2.632562568502600647e-03 7.610870242671301245e-02 4.811155747473266908e-01
2.917427714617606277e-02 5.195516913065002101e-02 4.888747132520644412e-01
-2.275004768039384003e-04 6.963383171808762429e-02 4.717820215700705422e-01
-1.032555352160435293e-02 -6.494236535900808557e-03 4.370050675285424013e-01
1.811782742313671271e-02 5.476901413113056255e-02 4.722413556749822661e-01
4.022897192725102822e-02 2.805685450110423362e-02 4.905317580696594848e-01
-6.523387186340894386e-03 1.479114142843985201e-02 4.442944135165516339e-01
5.880393162532462567e-03 6.250716529233342478e-02 4.690298885525923112e-01
2.794692503115335513e-02 4.072899971070043784e-02 4.714296123049915854e-01
-1.470007182852409860e-02 3.083440544915702630e-02 4.495820643500562652e-01
-1.170220610733204401e-02 1.311400408721592227e-02 4.425983178455401568e-01
-1.761624880813743993e-02 5.289372680423804624e-02 4.596172495771779221e-01
1.875538873292095787e-02 6.014798190556761709e-02 4.767489163384490691e-01
-2.143889652358023368e-02 4.677687037773012313e-02 4.565380962824990840e-01
8.769944456892823925e-03 7.431304495824513079e-02 4.968717074661989086e-01
2.439942256786339914e-02 4.861073048534741287e-02 5.111378771812401522e-01
3.254879889215359784e-03 6.768342041144678745e-02 5.100973608483795330e-01
-2.045840374329053676e-02 1.077988915982569865e-02 4.405394914805645379e-01
3.587178922150238009e-04 3.903305632751304793e-02 4.570602720697940491e-01
1.907748632821284693e-02 2.685208225488008166e-02 4.571941696080469852e-01
-2.494766868264340458e-03 5.402230090373119631e-02 5.276776684641312221e-01
1.220396311981996988e-02 4.725532750240673402e-02 4.648632167229339029e-01
-9.507600145152769744e-03 5.088029616403640099e-02 5.316426383032418768e-01
3.560165254216791919e-02 3.778042336991268429e-02 4.978479467275648274e-01
1.134297107375498159e-02 4.477477168600097965e-03 4.439328262025676319e-01
-2.657273784323409271e-02 4.518013172098057917e-02 4.553960848880165835e-01
-8.280578942706237969e-04 6.599416889112434681e-02 5.039835008791093696e-01
2.007566698866978042e-02 5.391106353999668144e-02 5.121204867715279940e-01
3.150992684228363233e-02 1.648900100678742098e-02 5.241514310629543649e-01
4.019300922860578190e-02 2.600764228276571111e-02 4.943911033545798084e-01
-2.963781950875079597e-03 9.131425208004854965e-03 4.427240095609129011e-01
3.175287712512783744e-02 4.736091427167458956e-02 4.936055521644574506e-01
3.596686091402705177e-02 3.860277420751546257e-02 4.949166270360886299e-01
2.962608566827792250e-02 5.035399610656211139e-02 4.854273721461806468e-01
-3.476575921630398885e-02 2.518528817156112307e-02 4.462509095276242510e-01
-9.606735998299864576e-03 5.467722289613691916e-02 5.299507217881426202e-01
1.865193410794339229e-02 6.024816866927922704e-02 4.767013285588461158e-01
2.177750945638785504e-02 1.393816364536128866e-02 4.516777150277333508e-01
3.795359055450650901e-03 6.533406008645165075e-02 5.135093452133578928e-01
-2.233469269494145482e-02 1.777517086479338954e-02 4.432168091160267331e-01
2.106717199271687310e-02 6.327602965568793203e-02 4.968883593683982580e-01
-1.335355069821149432e-02 5.337732067722669727e-02 4.601121722078802545e-01
-1.470696366860324567e-02 3.577307001163332334e-02 4.520876578904985399e-01
-1.952195056419783054e-02 1.107027512788474367e-02 4.406742230985689623e-01
-2.893230958249233542e-02 4.901781504634716846e-02 4.584107039097871650e-01
1.722410138539875058e-03 6.405484403115214997e-02 4.680782490254808970e-01
2.317851181551928551e-03 2.139411452579365394e-02 4.492843707847271051e-01
3.399784135664157825e-02 4.260318695363109892e-02 4.941617163875042795e-01
9.505359822341217374e-03 7.495254801881665041e-02 4.931308284659127184e-01
1.318027934581679841e-02 5.642074641006961100e-02 5.160257982623562834e-01
1.948081686008248936e-02 6.682656352922164422e-02 4.929758209189131213e-01
1.298156358128061544e-02 3.082179041862411970e-02 4.569518578247882545e-01
3.323249983071754898e-02 4.033034312053858372e-02 5.026008371000127983e-01
3.715714628099352212e-02 3.602748403743443600e-02 4.900011747406990970e-01
-4.949077976030655246e-03 6.834112672835433722e-02 4.713774148009253206e-01
1.788573977325342082e-02 6.366896225145118882e-02 5.018528624524304371e-01
2.740588508514875052e-02 4.679667737325424182e-02 5.077353909008441857e-01
2.569496115070595346e-02 6.729672966572976950e-03 5.324354258090866487e-01
2.365923190815042571e-02 5.649799033957864786e-02 5.011631492900812113e-01
-1.943891900627187780e-02 5.974210691322606043e-02 4.681323866029831193e-01
-6.703255936663463782e-03 5.580010932310506405e-02 5.284616504702085438e-01
1.251269582030098068e-02 2.567005086941000908e-02 4.541906188396668265e-01
-1.174501109824638463e-02 4.418471247693170345e-02 4.564967932124532890e-01
6.653585963457711236e-03 3.604279407614114500e-02 5.307684139694291980e-01
-2.913080673475433591e-02 5.135571045797122404e-03 4.394951683012066623e-01
2.136255326750522224e-02 3.638510127793089660e-02 4.637120878275204916e-01
3.033587860279812753e-02 4.103777722736159234e-02 5.068756395051542407e-01
2.367602179502810780e-02 2.772776512726586595e-02 4.601495079417106115e-01
2.392924755504597864e-02 5.794119008983534408e-02 4.979839544157789732e-01
2.760145936225960606e-02 4.582950343466370147e-02 4.748223935164427312e-01
1.721028559976552769e-02 4.535536770779514948e-02 5.198722395238704053e-01
-6.675731594330221175e-03 3.789409131973701939e-02 4.548825875278356135e-01
1.747154836306533121e-02 6.969008739052395818e-02 4.883473489724757255e-01
-1.250867899836946052e-02 5.451409664586671922e-02 5.278243149952526192e-01
1.395065624003586496e-02 5.494072775500797451e-02 5.167457373536925580e-01
3.488447713233909508e-02 1.873642938149309295e-02 5.184929725344390450e-01
1.628825757789080855e-02 5.754781049676620241e-02 4.726229845484224978e-01
-3.913556798069223880e-02 3.948670997744422456e-02 4.534579387807788908e-01
2.408893702953462251e-02 2.480028519055495206e-02 4.586796482479651993e-01
1.007189220658028135e-02 7.332162667199820794e-02 4.990206125074094223e-01
1.919398998080484517e-02 1.417952829622487129e-02 4.508112308851218164e-01
6.510902890087755072e-03 6.414635353056954981e-02 4.702130273068096389e-01
3.721706477833804094e-02 3.441852191607803341e-02 4.801492982545762511e-01
-2.338310973579655130e-02 3.735691041973349114e-02 4.514009711717776319e-01
-3.744874297339636365e-02 2.944962126940540298e-02 4.478482660307173124e-01
1.561917613905144768e-02 7.101993389396452083e-02 4.936993396324901862e-01
-1.928521333445103441e-03 6.045823572545248881e-02 5.144949048030080796e-01
1.553189628988151105e-02 7.159844499867437650e-02 4.886690646536841487e-01
3.288830881013602575e-02 2.637691676845639946e-02 5.123624384686210620e-01
-5.772490271572326172e-03 5.640759558904440835e-02 5.269039530484961320e-01
1.499977262636944392e-02 1.002742466375250267e-02 4.474675728823897525e-01
1.241011779800799304e-02 5.334836609106605870e-02 5.189188782524011279e-01
-3.176217143374896607e-02 3.177075189921764464e-02 4.484262031247313596e-01
-8.109017903454553838e-03 4.550991339855909451e-02 5.322925205047210895e-01
-1.666952529062782143e-02 5.345590759753386656e-02 5.292562481572645749e-01
3.003473463623089132e-02 4.058673888826271753e-02 5.077441104830843210e-01
-9.047966774929961514e-03 2.649474150288720631e-02 4.487885822537245883e-01
3.291336457468501189e-03 3.002296029609259273e-02 4.535226194019532642e-01
-4.151090035666453806e-03 5.607741127370387095e-03 4.411231703541641513e-01
3.437479129445317541e-04 4.466244705717594549e-02 5.303648945660478509e-01
2.694641519421878822e-02 4.602584121872985851e-02 5.098052427369778039e-01
2.598733094534905891e-02 4.487459673559442141e-02 5.115126970397774198e-01
1.240429021559289434e-04 4.164986149974091167e-02 5.313321445366986362e-01
3.405921246840747790e-02 3.949342759522312535e-02 4.785953760701715520e-01
-3.982829277387811562e-02 2.881244812494913876e-02 4.479931611677695491e-01
3.557094323617651654e-02 2.167378594613647222e-02 4.654932942877473279e-01
-2.769681549783750609e-03 4.271860281313984153e-02 4.577530045642880241e-01
2.663744498477435899e-02 3.896632704887861148e-02 4.692549548033518869e-01
2.430102725844920583e-02 5.720121570756254298e-02 4.983573187760956813e-01
2.515188848077429609e-02 5.037600677815957939e-02 5.073535954184008601e-01
-3.722021425329161484e-03 6.320552184193227452e-02 4.664664222470914501e-01
3.657947343379375216e-02 2.927075060127213441e-02 5.026756971187174017e-01
1.895544375483510652e-02 6.794052249224701023e-02 4.916336478151043243e-01
3.668880546110050295e-02 3.287368021535676255e-02 4.766268533863364243e-01
2.185110418231821575e-02 4.560636308128545105e-03 5.331626223605949733e-01
-1.600470445292237823e-02 1.622329416033114341e-02 4.429831448319108689e-01
-3.635498722997934640e-02 2.087149655430405037e-02 4.452294915548556387e-01
1.819384683235869896e-02 6.148140796410480474e-02 4.771956486900843508e-01
2.934015305666820908e-02 2.762898629598236136e-02 4.639524507131542741e-01
2.047961682373773684e-02 6.106395276897517294e-02 4.798507794599381482e-01
1.752476209126849205e-02 6.788231228835366060e-02 4.825209111460094236e-01
3.747655135134973781e-02 3.498375475320079225e-02 4.936934175118528056e-01
3.812978337031917853e-02 3.381195245866396026e-02 4.897738630357206246e-01
1.694413481372643998e-02 5.193886267921592192e-02 4.698218377384854594e-01
-6.044287546736375541e-03 3.067982732508700225e-02 4.513605203327615834e-01
3.958692256233892898e-02 2.116243691442239519e-02 4.708354575371708206e-01
2.452274427937408199e-02 4.938534285543218910e-02 4.747917308642919942e-01
-7.361640005836319299e-03 5.786631032670675606e-02 4.622895906089518614e-01
4.406572563096065528e-03 1.524906513384561256e-02 4.470154806445564288e-01
1.777167414822756336e-02 5.974649812233077950e-02 4.752124619801394445e-01
-1.204654143351380907e-02 4.856768363675234568e-02 5.320398691973300398e-01
5.656704646770024936e-04 4.462537865352542849e-02 5.302877110980961373e-01
1.252349854388607256e-02 6.665364415728892988e-02 5.064591326373663049e-01
2.282841728835300135e-02 3.527033319816465229e-02 5.214673713273315636e-01
3.981090638431949991e-02 2.826682382606200347e-02 4.797898209146189696e-01
1.710807416813484028e-02 6.941315936897576866e-02 4.847273138419472271e-01
1.139509092651200435e-02 1.017574850266977568e-02 4.465277645826877251e-01
2.363108744076665088e-02 1.212357250292593440e-02 4.515471362615058881e-01
2.211786203681318647e-02 5.958251627310945375e-02 4.997243442016230941e-01
-2.526911163351926778e-03 1.154684434509010461e-02 4.436454896551145222e-01
-1.197998291614078663e-02 6.145307261347437988e-02 4.653178293731769499e-01
1.095290947704720321e-03 6.662114906454449925e-02 5.086788421997057164e-01
2.539177751201137853e-02 5.048890854884323376e-02 5.066989832873439736e-01
1.840799624651224403e-02 5.528427910376217808e-02 5.128841678887183786e-01
-4.611179733347035847e-03 4.797420555989778679e-02 4.592615461297927526e-01
-1.438519840403660460e-02 5.022008711871861486e-02 4.586597098266984029e-01
-1.764282134269712799e-03 1.815965001347409624e-02 4.467392662699770089e-01
1.781365215106284552e-02 5.624692620024355355e-02 5.128781215541401428e-01
1.900495463456760778e-02 6.829630317917728677e-02 4.902786735726485379e-01
2.111747810196747122e-02 2.969821575519749485e-02 5.271488606821105316e-01
1.075412266408545987e-02 7.432813218680872636e-02 4.952943012033111381e-01
-2.486095716277682277e-02 2.404371392262558832e-02 4.455134298153080596e-01
7.641704005187391346e-03 7.701664560054526099e-02 4.847135447523726604e-01
3.581068377735180386e-02 3.884312074439817686e-02 4.950671978289446495e-01
1.491734270967921827e-02 7.112066058658293721e-02 4.956815276085633215e-01
3.775909294153165230e-02 3.466149299158827884e-02 4.894524077923917416e-01
2.835338882220484608e-02 2.942906575138382747e-02 5.197907861012812658e-01
-3.620231590903901647e-02 2.960889072684975629e-03 4.402438756965968425e-01
1.158368630728251122e-02 4.261643932433158144e-02 5.252331845601593274e-01
2.559726929717383390e-03 6.555766494451224780e-02 5.120020179028770269e-01
3.299306425425781869e-02 3.437095795264927950e-02 5.062473601968945358e-01
-3.784538447841420683e-02 3.909429938576208102e-02 4.527109268726442481e-01
9.037276221736114182e-03 7.611210550989631896e-02 4.903255297674889435e-01
2.545352774159386974e-02 3.998685521935512605e-02 5.148203214047072374e-01
-1.119956508415737018e-02 9.821154566052982607e-03 4.414012356271005411e-01
2.057879611096579200e-02 6.466098214177749826e-02 4.839189212207609114e-01
1.404417111128685586e-02 4.215925697215311407e-02 4.632450366336361980e-01
3.529729957075858349e-04 8.206959286798912526e-03 4.429294422500275608e-01
3.935784325709035941e-02 2.345146288552393127e-02 5.022955591170642498e-01
2.146370838724333263e-02 4.884220635572154162e-02 5.137686868928161843e-01
1.296396913793265021e-02 4.601231334944903828e-02 5.230627391745662491e-01
1.328993191710360622e-02 3.907087444609731036e-02 4.613688850735637170e-01
9.374407446984695316e-03 7.099784338450089438e-02 4.764348237365356176e-01
1.646249237742113819e-02 4.587480022347975583e-02 5.202741694585452104e-01
2.733511028058041928e-02 5.017999413474818343e-02 4.793755598463597112e-01
2.880404253399820175e-02 1.976781489696722433e-02 4.588662827837482472e-01
-1.405805155557270092e-02 2.046688607280171268e-02 4.452273576243226394e-01
1.168366798490949252e-02 4.266574090659238511e-02 4.625264199328120718e-01
9.712542604430555310e-03 7.209383294408287790e-02 5.028644902745306178e-01
2.139410631714217317e-02 2.664610177692136594e-02 4.581333176207127433e-01
-9.307996909049116169e-03 2.049623873557647209e-03 4.390547155528412571e-01
5.934334941419820882e-03 5.819377830081552683e-02 4.669946299519253663e-01
-2.346483132596357407e-02 5.753352803841896984e-02 4.641062994315029444e-01
7.784739270451201953e-03 7.506822718762032332e-02 4.813510627801945718e-01
2.432305972223790941e-02 6.037602719318424516e-02 4.851125450720155108e-01
2.075205442745964649e-02 1.125546788336766191e-02 4.500372928059391819e-01
3.040129954271425863e-02 4.303043672208345383e-02 4.754777596768209325e-01
-3.073986855169905455e-02 4.015313329296275879e-02 4.523124917806220502e-01
6.185384724184330926e-03 4.824584337047953947e-02 5.261902790920098827e-01
1.085128892384997455e-02 7.036353802316282213e-02 5.033158049289209179e-01
2.964558862398641512e-02 2.248801460122883469e-02 5.222750486201827025e-01
6.442199597941138459e-03 6.809551443164171824e-02 4.727436988954735742e-01
2.305442928464852478e-02 3.043592985370393092e-02 5.252805616270372902e-01
1.088320847751177677e-02 6.986267387083691660e-02 5.037876280990000177e-01
9.347466822128974728e-03 5.813354067799225700e-02 5.168858854153430826e-01
-1.629733675196158062e-03 5.018411399966565822e-02 5.289188922066688781e-01
-1.637243495517298883e-03 4.453248447447534508e-02 5.312512831276250402e-01
9.722622567254651446e-03 7.301233762958524165e-02 5.006764946603101674e-01
-5.394151558932100930e-03 1.932294106982167942e-02 4.464392036409690068e-01
2.355743701237011239e-02 3.059524896773317595e-03 5.337607849518595238e-01
2.683851404563762297e-02 5.951474330317989107e-03 5.325105394379030521e-01
2.070520124255356004e-02 5.539687476030236840e-02 4.754499919033578492e-01
3.285762102506507160e-02 4.565726603963194546e-02 4.891596260599119783e-01
3.328527033212153041e-02 2.938916158216915708e-02 5.092612730717472891e-01
9.490194101313256803e-03 6.108016590312588534e-02 5.146634235359811571e-01
-5.588521599085128667e-03 2.009791287223645917e-02 4.467189230822817825e-01
9.628039281202566135e-03 3.880593652507971503e-02 4.598884027022134835e-01
2.049205635255903213e-02 3.459632541591435573e-02 5.242939507858033199e-01
-1.673556381358152351e-02 4.502294956925567693e-02 4.560348280659085041e-01
3.656433981625502837e-03 1.047982879424577338e-02 4.446526205258481967e-01
-3.227518622207191552e-03 6.543655819175027422e-02 4.684363952286469401e-01
-2.950575287057518453e-02 2.641475371625978327e-02 4.465207536601188965e-01
1.616999690124204178e-02 1.653310733915621528e-02 4.508593850194431707e-01
1.662644882085549322e-02 7.033856895810167154e-02 4.855192316821415055e-01
5.044478891334390654e-03 7.818272441471191270e-02 4.828049510704255365e-01
7.201665799518374572e-03 8.211674571191677693e-03 4.445259283814078088e-01
1.338839216852957467e-02 3.551738684029683013e-02 5.283158002497396755e-01
2.770194907182703739e-02 4.687720397324246502e-02 5.069985733539650319e-01
-1.825665621911589168e-02 1.638631295870122614e-02 4.427927911115343562e-01
-4.697941978337238228e-03 5.434120338851400334e-02 5.284272359616386527e-01
1.124278666607576513e-02 2.067278404999583694e-02 4.514485241217440770e-01
3.828367501024356606e-02 3.346794132432620583e-02 4.830692824442079369e-01
3.957858417502182341e-02 3.055456337662054017e-02 4.860518159101634428e-01
-1.236098790169105725e-02 5.042711305186144133e-02 5.323436074072986912e-01
-3.833009669719743273e-04 5.573201973003916176e-02 4.630933520062615605e-01
-3.076820178963117838e-03 6.038130674223835676e-02 5.169888690691688549e-01
-5.558528016406397154e-03 4.987023531153884220e-02 4.597375500554291561e-01
1.396712069942113339e-03 5.440082884803883884e-02 4.632929856271569835e-01
2.440508158836977859e-02 6.023053796311338831e-02 4.902498603158916279e-01
2.309308216049230436e-02 5.454062898069937659e-02 4.775582764742249409e-01
1.827126348879436722e-04 6.312137705220398354e-02 5.118051827723376634e-01
7.264742170195617396e-03 3.042371546951333060e-03 4.424969099994681132e-01
-5.657379706012858993e-03 5.776800348099340315e-02 5.209025410672486478e-01
-1.572114978995988246e-02 3.139393598788553508e-02 4.497241427504906075e-01
3.388454978835713644e-02 3.100169545230205617e-02 5.067349360479163067e-01
3.872158782460069504e-02 2.232065030064333752e-02 4.699128426722270491e-01
4.423091263049134213e-03 6.274266337976351637e-02 4.685404388489510796e-01
3.616725454296160908e-02 2.678816615758948180e-02 5.061096974555941985e-01
-3.307274087144900648e-02 1.222374097579480984e-03 4.394651970600160773e-01
3.695066532219095506e-02 2.463162360848690849e-02 5.064997258784381673e-01
1.573646562965167611e-02 5.112044825912793328e-02 5.179289469516885625e-01
1.505655571420827336e-02 6.811706127338905403e-02 5.000159071521210752e-01
1.850571446346108845e-02 2.068588584569911945e-02 4.534038151139600514e-01
-2.371540138340757359e-02 5.113997609782045678e-02 4.589149430195965107e-01
2.027167111067305905e-02 3.646270531824957056e-02 5.232916507712752630e-01
2.392902843903224608e-02 2.245244306358260347e-02 4.571901303014010987e-01
2.189125787626380881e-02 5.232727242610363955e-02 5.113404739731600701e-01
1.913440788929184760e-02 6.682738113580026507e-02 4.940849888909611964e-01
4.674710118662135996e-03 4.559481617448239016e-02 4.612774154865976195e-01
-1.873752384764736101e-02 5.763444443120574467e-02 4.626321288539547716e-01
9.612107183976745239e-03 6.353720214723371229e-02 4.714315060544336244e-01
8.433589671552419592e-03 7.641978954288117243e-02 4.833457638490297748e-01
8.621807862296125557e-03 7.213000007192253704e-02 4.769013420962423533e-01
-3.663956955057042636e-02 3.656592687105944539e-02 4.504849652824857720e-01
3.433900361134473167e-02 4.183344436567668773e-02 4.829357638546188380e-01
3.534859134448104651e-02 1.997634498955403251e-02 4.642029381697385104e-01
1.664017112098332279e-02 2.731611875835774153e-02 4.564901461820872752e-01
-1.560094170092864857e-02 4.914777271519028823e-02 4.581146001577505178e-01
-1.243870344684496962e-02 4.163645847646020581e-02 4.552986801975531517e-01
1.846652826526267235e-02 3.131779381350563440e-02 5.281811842717588634e-01
-7.389364221811213322e-03 3.405377229597942451e-03 4.398059242234437782e-01
-2.493931728806889070e-02 3.605748474842582901e-02 4.506877826834416734e-01
3.648172080752921237e-02 3.773421619203486121e-02 4.853397463935075762e-01
3.713142134538591210e-02 2.961247551281107754e-02 5.013851501311823444e-01
3.821320175186176948e-02 3.314067070784645214e-02 4.815174548000261123e-01
1.165069769478917217e-02 5.678788082694887634e-02 4.693277701631234367e-01
2.681715506321841191e-02 4.812883622803656308e-02 4.762806975536744147e-01
1.553422119271229487e-02 5.654438444394018631e-02 5.145734687347562897e-01
-2.285980738615920466e-02 2.422246997608449443e-02 4.457103751571283579e-01
3.417754496200104287e-03 6.439473360710108729e-02 4.690338634120090333e-01
-2.155781487091033150e-02 2.898384166279020790e-02 4.477317681825094819e-01
1.089878651143879815e-02 4.171310209633503213e-02 5.259355189504034689e-01
-3.993979833299805132e-02 2.641421349400602941e-02 4.473057988151556419e-01
-4.850871952899068335e-03 4.669043511232281313e-02 5.315239067044150723e-01
2.468280141662447524e-02 5.313967319963469604e-02 5.043853841688911155e-01
1.016741689781613424e-02 7.526710411876443019e-02 4.924604560779051732e-01
2.152454629421849883e-02 6.386182515669955317e-02 4.842949590163837525e-01
-2.289133206997013420e-02 5.671560865040498750e-02 4.627991976525178686e-01
2.969101499185576934e-02 1.890322628723928311e-02 4.591150090774964165e-01
3.161466820197305488e-02 2.548513146780331459e-02 5.177003304282633556e-01
2.236626155221669784e-02 3.496520554071711612e-02 5.223564046148668760e-01
1.837016266414858573e-02 2.691946483769502851e-02 4.569541252674803600e-01
5.221427952099970751e-03 6.802839378152907013e-02 5.101708707579277746e-01
-3.477166258751296368e-02 3.787246372167942486e-03 4.401490987022093626e-01
1.903962785358187700e-04 5.054651103504546189e-02 4.614102191257651309e-01
4.048935456637671459e-02 2.704021697111637021e-02 4.805015024232959231e-01
-1.237818780863833741e-02 2.274429147145684907e-02 4.465015158981489596e-01
1.067049419155365921e-02 5.184847444758641788e-02 5.214804490992206443e-01
3.106063162483853682e-02 2.944898786363934692e-02 4.666093566409649784e-01
2.424082886483016133e-02 5.941383039123356719e-02 4.935193218949870397e-01
-4.508809404496650491e-04 5.780064192323133843e-02 5.230125614842370263e-01
1.597926464195805266e-02 4.033077809913090256e-02 4.630892995793888800e-01
-1.099254143548495169e-03 4.956808986826603119e-02 4.607365981709877212e-01
-2.384304155512275217e-02 5.807371940138836286e-02 4.656022570233634417e-01
3.058621025169068128e-02 3.939524238806105944e-02 4.728419036350362537e-01
2.096008030151136261e-03 2.270460466271534763e-02 4.498076760010236153e-01
3.727363590193908532e-02 3.580532160577819950e-02 4.857019809652461939e-01
3.442072833229870704e-02 4.217165909018034259e-02 4.905383076456262259e-01
3.979008233475098133e-02 2.910340074830414236e-02 4.916608737535205220e-01
-2.545963831288455825e-02 1.953442034153531418e-02 4.438085056789503602e-01
-1.656636619171272806e-02 5.560776878317924554e-02 4.610772012441185508e-01
3.323735082169964467e-02 3.038613791690371671e-02 4.692365088314609523e-01
-2.347777942542849869e-04 5.143608358776277645e-02 4.616063723528174290e-01
1.486965860199245676e-02 6.820281147269056932e-02 4.786204238933198241e-01
2.500905917738271977e-02 5.538887113260366514e-03 5.329848081696847428e-01
1.882131120975406770e-03 1.675448390264667672e-02 4.470392281115802002e-01
1.057354692481814185e-02 2.987817438466564349e-02 4.557152238137386346e-01
2.516212997567725262e-02 4.866336016151932148e-02 4.748785049470626851e-01
-1.407515992255164560e-03 3.495630317327773351e-02 4.545139615575432557e-01
-2.508094786607917466e-03 3.868079958806619478e-02 4.560171192984160404e-01
2.077849115053458789e-02 3.256219280341972333e-02 4.611647034753451613e-01
1.745332890620358846e-02 2.936028353995319765e-02 4.578906939946200128e-01
2.298249417828073307e-02 1.165483959013216206e-02 4.510870191161931442e-01
4.188496271965395229e-02 2.313748458043536627e-02 4.800242960849516738e-01
1.295422927342475966e-02 7.418733567036123189e-02 4.883611476452625610e-01
7.682829346996417237e-03 6.152029008686860090e-02 5.152865138335032125e-01
-1.015423869414187018e-02 6.096805434440488031e-02 4.644537787003264473e-01
-2.296305382252224886e-02 2.130793752187823929e-03 4.380015397525445220e-01
3.172038035997237770e-02 3.432500207102667789e-02 5.084648053601634743e-01
1.727106686724524248e-02 2.659205124441178097e-02 4.563522493517139789e-01
2.121309516140931078e-02 5.707402303699307677e-02 4.773599861368363895e-01
-2.111280376288252048e-02 4.678069166948274626e-02 4.565468371946291848e-01
1.587596415846568784e-02 6.901274499851990651e-02 4.971979609266509725e-01
3.896038154019788868e-02 2.420779476556116083e-02 4.723234060322676342e-01
1.431835500401270125e-04 3.861506529625018114e-02 4.567869172789045251e-01
3.401171176651179157e-02 3.951961165605374915e-02 5.011856695072650636e-01
-3.159316598308469295e-03 5.895231376837547360e-02 5.215901505897115875e-01
2.460206825029783578e-03 6.273876418307747227e-02 5.163053537107403779e-01
2.178364028293071700e-02 5.380559554571320152e-02 5.094161797341053566e-01
8.652816252861777330e-03 3.526446933330990019e-02 5.303978343065233192e-01
-1.123787984260508563e-02 5.275509839529424899e-02 5.242271014576593835e-01
