1.269616237866155392e-02 6.269708232873999476e-02 5.132856970888756143e-01
3.148336363229543855e-02 4.714439004870206451e-02 4.976247313237697756e-01
1.399937315958171141e-02 5.209426482066527309e-02 5.208025153083615244e-01
3.773665786829699664e-02 2.909800999045896591e-02 4.744125253784415852e-01
-3.445236899636004019e-02 2.931800543186824370e-02 4.481196407725013819e-01
2.505355711945821649e-04 2.120847977671573396e-03 4.408415519129967319e-01
9.962630914643975238e-03 5.325740681356286310e-02 5.235465883040302248e-01
6.834708795322086937e-03 5.633816119172826292e-02 4.671691891255964069e-01
-1.663863949265551728e-02 3.316853366089231314e-02 4.510008513371899785e-01
1.135668323986844044e-02 5.448804777226002455e-02 5.207884649894337636e-01
1.356673303586559270e-02 7.094140502343050658e-02 5.007522333272096393e-01
3.161827361124165681e-02 2.186643556651875209e-02 4.626421608300936295e-01
3.093987014660916010e-04 5.731366529941875343e-02 4.647414967738446312e-01
3.689191838583114492e-03 1.301421022849896109e-03 4.412991319207310581e-01
2.013795001949198263e-02 5.319934067532754857e-02 5.141870513103250495e-01
-1.327286424403441474e-02 2.559464594493183684e-02 4.479976945758226692e-01
7.150806304066401400e-03 5.343700307859530069e-02 5.257682650945716407e-01
3.098140214005858789e-02 2.233027601760840392e-02 5.216332055872199280e-01
2.506937958433814659e-02 1.232567402082572830e-02 4.526862919356028359e-01
1.182675926030118257e-02 6.253670738244700156e-02 5.139331238965922921e-01
1.332569584636882076e-02 5.879245962089315290e-03 4.452650805053989247e-01
-9.855800390090097007e-03 5.053577080877385413e-02 4.601362514224762168e-01
-2.532933562417343399e-03 2.917784203484394961e-02 4.520000047771466356e-01
3.425298216476607271e-03 7.203498482667111680e-02 4.771009082516527444e-01
-1.652625559015746814e-02 6.041217105842341256e-02 4.671077787990720598e-01
-1.080625834683841824e-02 4.639086897846479707e-02 4.582008281066989319e-01
9.890085721080158973e-04 4.684737712161830131e-02 4.609951267390308693e-01
1.158229065213917629e-02 6.579841801145268343e-02 4.745195538191649409e-01
-5.570495171812375051e-03 2.463941927366274792e-02 4.491678134628414032e-01
-7.467271780517285504e-03 5.732843704408548124e-02 5.282200969454624584e-01
5.212254036014961345e-03 7.261741763828977181e-02 4.769629662114635571e-01
1.239301639236635964e-02 3.706452797976288877e-02 4.604297366258783830e-01
1.628479341090547684e-03 4.411079752767146228e-02 5.324406246431910850e-01
2.771002312225698261e-02 3.996711329076443192e-02 5.131375416534377232e-01
1.054687025423933777e-02 4.338499110693917749e-02 4.628815308161530195e-01
4.452840673116269764e-03 7.401853529072761895e-02 4.787941497972228455e-01
1.374203920993281175e-02 4.854575848403770016e-02 4.667081091309769336e-01
2.839449602059605782e-02 4.259213036792136586e-02 5.109052303255072758e-01
-1.849081758692274272e-02 1.218308443308680628e-02 4.414670101064409602e-01
2.468916395414631759e-02 2.713248222546750868e-02 5.261321297008131337e-01
-2.706896887251040301e-03 1.396824237496697291e-03 4.400038553491487092e-01
3.533106043769395493e-02 4.144262210040747935e-02 4.853909087523615162e-01
1.739641751624163707e-02 6.276216728113229171e-02 5.074280094924487061e-01
2.228976286860613956e-02 6.358763816585785711e-02 4.941800483494152019e-01
2.370169048316149094e-02 5.447004036332619287e-02 4.782401682044189473e-01
2.613725209377700670e-02 5.808973888741170155e-02 4.862098700205687574e-01
-3.318407514575620609e-02 4.471076957984681383e-02 4.569252195124690052e-01
-1.521374787987007579e-02 3.724512644174818310e-02 4.532976383868439485e-01
-1.381920678311100888e-02 5.483865560314364618e-02 5.301690490743877771e-01
-2.724938004968579901e-03 6.786076840773405672e-02 4.711647994752037882e-01
-3.490331856198835084e-03 6.352383630368732548e-02 4.675822987780817730e-01
2.242693855199646286e-02 1.318266091196557133e-02 4.518486177217967970e-01
-4.144285997943130198e-03 4.589376830229827120e-02 4.592384109174827422e-01
-1.904577347841477850e-02 2.848418913278916165e-02 4.482836958675544548e-01
5.506716586839686262e-03 6.153744350280339337e-02 4.689433576230646050e-01
1.457137779303776734e-03 1.325791702240699567e-02 4.456590348477286745e-01
3.593163744257744235e-02 3.999313213236230929e-02 4.854418317955199735e-01
1.515847354813721314e-02 4.844204620897242519e-02 4.673598384546303608e-01
-2.128693087200644787e-03 1.410301041492920647e-02 4.451421236748420718e-01
3.744293600694158924e-02 3.508852223445983048e-02 4.960251632129794586e-01
2.429841324704741859e-02 4.360434496369025581e-02 5.152326082389029338e-01
8.573651533983267167e-04 4.279456374700348065e-02 5.326727182118107251e-01
2.566541316959563418e-02 4.817159931449697258e-02 4.750849804521533604e-01
1.855927319848463264e-02 6.763526119378231172e-02 4.966230163251613150e-01
1.155442782336844193e-02 7.543241469746309047e-02 4.915300299106549198e-01
-9.882909540590407993e-03 4.112726674816154920e-02 4.562963633237713812e-01
3.532110757802595785e-02 3.541238342769846559e-02 5.028512313386829247e-01
-2.930425945543702320e-04 3.088334132882828570e-02 4.533781323222828008e-01
-1.132997703522610651e-02 2.925566190361029301e-02 4.499296467432063462e-01
1.361865303849719121e-02 4.895240793287775061e-02 5.228227192119385691e-01
1.503570680314789652e-02 4.398278654155660800e-02 4.650079755697789086e-01
3.732603488154473403e-02 3.652054492890221410e-02 4.913901686509431488e-01
3.272351537971381757e-02 4.071829344277259899e-02 5.044949772538015464e-01
2.249896779504948624e-02 6.399490384762263062e-02 4.866463315839882897e-01
2.305037610203186822e-03 2.434376739370016848e-02 4.510454747889348637e-01
2.399399642666454752e-02 1.290634622039178898e-02 4.523167079492038112e-01
-1.090391068326139468e-04 4.756835941579623528e-02 5.316977879652046157e-01
1.429697383071289879e-02 5.374847019256812769e-02 5.193141181996315803e-01
3.983165695394740025e-02 2.984696203493151026e-02 4.822481600417460323e-01
3.280615778862126797e-02 3.800512001178166926e-02 5.061817030438392484e-01
-1.469168228618321186e-02 5.519896651372048491e-02 5.318922489437405421e-01
1.880604134811306172e-02 5.728327323167556329e-02 4.747832697741450891e-01
4.035591195030129724e-02 2.899648531931364737e-02 4.877273156001584731e-01
-4.811696891792642192e-03 2.262649575374179461e-02 4.484120966576897738e-01
1.354118833432918501e-02 6.409033723982117403e-02 4.748082743248094872e-01
3.588436200333033205e-02 3.987272542009023812e-02 4.930061119335995556e-01
-5.223732837221274974e-03 5.830188259574144855e-02 5.259922363922568955e-01
6.604278468929512293e-03 6.821942650291630550e-02 5.110685936074167435e-01
2.523230286792755780e-02 2.198261893157264259e-03 5.343254529755562254e-01
1.336324675167615932e-02 7.125973351472263129e-02 5.006846841127825520e-01
-1.978410279488305654e-02 2.389106586884798614e-02 4.462190884516966105e-01
-3.560712559830263996e-02 3.526049124341133073e-02 4.505608813245921551e-01
-4.119679689879060351e-03 5.834112243986680491e-02 5.223302679889578748e-01
1.399467181044133923e-02 6.602695939966592154e-02 5.074818499154076790e-01
2.666469671913062819e-02 2.517749982400220576e-02 5.250452035267245687e-01
5.577652956653526145e-03 7.173567634303819329e-02 4.759662638192569406e-01
1.239356387101354408e-02 6.063990893123626102e-02 4.719909158354123613e-01
1.346978892745277767e-02 5.031917122763957667e-02 5.221109846662362886e-01
1.411680147402825415e-02 7.197294196866185767e-02 4.982640252378784940e-01
2.575283775810510364e-02 5.477849912417907807e-02 5.014028224802508094e-01
-2.636592687968251913e-02 3.195974248196003370e-02 4.492666894304080394e-01
1.425207880936874873e-02 6.758346189346541022e-02 5.046401139121444723e-01
8.587759934779823356e-03 5.448638300907477500e-02 4.671652853561296670e-01
1.845707350372136069e-02 4.940643343248951602e-02 5.184595347284217670e-01
-4.180574334460357422e-02 -1.413728537117480647e-04 4.411645239191415713e-01
1.586884556668312005e-02 6.799228093898616876e-02 5.010250257004711383e-01
-4.705570171737081218e-04 1.074812890892846637e-02 4.440707593457506874e-01
-9.744265346194949662e-03 7.678782744056829486e-03 4.412255421256174315e-01
3.576871052437054915e-02 4.013724640916302433e-02 4.929360171035983007e-01
3.657514262185677933e-02 3.668865726815208339e-02 4.808671902464873860e-01
4.091917517042611280e-02 2.522532421876357012e-02 4.937442494834206053e-01
-1.240922699676644519e-03 2.316662810252389376e-02 4.495427022550744778e-01
-7.349289324083813774e-03 5.482207722980070308e-02 5.225381068388371686e-01
1.343131829408498491e-03 5.234319329626520821e-03 4.422628002230766242e-01
4.107903495911476022e-02 2.679942295521963586e-02 4.832485761449480388e-01
1.573371961088147752e-02 5.428905265918958917e-02 5.179190909520589026e-01
-2.456843407701016918e-02 4.811347620235854189e-02 4.581573719348500662e-01
-9.717511830594927763e-03 4.545111548918037009e-02 4.580248895701031220e-01
1.668950487189624701e-02 1.722401537221952827e-02 4.516337458284640505e-01
1.782001980118887163e-02 1.270574427728187079e-02 4.498448156671636111e-01
3.162138125602041716e-02 3.910854818485084983e-02 4.737715379105233438e-01
2.496643285978501769e-02 6.042187920796305428e-02 4.901249448725174540e-01
2.942382261498727516e-02 2.682075192515617421e-02 5.211706634906551061e-01
3.223220492886234856e-02 4.754103675179609245e-02 4.937711726969614690e-01
-6.039421571477469192e-03 5.599568571871747780e-02 5.217182141244269822e-01
4.026521154058501639e-02 2.787674132685429018e-02 4.932732782996404053e-01
1.795259884452302460e-02 6.718615744645536902e-02 4.984366199501501504e-01
2.378407181702161394e-02 3.378941113435629529e-02 5.235091587682446646e-01
1.760569833337509264e-03 6.280904970093592610e-02 5.151050622669918200e-01
3.234114510647691926e-02 2.145729277583755673e-02 4.629306086412990351e-01
3.036055112963931268e-02 4.788257952266780637e-02 4.999928283477783619e-01
-1.275123567445394374e-02 5.329105084367747464e-02 5.276576316276921919e-01
-6.050321962972936632e-04 4.231019263282952830e-02 5.329643443328027086e-01
-7.356719011726167191e-03 5.121291047095333226e-02 4.607249996209043519e-01
2.058711593542129903e-02 4.960811327837411078e-02 4.714645057992903343e-01
-1.742340710127374473e-02 3.950033240338494261e-02 4.540173699384890127e-01
3.472691316806730127e-02 4.237399947376157411e-02 4.924780418998899179e-01
1.308110725886646106e-02 4.008133229289433802e-02 5.271739948901811301e-01
-2.936730970346024955e-02 3.545935775127743994e-02 4.507398157940590844e-01
-4.055897888988696520e-02 2.338144654997965921e-02 4.470431823190943454e-01
-1.449923200626195528e-02 3.168042544144871603e-02 4.505790922242575158e-01
-2.778256902331424638e-02 2.030492591201844832e-02 4.446144759520538337e-01
-1.024317997213922311e-02 4.196621651419482624e-02 4.565714966112021655e-01
3.461257363083927209e-03 7.777059511614919929e-02 4.825209951939774533e-01
3.393526739184649782e-02 2.141927436547654343e-02 4.641776106467949692e-01
1.651109200697893284e-02 4.321131845984241965e-02 4.652366359532481566e-01
-1.317780687135040353e-02 3.489808462014545865e-02 4.525457296795760698e-01
-1.297814057184852599e-02 2.290682992407650637e-02 4.468812119552581508e-01
3.426794813506578441e-02 2.337977670339237007e-02 5.146288085774441967e-01
-6.403654368311106383e-03 5.806113483688418730e-02 5.263045732476085981e-01
1.061812446789674180e-02 7.480895821893336628e-02 4.827661440790343428e-01
-4.287217581817649031e-03 6.130622009738012634e-02 4.654360960477081366e-01
1.734872282552832323e-02 6.658511551043001797e-02 4.803866500740713863e-01
4.248566186612692114e-02 2.298753445806059684e-02 4.863088008701808573e-01
3.763526330423221794e-02 3.105971352412394137e-02 4.765602367269684003e-01
-3.554447619162719174e-02 4.032393158878415373e-02 4.538742396568569704e-01
1.794068913341840404e-02 4.204881706219534832e-02 5.230413258972240742e-01
6.213683822315853658e-03 6.600231271187556592e-02 5.135448730726953626e-01
3.584742875260376466e-02 3.980368477079233858e-02 4.948446376449853190e-01
2.923867139661418674e-02 5.077117794181866539e-02 4.827700666342704672e-01
3.091699029298660556e-02 4.094135125763765509e-02 4.744100329531872884e-01
3.479680381225473684e-02 3.244322600545267166e-02 4.721933314178736740e-01
-1.118208447440307597e-02 2.449712928398128930e-02 4.479296643946558132e-01
8.875312013952659992e-03 1.777152957507791703e-02 4.497751844122881426e-01
1.995146760579700682e-02 1.515248728617372281e-02 4.518344059910049948e-01
1.597267440882129894e-02 7.180075920370082576e-02 4.880760834626437505e-01
3.788102465668709111e-04 1.539758601791033424e-02 4.463755074061436234e-01
1.540365758173813104e-02 4.688539533533949560e-02 5.225395609770221439e-01
-9.953887469344623734e-03 5.627017579377655704e-02 5.308376205024047945e-01
-2.698353605221904400e-02 4.026087966637108967e-02 4.532588930356280521e-01
1.437101065170955788e-02 2.957730183618023298e-02 4.572027398626084538e-01
2.039776312771508868e-03 3.267389818060557893e-02 4.549224010890008385e-01
3.034355439193912873e-02 4.384070555833139565e-02 4.762432742884908921e-01
2.931691794097331105e-02 2.784785998765839515e-02 4.643183050324644623e-01
2.230177187252741638e-02 4.993321859901551918e-02 5.139401545564752372e-01
1.003074583637128189e-02 5.446111810732989084e-02 4.678897354471551195e-01
1.594521844101887131e-02 6.249310403560327798e-02 4.754811301186884775e-01
-2.504846044646644523e-02 1.037022678812862461e-02 4.409201814039632183e-01
-2.321747261457720451e-02 5.486762263331541531e-03 4.389203476525010417e-01
-3.233597090023343501e-02 3.077114820093514516e-02 4.486391623893572489e-01
2.438107925989081021e-02 5.917842564303510411e-02 4.971576362331122656e-01
7.116470167794937407e-03 7.223250518018191346e-02 5.037789713108788980e-01
6.064005244701331163e-04 4.052322046560771773e-02 4.584056751763018189e-01
3.679038394330767098e-02 3.585618711873639342e-02 4.803205183534105527e-01
2.069320210909132360e-02 8.472217703685338067e-03 4.489057917696591127e-01
2.071407727171344082e-02 5.160845079675217134e-02 5.145644423179718263e-01
1.466179815476020484e-02 5.322635147371031911e-02 4.696808267426652583e-01
8.027551722790663216e-03 7.680496600493671999e-02 4.901377054985815995e-01
-4.122627424771773547e-03 1.170305910406933478e-02 4.437645119779114466e-01
1.559032215315342071e-02 2.295471116599061626e-02 4.541465803333596396e-01
-7.729808195809951925e-03 1.382967773821479514e-02 4.440005500740596966e-01
3.032628236740447097e-02 5.126299150194011528e-02 4.914598332971820693e-01
1.501805555723342844e-02 3.546654433410564855e-02 5.292523220240128445e-01
-3.076121113507520460e-02 2.834592905257012074e-02 4.477993738215014785e-01
3.370098440841394483e-02 2.509481179226388109e-02 5.133826091820348214e-01
-2.812638611161128767e-03 4.560452038623810656e-02 5.332846701011535462e-01
5.096065762854916706e-03 7.861488407836368653e-02 4.859187639620173305e-01
4.032322598271120828e-02 2.855063014420117576e-02 4.822576654011856978e-01
-2.141005608243847294e-02 3.545226384962256450e-02 4.513318657497122355e-01
6.798332710087088768e-03 4.240446726604855943e-02 4.611409210513426338e-01
4.006935012574022736e-02 2.977517889083353478e-02 4.844958069903169129e-01
-5.597818822887078855e-03 3.905039394557374005e-02 4.562114309718706684e-01
2.083277587286121862e-02 3.450531514961636265e-02 5.254041587484777898e-01
-2.078266973418715913e-02 4.428168892619638308e-02 4.558195606646933129e-01
5.501660521178574487e-03 5.727756139247645872e-02 5.225148345387502502e-01
1.986573766638847355e-02 6.762343202578451062e-02 4.923489209538413069e-01
-1.043057718650310974e-02 2.601231848203352376e-02 4.487525600652120805e-01
2.112516631144210726e-03 5.635669458232449303e-02 5.261110504868233839e-01
2.160317675540029264e-02 3.786188173566111537e-02 5.219460904716397565e-01
3.979170547328065438e-02 2.835880135151440384e-02 4.793654083281845280e-01
2.459378163769482956e-02 4.934115583366304597e-02 4.749213285932935014e-01
-3.928940664123492868e-03 6.060393119586271471e-02 4.649005447660312651e-01
3.473637343875109196e-02 2.278472454955536922e-02 4.657191164990055476e-01
2.599262012792944582e-02 3.430227761984799839e-02 5.190643491025735967e-01
1.927909113599857865e-02 2.185268152494032612e-02 4.546051006980969533e-01
1.009284863507061911e-02 2.713633049883988277e-02 4.545962945331985527e-01
4.361576258776601531e-03 6.360238732047245047e-02 5.166877272731797976e-01
2.574321023401896294e-02 5.716673137663079440e-02 4.962471647947598319e-01
1.154557944537287772e-02 5.746081230786383165e-02 4.700846639199002253e-01
1.713281064949814456e-02 8.543845873684010120e-03 4.476479984556364644e-01
3.162845660438619311e-02 4.524783140535948434e-02 4.802015637385058655e-01
7.369436363864560052e-03 5.990381754004807380e-02 5.187932982343779198e-01
2.019801376766280909e-02 4.836487044549766384e-02 4.704968275937535527e-01
1.072574062318172074e-02 6.509174679742966985e-02 5.120306786799213583e-01
1.135985739486782518e-02 3.138711322847319296e-02 4.571606025762346426e-01
-6.087857151918237009e-03 4.843363456848041870e-02 5.337548622675238885e-01
3.094224247922410659e-02 4.155226564501727365e-02 4.748951146492492725e-01
1.286052267574611975e-03 3.238306834348213953e-02 4.545563327603704962e-01
1.667323046944420295e-02 1.837100365384146047e-02 4.521912976024759501e-01
2.130964366735166662e-02 6.179479678152283162e-02 4.814811415311289755e-01
3.877434956676463484e-02 3.046647743040134873e-02 4.967185820253563477e-01
-2.971674316926982418e-02 4.743248617126320094e-02 4.583573151504291565e-01
2.660290757659204697e-02 4.835657528308277137e-02 5.095003533586347499e-01
4.036497157977068928e-02 2.132454183090317507e-02 4.727740105263793513e-01
1.451593103362740049e-02 4.772404617671235916e-02 4.666512979287602003e-01
2.952146888937862840e-02 1.047610674907654277e-02 5.283876589000374713e-01
1.262483083409624875e-02 5.052858907288218862e-03 4.447185792011431049e-01
2.053266820486151709e-02 3.953391887170802643e-02 5.221655639492045475e-01
2.728283202765110008e-02 4.660137504062515645e-02 4.753285969863327298e-01
2.921020553925664752e-03 6.609976873982094381e-02 5.117965788675745697e-01
-1.981477687628427700e-02 1.598690085356364865e-02 4.429431226401262522e-01
3.397189289422406638e-02 3.288819535919877690e-02 4.717207030634847365e-01
2.165046700243740754e-02 5.627171894651443462e-02 5.087349629259168005e-01
-2.631003352392068118e-02 2.302463956880068663e-02 4.455372536505459169e-01
2.852390069424538474e-02 5.367420943917013826e-02 4.911831937438646545e-01
-1.288799763310499204e-02 1.532588986862278187e-02 4.435999006770590669e-01
2.275498780997314840e-02 1.252514803855592912e-03 5.343060785252121692e-01
1.232862904146755055e-02 7.497168976146328934e-02 4.918924901198020172e-01
-4.129734992737801869e-02 3.188835227467655409e-02 4.497639967690956753e-01
-2.868843628698153000e-02 1.050092968903838103e-02 4.416943668005157697e-01
1.471383169000049611e-02 4.914239706873050478e-02 5.217230089612729937e-01
3.910159146914079370e-02 2.677868894837735422e-02 4.752894227888044831e-01
3.360124527275495238e-02 4.194287218888642643e-02 4.804360177771898610e-01
1.656361125264976114e-02 6.464728591196890195e-02 4.778235486379647234e-01
-3.434505617419308932e-02 1.328500373884030977e-03 4.398003862106328876e-01
3.554552403329651333e-02 4.061227667451939444e-02 4.898180293949158659e-01
2.154762035271904838e-02 8.333876658082817884e-03 4.491758398144030107e-01
1.389190866482027838e-02 2.081381201750834645e-02 4.526412044554973813e-01
-1.750257096242235910e-02 1.898900083647265744e-02 4.443298937724205477e-01
3.716382956509425156e-02 2.626192645980249610e-02 5.057817351788105320e-01
3.337332260758354985e-02 2.767221556407755897e-02 5.117696821673981544e-01
3.863071007617414204e-02 2.652756036908121562e-02 4.738065091465110124e-01
3.175475648460176353e-02 3.526400579225643511e-02 4.712192438700149033e-01
-9.994808068152272879e-03 -6.025210314260968187e-04 4.382936473952390721e-01
-4.084639870182182886e-02 2.719059624657367558e-02 4.482474133997859655e-01
2.668289364784785095e-02 4.183735623255472463e-02 4.714092757910692266e-01
-2.907844276092464222e-02 1.507905105185703386e-02 4.431496175006062188e-01
2.683333397203567505e-02 2.386412185381123208e-02 4.600462426871678723e-01
1.736656555172627278e-02 4.797545373065925656e-02 5.200925600919177327e-01
1.911816402967269138e-03 4.876614129888057203e-02 5.302879381750513765e-01
2.480027613528266311e-02 2.727358905637878445e-02 5.260435935279311748e-01
2.961736231119159804e-02 4.196015346757755310e-02 5.094097329143265629e-01
2.170304526162392458e-02 5.062700901595122011e-02 5.141380510550164207e-01
1.033789682847355285e-02 2.955053286408871813e-02 4.558971357543867287e-01
2.751226243926970655e-02 5.403557434177793523e-02 4.974052258962427531e-01
3.357050574305845553e-02 4.431781753408347430e-02 4.957095978659734614e-01
1.868799416762299478e-02 4.568033890917903850e-02 4.680403932850192850e-01
3.033763311673721985e-02 2.878061161720609981e-02 5.180942398986853048e-01
2.262912072533475316e-02 1.753219859769435465e-02 4.539227222499046532e-01
3.814467050644752832e-02 3.459550271886763922e-02 4.905048378246388285e-01
1.630821568085973755e-02 3.438966607616074367e-02 5.290938464654202367e-01
1.469939618807565747e-02 6.581831244974235828e-02 5.065483517419434589e-01
3.444702470764077901e-02 1.952647045238058154e-02 4.633516001986297539e-01
-5.713691261140579555e-03 1.316048282131938862e-02 4.440432225953478973e-01
-3.742677279681877467e-02 3.281726238043411459e-02 4.495584686800908059e-01
1.751835498167314889e-02 6.651712027095239843e-02 5.002915279495444567e-01
1.359590293725254292e-02 4.803440670466396778e-02 5.234260058238521252e-01
1.942469012248213348e-03 -3.635419892331270483e-04 4.403031462486868830e-01
-1.728912453676800798e-02 6.027349605374487940e-02 4.681477021711609177e-01
-2.337795791891238931e-03 1.879508941287811111e-02 4.472628864245378755e-01
-2.357374811348704469e-02 4.265765509752138945e-02 4.545878446203086565e-01
3.251947332772319593e-02 4.438768554949887313e-02 4.812274180748326580e-01
9.765395569296276418e-03 2.787705554534676902e-02 4.548703574670681649e-01
2.852476331444838559e-02 5.261330507617506536e-02 4.970057664405851949e-01
1.966369615864549825e-03 1.139915572311705344e-02 4.449787610560749784e-01
-1.101918029079701836e-02 5.534447715772364274e-02 5.290411392055121009e-01
-2.243593277885502259e-03 5.926283410932892126e-02 5.235078690171819371e-01
2.715388641478520826e-02 4.956536353110876925e-02 5.064865737825219316e-01
1.021618758171743274e-02 7.005073468865875841e-02 5.063231251404404221e-01
2.459911618962200286e-02 3.492449364627239761e-02 5.212441100207736433e-01
-2.171102005257216291e-02 2.954877569969091913e-02 4.484759973589137472e-01
6.022620170218833183e-03 7.878540231194239296e-02 4.865852020937232458e-01
9.295564125675325265e-03 6.550287574071150809e-02 4.728026664099626020e-01
-2.593192737163318301e-02 4.938956050211808224e-02 4.590268904066013844e-01
1.874359319047878836e-02 1.105226288389780757e-02 4.493995308984051196e-01
-5.162813209756647419e-03 5.632595473042530110e-02 4.629593140883268010e-01
3.220461542852992576e-02 4.616580789113636923e-02 4.831895794188389992e-01
3.651792689281882498e-02 2.624741478374426756e-02 5.070498387799738937e-01
8.522754612582972636e-03 2.897388538102499758e-02 4.550409323512268345e-01
-1.626443318017902276e-02 1.710357635341441807e-02 4.436966551841378670e-01
2.624647729862798068e-02 7.180435089779543811e-03 5.323296870283766857e-01
1.038541760264767404e-03 6.982171085471321204e-02 4.729161864690494266e-01
-9.462378115368409726e-03 5.375616859059312996e-02 5.255697639069079052e-01
-3.422421428256213621e-02 2.136180233007880722e-02 4.455465021345657028e-01
-3.054842743279588546e-02 1.555430430057231500e-02 4.435118854419716206e-01
-6.830684934666451068e-03 5.537323886549535418e-02 5.314851247606618978e-01
2.675886576412474932e-02 4.844458905603795523e-02 4.765579400637805496e-01
-1.265219300856088892e-02 2.798734785278732609e-02 4.490881162650797176e-01
-3.142303078797244707e-03 6.036111049861965505e-02 5.187059396648392440e-01
-3.446554662338274788e-02 2.300298981929028985e-02 4.460191247264347347e-01
4.122572052076443894e-02 2.481390345801788230e-02 4.928748558226374588e-01
2.213905074883373500e-02 5.170777601903416010e-02 4.741788470710737169e-01
9.711255296106113821e-03 4.566330007008077840e-02 5.270673645210123270e-01
7.096099816778606798e-05 2.270146786342659012e-02 4.496798212883109658e-01
3.435995583011543925e-02 3.160445565253344052e-02 5.067376864183552598e-01
2.576314485188014453e-02 9.611763299665999211e-03 5.300520919390985242e-01
9.841559899703346270e-03 6.590666859188766546e-02 4.733824477259516716e-01
2.645912770069035885e-02 1.359118430531093547e-02 4.542279971006116801e-01
-2.103549633137273556e-02 3.848127494486965061e-02 4.529326526511144868e-01
2.923158649214699367e-02 4.207442259534608514e-02 5.101378042820162717e-01
2.032785165951370848e-02 1.412487249512300522e-02 4.514971973732423427e-01
1.834616999247669702e-03 7.489584921015396413e-02 4.839763336113311332e-01
-1.314332957110383874e-03 9.627080136595233054e-03 4.434785411696261503e-01
1.417213093465364074e-02 2.542619847076931297e-02 4.549535807626908790e-01
2.000352975042114789e-02 2.977847950806632171e-02 4.594775280110889315e-01
2.519629905357780378e-02 5.518364525855087854e-02 4.808146227953711271e-01
-8.883050421906703992e-03 3.376957494689904193e-02 4.527935595762721532e-01
3.208263880515081767e-02 3.562490787700330758e-02 5.086539739723409115e-01
4.034316211641778699e-02 2.657913886267610631e-02 4.787876811197386284e-01
-4.549032289336450360e-03 3.885438480416766177e-02 4.563112450919824536e-01
1.903653253137514711e-02 5.162958852610290833e-02 4.714295728022335763e-01
-2.915529586321581601e-02 2.532071770000458855e-02 4.465206860260035882e-01
3.486121618114305237e-02 4.055878262060941958e-02 4.977403074915802139e-01
-3.903626576110793417e-02 2.599694731755392008e-02 4.476277841334674323e-01
-3.243070005747161755e-02 4.003853070437457529e-02 4.529139605524554191e-01
-1.425076186438383949e-02 3.690737894304318284e-02 4.533379613804060515e-01
1.680176448045836782e-02 7.102763385661280127e-02 4.915012600869221315e-01
-3.322386498506254421e-02 4.277568809803986016e-02 4.553173318683117476e-01
2.323040263300772332e-02 3.744526131568445132e-02 4.659950416147892738e-01
2.535851354388399953e-02 5.072841218566100097e-02 4.770426823586138565e-01
3.652939627298725650e-02 2.725305663975852860e-02 5.061585497580105564e-01
1.692825624162359530e-02 2.275669855281403642e-02 4.543535734982937502e-01
-2.594409110735853424e-02 2.607326507363582832e-02 4.468578671325959539e-01
2.453727621914042478e-02 3.226492022013311388e-03 5.339777407336678827e-01
3.314823454701781164e-02 4.016837613264457457e-02 4.771393615926189380e-01
-7.299333250589040700e-03 1.046787036996300185e-02 4.427627552625778562e-01
-8.698464557310164533e-03 6.089182622440365150e-02 4.650205180080920209e-01
-2.670672049568847267e-02 4.181369871395041599e-02 4.539725346509265735e-01
-1.540676676864288948e-03 5.266789709536072450e-02 4.623954457757192826e-01
2.832982992474953471e-02 1.809413994218714294e-02 4.578455333857341381e-01
3.182577879764381806e-02 4.488377046761924533e-02 4.801550307303655840e-01
2.806191111073343819e-02 5.474270261932959181e-02 4.907807174523549643e-01
-5.736122291732863310e-03 2.878674044625571457e-02 4.510040711614498044e-01
4.112204095573756754e-03 7.685536616126678600e-02 4.872425638889296695e-01
-1.909321537891463597e-02 5.993462955616011417e-02 4.712011564050187507e-01
7.298485883402938863e-03 1.053704499359420926e-02 4.459348914376929374e-01
2.403170487606812178e-02 6.168233496662561127e-02 4.856450375534854813e-01
1.336693953060965646e-02 2.501434559967070578e-02 4.544981967649589505e-01
3.277397487899633144e-02 2.981456664959137443e-02 5.112452277432918413e-01
-4.071762360168416223e-02 3.358277385493192713e-02 4.502386927783516568e-01
5.973829832322445285e-03 7.799262220344456431e-02 4.878645604245416267e-01
-1.927809631304153865e-02 5.982358572291937571e-02 4.704450064510467544e-01
1.092007860797526361e-02 7.367956415907422896e-02 4.812457625721159871e-01
-2.375030421748789908e-02 5.234818504381815590e-02 4.604121747946632315e-01
1.670130683400147115e-02 6.893987227801530449e-02 4.979225154357346805e-01
2.817863557417767811e-02 1.836615008652390385e-02 4.578934496892900219e-01
1.740142386943340294e-02 6.219337195573498150e-02 4.768580440622233740e-01
3.114295202494718126e-02 3.391353366985322415e-02 5.109812773489764703e-01
-3.121469224565615042e-02 2.292162992247891162e-02 4.457254430955331914e-01
-1.668333863445799203e-02 3.312303253465178482e-02 4.509708630988554234e-01
1.506829578085413200e-02 5.212436204418938179e-02 5.199095377858068412e-01
3.484237376831578366e-03 6.876548919252563341e-02 4.729158489310820723e-01
1.908684786234795400e-02 6.864211331998874843e-02 4.920827704184326801e-01
-8.893595842930627007e-03 5.944534998129757247e-02 4.636227615140643965e-01
3.191676618369836821e-02 4.771112161203012320e-02 4.859062833256662106e-01
1.510759228434093403e-02 4.036423519270977700e-02 4.631940151607678025e-01
3.751120663053322118e-02 2.791810904865646079e-02 5.028860331779565485e-01
-1.569692801538956003e-02 6.063605746700662796e-02 4.675969107845051043e-01
3.194455147796983977e-03 7.723267569558030232e-02 4.860667804409981585e-01
2.774246653453722733e-02 4.705250895206632838e-02 5.088476206137052538e-01
1.702048809056914969e-02 6.377981135044694105e-02 5.056738581683477562e-01
1.853603549108344406e-02 5.015155133312262231e-02 4.703189333980581921e-01
2.368878018481650194e-02 2.262569713936942242e-02 4.574534558746319868e-01
2.607847241375044200e-02 2.453558941284463002e-02 5.256811509799944604e-01
1.826787963336510418e-02 7.420588492617185422e-03 4.474481183691850217e-01
2.199764189722572608e-03 6.234490854128597881e-02 4.677218152864514589e-01
1.760337761822241068e-02 3.456125346760312300e-02 4.610852005017247457e-01
1.262641482346374931e-02 5.944355908942402372e-02 4.715240221647544194e-01
9.230919596656004741e-03 3.872239303921454906e-02 4.601898483263727746e-01
1.016847679788650954e-02 7.505297364828902862e-02 4.935948040888624155e-01
3.284995518982895824e-02 3.881407327383977479e-02 5.057647962247777684e-01
1.496442593926054776e-02 4.529493385767570379e-02 4.656465942078171216e-01
-3.293182578721875337e-02 4.062784437809578708e-02 4.533523471174579766e-01
9.485928391375910221e-03 4.925118993675274559e-02 4.650788227392606555e-01
6.700033063451292167e-03 6.496452132543457936e-02 5.142244521096823728e-01
-2.859474657224288230e-02 1.577557297619813434e-02 4.432566690628018113e-01
-4.143575787689857126e-02 3.585392407971280115e-02 4.513045060960159116e-01
-2.057149669217482602e-02 2.228780067736656906e-02 4.454941853057736156e-01
-1.085876095390203404e-02 3.477128308059603684e-02 4.529371075336338093e-01
2.597984267512562159e-02 4.015382974518440923e-02 5.156505355723904893e-01
1.047217303460255301e-02 6.723718352035328027e-02 4.746564616222386790e-01
-7.103317474942555387e-03 6.268031652562994216e-02 4.666033294065556891e-01
2.652696364040014673e-02 5.288417136440915628e-02 5.027179679341435836e-01
1.135267560397995243e-02 1.132381352339238700e-02 4.473503323685876221e-01
3.261378569363589108e-02 3.648183548087101380e-02 5.071393942609704331e-01
2.418279733127365674e-02 5.897747325455649642e-02 4.826266657353436296e-01
2.070489580662706122e-02 6.916301804812769079e-03 5.324309185467062111e-01
1.087393518172214378e-02 6.401620417075458425e-02 4.729608668918940939e-01
1.059794570558364284e-02 4.420667128643618327e-02 4.633058976362092185e-01
-3.198875578254446392e-03 4.615592023471049715e-03 4.411588829885544349e-01
4.136944425420132493e-02 2.532421364723984325e-02 4.911831515008282523e-01
-3.734588483278171445e-02 -9.803996247750379825e-04 4.401279118165057347e-01
-1.961292067225522615e-02 1.717190321837117062e-02 4.434433871458912102e-01
-2.947743132300852630e-03 1.786275583426123748e-03 4.401144584171173824e-01
-6.621959826905497379e-03 2.029265946862090012e-02 4.470001683585922425e-01
-6.763532351326430672e-03 1.545427186608877264e-03 4.394811655819907958e-01
-1.917074234633777633e-03 4.428479347983886594e-02 5.331227037042680639e-01
1.626889971529619193e-03 6.720460943202288817e-02 5.059117689097195614e-01
2.846481419407345323e-02 3.572629921639002698e-02 5.146900908844023181e-01
2.990456215049422384e-02 4.911889617849540118e-02 4.816969134783217754e-01
-3.754264457767782920e-02 2.558085061035892185e-02 4.473014863870115043e-01
3.003393684632429603e-02 4.591720955891524791e-02 4.781477134274152441e-01
-2.941956576781453933e-02 3.380175874175896794e-02 4.499592639155178264e-01
2.448959852526836484e-02 5.574093777214433193e-02 5.029953622118887857e-01
2.850718237409115979e-02 5.405435069296332662e-02 4.883339101438581298e-01
3.672290673036782138e-02 3.127010540131603539e-02 5.022345407211094015e-01
3.963224700514779431e-03 4.767395389990387866e-02 5.297519139840241031e-01
3.527194007198392045e-02 3.836376682846833613e-02 5.008692203004972976e-01
2.018141771424853889e-02 3.711244787112809307e-02 5.242347368885127423e-01
3.961164881773854979e-02 2.554128923382305294e-02 4.752258467137600584e-01
3.816626613963236547e-02 3.445736494974133146e-02 4.849300013018950084e-01
5.879059901725112829e-03 5.847283298039530203e-02 4.676971799583776734e-01
7.746848386911866016e-03 5.081179606883237665e-02 5.264063721950638097e-01
1.749894016327150151e-02 2.702722086306471802e-02 4.570383678786215098e-01
8.114077421624062841e-03 7.707500698315639109e-02 4.853703631722047773e-01
2.318280042813205925e-03 6.778030601965973068e-02 5.060898832547831017e-01
-1.780334370734137917e-02 2.941833328843713666e-02 4.489108322735346213e-01
-3.346444536643004841e-03 5.395075704033512609e-02 5.306492334688451828e-01
-1.117593916408832558e-02 3.229881811213938803e-02 4.515442980343413737e-01
2.731791761574552807e-02 5.662399214939804748e-02 4.896643074892631509e-01
2.189304819102826441e-02 1.605620481970793795e-02 4.529733939496745077e-01
2.636059969597720834e-02 7.690271351665744527e-03 5.320076479586421936e-01
-7.652798223053134709e-04 6.968231326520765712e-02 4.730140405259208314e-01
-4.199120801149482454e-04 3.667421283650833946e-02 4.561842103075768318e-01
3.640809977411837289e-02 3.722085645314764102e-02 4.811430236601313415e-01
3.066953086772420539e-02 4.118112935698661770e-02 5.077630879093848471e-01
-1.029549252628077921e-02 3.153373536654740378e-02 4.513146488613515861e-01
1.888475180413735216e-02 5.534963849862498120e-02 5.141358871183185908e-01
-1.329597484020225012e-02 5.380754142333189077e-02 5.329345875079266603e-01
4.202897868159288786e-02 2.389147350875151649e-02 4.821555907044184908e-01
-3.945265772061454235e-02 3.413396363785509147e-02 4.503075817064824959e-01
3.193223136094051895e-02 2.155647149474508584e-02 4.626855805243161313e-01
3.830822438326775270e-02 3.420261763457688176e-02 4.895309632446983583e-01
-3.120718986645828683e-02 1.997459265802269818e-02 4.448457390496095010e-01
2.298225718890516481e-02 3.831120492317290765e-02 4.663727425847665753e-01
5.048352789356247775e-03 5.461932317509138844e-03 4.431122760612070666e-01
3.818887477183044443e-02 2.937549208972642031e-02 5.005613516498469417e-01
1.600471154416862468e-02 9.532619992799779007e-03 4.477831506051930810e-01
1.313326458995565764e-02 5.281204431876335842e-02 5.211608972364434322e-01
2.067395264908571118e-02 5.614060978639183463e-02 4.761198248207938466e-01
1.838475333804493947e-02 6.956189536998881595e-02 4.914993132696898193e-01
1.619064573839958110e-03 1.201226165817403241e-02 4.451587959962940433e-01
-2.165963726390600710e-02 3.727649898073217422e-02 4.522208931366988871e-01
2.621638067416511356e-02 3.599892977753464673e-02 5.172070610822744330e-01
-1.459265006476541046e-03 6.110202294001507856e-02 5.179126658390386106e-01
-2.701609639358128201e-02 1.291981240582245130e-02 4.422454480932121457e-01
-1.117445484930837223e-02 6.168571359774219220e-02 4.664717839021225720e-01
9.233430477619201937e-03 3.904044353848046961e-02 4.603429649901077947e-01
1.868638942778502732e-02 6.704382800940884846e-02 4.829021296731384472e-01
2.901592768716503706e-02 4.434809008955999110e-02 5.088773245203795925e-01
2.342695350658432346e-02 8.922272840406189273e-03 4.502073913218960777e-01
-4.462417094086183929e-03 3.476171256806172283e-02 4.542733458925627410e-01
-2.642812695466190478e-02 5.000075586467143951e-02 4.594454336595167332e-01
-3.177250324942330895e-02 2.058506756484646677e-02 4.450602882365385371e-01
2.414182616246026911e-02 2.517079202177925981e-02 4.592367585605778846e-01
-3.016227478385679825e-03 4.600142099869582168e-02 4.595562855480605502e-01
-3.901140376524812620e-03 4.615421538320055306e-02 4.593985412177479244e-01
-5.993595242026102284e-03 3.316898336738619002e-02 4.531243529735897724e-01
2.460314179084585259e-02 5.318942067847945432e-02 4.782270773932220109e-01
9.582502486927961180e-03 6.714575106724174347e-02 4.739717626899029312e-01
3.120521364094208140e-03 7.648996189475591734e-02 4.820337538778078912e-01
1.423616458344365530e-02 6.593582651773731429e-02 4.764756105108121642e-01
9.388324044421445663e-03 7.386705631784665216e-02 4.805402930356360569e-01
-2.234572974678529847e-02 1.530320550019058021e-03 4.380270666284514780e-01
-8.213659711916780626e-03 3.533494270191649134e-02 4.537591868077509027e-01
-2.560961733737426860e-02 6.831535921961393205e-03 4.397453644719566124e-01
3.172247071462463291e-02 2.928788583658821151e-02 4.673199848955083002e-01
2.416885628556960167e-02 3.794435420955664939e-02 4.669809172427195065e-01
1.705602859149272371e-02 3.840985837199680647e-02 5.255068186944908959e-01
-1.645072633077153748e-02 1.532694666973050818e-02 4.428470599287575582e-01
