1.041178915586754572e-02 5.930026759432233119e-02 4.703240297179034912e-01
6.943037083589285660e-03 7.727336775592001661e-02 4.892299987249656978e-01
2.159156734801403327e-02 2.091208440248170861e-02 4.552029503803541877e-01
1.156020533465727806e-02 6.936576747953464295e-02 4.769871030103088883e-01
-9.852202535828708668e-03 4.041032037560833567e-02 4.560695135584968973e-01
1.551876036700088404e-02 7.236533733069536178e-02 4.886200570951650946e-01
2.240282363265374416e-02 5.317863766248644326e-03 5.331283237241726258e-01
1.909034383981028649e-02 4.043409727323735159e-02 5.232720316568513219e-01
1.845748945594476165e-02 6.920592767000910417e-02 4.870310575132637543e-01
-1.220483560081961523e-02 9.122123341362756849e-03 4.412733921963332695e-01
3.556359714620998397e-02 3.831470303273284972e-02 4.999506366207535080e-01
2.384776690517841774e-02 2.883473941739409657e-02 5.266059479953968392e-01
1.532019607388369550e-02 6.103453529105599962e-02 5.131155465870990140e-01
9.406042679856898084e-03 7.365445976030615682e-02 5.008313257091332460e-01
-6.521886894591493941e-03 3.653532288170287246e-02 4.548304664389388741e-01
2.681056777694624041e-02 2.961324922747052973e-02 5.230720064612461861e-01
1.552486135532174516e-03 6.509328597502525571e-02 5.109828846447558304e-01
-1.271113677068202129e-02 4.439260126769199732e-02 4.571574625661116720e-01
3.614353472943739737e-02 3.867442856589153877e-02 4.824339832491653102e-01
-1.377037292223580803e-02 2.478929897157009996e-02 4.475979437551154683e-01
2.632250464290149770e-03 7.166777698412844788e-02 4.771519482286442071e-01
-5.843302547122408014e-03 5.555971537626328005e-02 4.626078274561155057e-01
4.993888530612696289e-03 5.910365845422888009e-02 5.213502384189901973e-01
-4.957281031485207684e-03 6.550333602223284458e-03 4.416560903890306977e-01
2.258481257093449338e-02 2.943048852796510684e-02 5.273770497748692110e-01
3.212319560834156484e-02 4.772881439510061330e-02 4.943031530711862187e-01
1.172175894775772005e-02 7.485552867498457275e-02 4.946622810717348773e-01
2.902361511859808882e-03 7.281485508338254864e-02 4.963981056508126599e-01
-1.988520323650738719e-02 4.083593134587004680e-02 4.543473471126339702e-01
9.786085370535759984e-03 5.207179248958768158e-02 4.666936434196150008e-01
1.542956769749500613e-02 3.598528672426017788e-02 5.285624812816939189e-01
1.833799444607250514e-02 5.788939286664197825e-02 5.133074351040592953e-01
2.222910024208389623e-02 3.092945732273808673e-02 4.614996326083206646e-01
-7.139420497030661908e-03 2.230988397876620954e-02 4.478507080262519868e-01
1.920431335700141171e-02 1.297784937939065568e-02 4.505519031989408396e-01
2.035139215140214716e-02 6.733398628431801203e-02 4.917003926882759224e-01
2.418622670318626433e-02 2.813986245120066523e-02 4.610387834517602479e-01
-4.807433761948638577e-03 2.288160056086030805e-02 4.485737488236783421e-01
7.679563536999920587e-03 6.209520309470663302e-02 4.703261649494187568e-01
3.244415930331973064e-02 2.003197933290801203e-02 4.621459956877577158e-01
1.861803351336042966e-02 3.815548318255816695e-02 5.247887225161269598e-01
-1.943787362699412810e-02 7.598928167975990342e-03 4.398108396308046952e-01
3.715209352571968715e-03 1.276702766163757656e-03 4.413197392718408163e-01
-1.609992357805175092e-02 4.935948391901581050e-02 4.590025212287626166e-01
-1.348733210418904486e-03 5.948999193648658868e-02 5.234642039358661236e-01
3.894724056747613655e-02 3.108745125586323543e-02 4.803206499524427242e-01
4.497358600800971384e-03 5.896235265333555492e-02 4.672897144130291336e-01
-8.242196588249508377e-03 3.157497234934165259e-02 4.518649496375335417e-01
-2.478449789241109896e-02 1.249036368677724357e-02 4.417352030753265435e-01
-5.925219668801450651e-03 3.619591552049841732e-02 4.547785149775486202e-01
1.373578646992957338e-03 2.062659010984863386e-02 4.491212256119772595e-01
3.994200926812514763e-02 2.992265323365572022e-02 4.904844228166854170e-01
1.357095783301316520e-02 7.194893129917430408e-02 4.813508589683370142e-01
-1.364545822050232740e-02 6.109141087540348458e-02 4.667842766000553367e-01
2.109668943029781307e-03 3.554632308246140349e-02 4.564771575654211766e-01
1.864725743270866098e-02 4.222326703285503302e-02 5.223321573295078846e-01
-5.970527624798981428e-03 6.302969886804404495e-03 4.413939592365219711e-01
3.316912850530928658e-03 7.269657128885234632e-02 4.976697168899343326e-01
1.900195942370438984e-02 6.904638134013210693e-02 4.911089918138258348e-01
2.540076478920171715e-02 5.292888414359895460e-02 4.790691720274762311e-01
2.652019585085587522e-02 5.776740354168976438e-02 4.872189463847851898e-01
1.511411870062410491e-02 4.300830219375260249e-02 4.645851136085874522e-01
2.518555886588198789e-02 2.442838856325760255e-02 5.266044935637276270e-01
2.420413937599076928e-02 5.274362261012417036e-02 5.087308270043490177e-01
4.076446179005949189e-02 2.677801240238777969e-02 4.926157257142063650e-01
1.521638051329449182e-02 5.785124086006701583e-02 4.724806795928159775e-01
-3.760185273760288660e-02 4.237375523645561803e-02 4.564239370926448380e-01
9.690856928987091543e-03 4.471534225721877226e-02 4.631889496762454650e-01
4.790350415134490662e-03 5.883209558073083933e-02 5.218459361899384641e-01
2.512121154944974358e-02 5.815902910049454422e-02 4.971491826102337752e-01
3.650141852397665448e-04 6.691023561012499066e-02 5.034064129548027067e-01
2.597750916086855044e-02 3.406440995326177890e-02 4.657974691080595808e-01
8.732177932894566105e-03 7.664677170998653033e-02 4.837274174068406096e-01
9.413548691890819692e-03 6.799144831245228227e-02 5.098567646874594406e-01
2.678998653814969322e-02 1.003249554038219797e-02 5.293911251195859702e-01
2.030325100052825238e-02 6.152812493502354818e-02 5.037639057549145871e-01
3.548124544875363995e-02 2.796789513424944099e-02 4.699555619723904676e-01
2.243654442253992937e-02 6.381596689927519772e-02 4.929153219306163791e-01
1.962265106655878763e-02 5.712968020181951462e-02 4.756240771699707937e-01
-2.626396054926969162e-02 4.345256127394744525e-03 4.391726748461028396e-01
2.738845765302358806e-02 3.942517888470839504e-02 5.142944524005688134e-01
3.906863020404270290e-03 7.402451814636068494e-02 4.943249456831898536e-01
-1.665844287754079597e-02 4.825838653914779619e-02 4.583784528607242614e-01
2.389840689040315796e-02 4.422666143941315214e-02 5.155382889377939648e-01
2.876485436064412510e-02 5.396823440210442996e-02 4.892748599193491033e-01
1.838495972404425791e-02 1.846582306240569793e-02 4.526546807214029688e-01
8.565071245176181930e-03 3.833427011883056706e-02 5.312715897257707098e-01
9.612944651703763874e-03 4.091644378331318194e-02 4.614529018041828023e-01
3.423866302999648004e-02 3.964785185379358923e-02 4.788474542820747026e-01
-2.191368266369472101e-02 4.590264451030885706e-02 4.567534047476191073e-01
-2.367308340838126385e-02 3.462493306987805830e-02 4.507605271064177299e-01
2.615288935951714903e-03 6.652715393946459499e-02 4.709647097181676734e-01
-3.174399876247466570e-03 4.103165615455459797e-02 4.575767503722263374e-01
3.001100968014511206e-02 2.939149746120269663e-02 5.183503064993152387e-01
2.104347135205164587e-02 3.818977661862472256e-02 5.228930654874640593e-01
1.565637300461339074e-02 4.266311316509198426e-02 5.246801189715273317e-01
2.478996159165026015e-03 1.836766184111340156e-02 4.483429391225458582e-01
3.744028145070057989e-02 3.633343029883272929e-02 4.892740446422451095e-01
6.861786409561233813e-03 5.481975857809352759e-02 5.245261850751771204e-01
4.182712924747378908e-02 2.449378581966344878e-02 4.890822536513972363e-01
1.915196174814446164e-02 3.421819354012812370e-02 5.270833163107732089e-01
1.370588459000503679e-03 1.496223314408458120e-02 4.464582144465401026e-01
3.639220607578937117e-02 3.168753471635596397e-02 5.027682806053196396e-01
-1.276379181231618656e-02 1.155422441763102707e-02 4.420760382809569289e-01
2.401627187112693670e-02 6.219285102060925774e-02 4.882075052401461668e-01
-3.544710895847212606e-02 4.319675862093707436e-02 4.564435100770318776e-01
2.461233052830481480e-02 9.289443633902334796e-03 4.508790130768978721e-01
1.630313651415404158e-02 7.150876035629624705e-02 4.867365647510935034e-01
8.716975057655930448e-03 6.372730649761561283e-02 5.146017487244468613e-01
2.346234788055298615e-02 5.722512695194599541e-02 5.033369346694180901e-01
-9.995182451178856453e-03 2.320789722354247436e-02 4.476602231839789670e-01
1.897052380748290995e-02 4.109628904026636081e-02 5.228742738196794360e-01
3.356478793053027654e-02 2.123655386908491344e-02 5.188364331368884308e-01
3.221669653949998935e-02 4.364786263002878169e-02 4.793118598132903863e-01
2.596849502727735862e-02 3.845954340014515888e-02 4.686974976818508165e-01
2.348893016023136798e-02 4.428325626448424701e-02 5.161255242902813567e-01
-1.909343152284439724e-02 5.988519364089209263e-02 4.707229199870061609e-01
1.539674471380584816e-02 4.655672277332063846e-02 5.229269212795665256e-01
-3.822460611404429002e-04 5.815949765549069395e-02 5.256948852600857869e-01
-8.129315143778003197e-03 5.479846286264703631e-02 4.619509496505119772e-01
-1.524779660357365035e-02 3.111373434695003173e-02 4.502253329519421143e-01
5.498994410438541765e-03 5.189840037748504054e-02 4.646484055582021933e-01
2.116128527884512250e-02 3.298188489344906077e-02 4.620158720275241993e-01
3.935655553448916960e-02 3.093232864381596434e-02 4.814514261830860065e-01
-2.558749257164093238e-02 5.111364964649159348e-02 4.599830677255598577e-01
-4.520180500270047988e-03 5.728596776890797215e-02 5.295835847535372842e-01
1.910687933738543405e-03 5.634828046648099331e-02 4.650595508137537748e-01
1.083527272086714198e-02 3.994323396641628193e-02 4.614062332116894982e-01
1.984086164600505978e-02 6.813864305475424155e-02 4.900188896497642554e-01
-1.868831981344105941e-02 1.752097684818112316e-02 4.436586027877351124e-01
-2.723542005163034907e-02 2.241536306522522518e-02 4.454055161238600902e-01
7.780421114726224219e-04 4.696284214401450635e-02 5.318416552713814971e-01
1.802738353992239077e-03 2.951873340269668342e-02 4.533507650927226518e-01
-6.742654121977670854e-04 4.434464172710578939e-02 5.330884981793435617e-01
1.687927571899510565e-02 3.390928856524002416e-02 5.291570842133285213e-01
1.441752529375458711e-02 7.352780431610626832e-02 4.877101626815715241e-01
-4.169734514451694379e-02 2.804751872007133634e-02 4.486922234871746906e-01
2.996385408720280905e-02 3.609125254079703637e-02 4.702379755782680193e-01
3.401604244956832074e-03 7.647744300646369675e-02 4.816169882437920657e-01
-1.452724198932948615e-02 -5.571367083187251171e-03 4.373150232425790374e-01
1.605962001270014317e-02 5.648480734291268235e-02 4.722556924766148634e-01
9.632028210335267376e-03 6.473330820434082533e-02 4.726220559645001318e-01
3.311377645850394069e-02 4.444116547677356976e-02 4.977389844392982043e-01
3.139717828992558135e-02 4.280153357304478795e-02 5.053375267523043668e-01
-1.723219134010451140e-02 3.803450985655881106e-02 4.533707463431280171e-01
1.004643732539277877e-02 6.150539744784164903e-02 5.160048767705792683e-01
3.447514051203482560e-02 3.268097914538709708e-02 4.720613411242743362e-01
2.515215495081646324e-02 2.491618625561209735e-02 4.597129524143507284e-01
-4.079046658667843245e-02 2.733499562069883603e-03 4.417120318892994169e-01
1.463990635662165349e-02 3.374646011376708499e-02 4.595601060914361047e-01
-4.003035947014071949e-02 1.001349969996851406e-03 4.412390929795917960e-01
-2.730442398376900157e-02 2.643220507402577538e-02 4.470337830334522589e-01
-1.010692149314513545e-02 1.801358391836316991e-02 4.453789376924631171e-01
2.107882063178175003e-02 4.190485651764122577e-02 4.673752047443012758e-01
-2.331886551931989376e-02 5.175281156793936493e-02 4.600745625952394890e-01
3.517955053781695457e-02 2.433107913873983411e-02 4.671491806049857254e-01
-4.752346626161019910e-03 4.627289187498281886e-02 5.337304587867367500e-01
2.154186271317439644e-02 5.978783282126541587e-02 4.800323452928879076e-01
-9.384169054842197988e-03 5.877989384985130017e-02 4.634190032631105294e-01
3.687370851279361816e-02 3.649493375595533329e-02 4.814492587796730949e-01
2.094935422057701314e-04 4.882813201014483961e-02 4.615048165840283656e-01
-6.513193144566855469e-03 2.918914413629131871e-02 4.510668226136916870e-01
2.761887410689988984e-02 5.394856430530407809e-02 4.975476489731777696e-01
7.807111227208877839e-03 6.377855876729564277e-02 4.712478054751243484e-01
3.955616491148260944e-02 2.991183376797813820e-02 4.806553127712612228e-01
-1.910997463059906087e-02 5.965416085103899396e-02 4.674101796879819859e-01
-2.208489857394426575e-02 9.847280030705781589e-03 4.405086736860798768e-01
1.938778783466998945e-02 5.743305957857382238e-02 5.123847085197389406e-01
7.867818649181092944e-03 2.450415688993978075e-02 4.526412092785301877e-01
1.489259812923705330e-02 6.662452116032384353e-02 5.052471568680566572e-01
6.505400993685479111e-03 6.882526687904379215e-02 4.739128903027706730e-01
-2.946298054537123748e-02 3.983808921357576832e-02 4.529740730234063095e-01
-6.599349938061637930e-03 3.316265225808934236e-02 4.530383146963503638e-01
3.726598292772546894e-02 3.675782339183354674e-02 4.904487447511093334e-01
-4.880451558617337343e-03 4.554659090826422563e-02 5.337417621058783146e-01
3.392886099140553918e-02 4.389172022464832290e-02 4.942932507076727711e-01
2.585247856748827330e-02 5.018199948338903510e-02 5.087870384654664679e-01
1.151059099445495525e-02 7.527510174704492296e-02 4.879119151716119207e-01
3.895215236674065551e-02 3.077609751793294185e-02 4.798928164754593939e-01
2.204083055593572191e-03 6.338281003582645068e-02 5.144472568070967977e-01
-3.942050645745984877e-02 3.239366032644343946e-02 4.497268930728571812e-01
9.161184493642745771e-03 6.544936728004963067e-02 4.727589698419727982e-01
-1.701924341970859761e-02 3.944559238728054251e-02 4.541177764936237815e-01
2.995913280693487252e-02 3.904010159103670635e-02 5.106337490159374992e-01
2.367367961247687780e-02 6.116988061819825934e-02 4.837806764652676228e-01
4.147919009624661223e-03 2.046277833401663124e-02 4.497780823839399034e-01
7.074789186101122090e-03 3.951192596497836440e-02 5.316249764484916041e-01
1.689284125518737689e-02 2.143955388033348328e-02 4.537631472688064549e-01
1.221192257533528468e-02 3.551341295737551335e-02 4.595772787906463597e-01
3.770952886537704690e-02 2.776385418249349007e-02 4.727917992114735735e-01
2.671994327485771245e-02 3.809785532288585685e-02 4.690204842664512097e-01
6.329929188177547961e-03 6.335287255617780278e-02 5.162002388989781476e-01
-2.920145795385385365e-02 4.565098353544894128e-02 4.569901740845858096e-01
1.578045097979954847e-02 7.039561838852040343e-02 4.826155909693762291e-01
2.412010850755949565e-02 5.583807850373869591e-02 4.799385816735955435e-01
-1.953047801646248804e-02 4.486982345737818012e-02 4.563737532958978549e-01
-1.408076190919867535e-02 3.416125135868033902e-02 4.520278891707167901e-01
1.072593703281472452e-02 7.578605159521928369e-02 4.924022835126846132e-01
-1.023060359057021904e-02 3.267191845290488145e-02 4.519855450733641367e-01
2.542479562120121897e-02 3.161873531952248684e-02 5.236042179523878737e-01
-9.074905659268873298e-03 6.195907889711212146e-02 4.662699187315865745e-01
-2.994458414896370921e-02 1.744174373562472347e-02 4.439982538606879747e-01
3.535251966067613771e-02 3.864616597418092658e-02 5.001842951500117262e-01
-9.128015977522376586e-04 3.021377741322416738e-02 4.529512580839258895e-01
7.055549426350800520e-03 7.249177392980131474e-02 5.033641583428027921e-01
-9.751802106502702877e-03 5.319638089474262865e-02 5.338462281775351315e-01
1.559731809182963828e-02 6.286736386773680851e-02 5.108383855291233067e-01
3.356611956735061630e-02 4.008861170409962899e-02 5.036693994072934943e-01
-2.021516153699308600e-03 6.924532073649482256e-02 4.728082569287802572e-01
4.114617448509005210e-02 2.663485005295015973e-02 4.830286400874761465e-01
1.511566769593845720e-02 5.736781628571204633e-02 5.159845586281832652e-01
4.042608326044542372e-02 2.699328459524752422e-02 4.938918595009643142e-01
-2.678108902203103076e-02 2.506208176925659586e-02 4.463916773804299520e-01
1.124692851052162303e-02 7.171591481355954478e-02 5.034714906605837204e-01
2.876645065835684370e-02 3.146117162491991748e-02 5.189842620036709819e-01
6.447935020230468467e-03 7.456496032334963830e-02 4.805552500720529085e-01
-8.702422374611934811e-03 4.031543670827660714e-02 4.562486911064480011e-01
3.298485930953615197e-02 4.037056532030149081e-02 5.044650988105497946e-01
-2.252126403569846072e-02 5.311069918700145331e-02 4.608050071696811467e-01
3.089268778516341893e-02 4.936185063266145673e-02 4.861742380062110125e-01
-1.949004078994334352e-02 1.819141736201649803e-03 4.382524156369431712e-01
2.788038215107227838e-02 2.596529645368278461e-02 4.619731139841850021e-01
7.883960647549976067e-03 7.110388449975822700e-02 4.761327886502173534e-01
-3.150967172994044441e-02 2.219537511264667654e-02 4.455231238723087461e-01
2.809070777930403398e-02 5.213075386808679185e-02 4.820143479254939134e-01
-3.994069446946946732e-03 2.399253641270428922e-02 4.492880803020058433e-01
6.561120589528272699e-03 1.025801298657365128e-03 4.418824593707843529e-01
2.251716636123479373e-03 4.247222420806727461e-02 4.598043536029072786e-01
1.723855741113209869e-02 6.324779823052237293e-02 5.068725850644915099e-01
3.547343419967599609e-02 4.128928631571419233e-02 4.846701983123974378e-01
3.549934256086192258e-02 3.365020853894570840e-02 4.743695172299125518e-01
2.829859465035237855e-03 1.877538778233930894e-02 4.486255027674392326e-01
1.278337967260451472e-02 4.179529828270937136e-02 4.630426161178966549e-01
9.106555868754879352e-03 5.521712425709549704e-02 4.678148052833809301e-01
-2.671189242267256805e-02 4.464650411978893924e-02 4.558572422817024905e-01
-1.282258883450474764e-02 6.160143868145351483e-03 4.400598405700372751e-01
3.501269385393660644e-02 4.168953666998385238e-02 4.942525527560114318e-01
3.426058138481760662e-02 4.260552666192366639e-02 4.831533204454829811e-01
2.210959757753994462e-02 3.582350052899885978e-02 4.641998276229145071e-01
-3.363651939721041401e-02 3.540542310347805782e-02 4.507125088568744720e-01
-2.322766534178524744e-03 -1.255341743708031886e-03 4.390930799828233200e-01
1.041340037786548864e-02 4.310260218218101014e-02 4.627307451331957311e-01
2.154821850504775801e-02 4.213987293898738967e-02 4.678059739564510155e-01
1.050140440196674005e-02 2.247294443782731424e-02 4.524807340262226307e-01
-1.167823611059367727e-04 4.812636254454472073e-02 4.611635226677412436e-01
1.043963711770049679e-02 4.049663041902872018e-02 5.289246822773693291e-01
7.253365641188180141e-03 7.376526216162718197e-02 4.981456166719059331e-01
7.303059147809645366e-03 4.972965007360889873e-03 4.434546614032785494e-01
1.554214878862845636e-02 4.413347501113792232e-02 4.653271838935308935e-01
8.483628615434659834e-03 4.039999885776662109e-02 4.608291969175580816e-01
-2.469352632738806841e-02 5.282591942089490816e-02 4.609327556535411929e-01
1.014650195503116227e-02 7.517049422884292120e-02 4.828887792877272211e-01
1.992369876270422627e-02 4.390566974374839754e-02 4.678156094729057357e-01
-1.330480789652033896e-02 2.027883575405015071e-02 4.457262536180932599e-01
3.207466761242164233e-02 4.268438655743144600e-02 4.779131363973543323e-01
-1.959716549678574594e-03 2.134209929127008770e-02 4.485819345178567175e-01
2.024718239685742438e-02 3.788172101621908872e-02 5.238637991502979041e-01
1.883508424517836566e-02 1.960238408316106878e-02 4.533130645270090353e-01
-2.635086469823924235e-02 4.746334205689657637e-02 4.577823929821825955e-01
2.689598005403402194e-03 5.918408121978872144e-02 4.665398085830042563e-01
2.193144534864688647e-02 5.756284955328808128e-02 4.786176420022295042e-01
-6.065692008212859778e-04 5.895149829715328610e-02 5.242614761009575242e-01
2.499891544519996026e-02 4.939737234613435918e-02 5.116403937054434525e-01
2.641391694795382217e-02 3.825298574431305887e-02 5.163874095304853418e-01
2.663221841942658985e-02 1.808863746158570832e-02 4.567005486174441908e-01
2.042624157075939584e-02 2.553392904319356713e-02 4.574005833425641709e-01
2.983207552750481717e-02 3.632592801826867862e-02 4.702859255451662945e-01
1.504992270326176509e-02 5.819764834997443598e-02 4.725561018444284778e-01
2.556943382564530118e-02 2.782290255206967128e-02 5.253877214740027002e-01
3.152109339205587391e-02 4.239650140263560851e-02 4.765834275985817436e-01
8.263203434809495915e-03 4.889955617379185618e-03 4.436428982992139947e-01
-9.981709797584671987e-03 5.285730815383854475e-02 5.255686793309453098e-01
2.580339380151614945e-02 4.761208431076269926e-02 4.746956038161183611e-01
-1.753689168505525448e-02 1.961772329861725256e-04 4.380182725535731181e-01
3.421263381680653137e-02 2.559743329764729153e-02 5.118825098740198420e-01
3.884234444637950368e-02 3.248889386725965084e-02 4.820317469619466166e-01
2.393699663401960276e-02 6.176095331027145474e-02 4.848914455392768774e-01
3.483982833301610404e-02 2.903800374316348534e-02 5.080436583397892614e-01
9.035435492058494292e-03 3.709242496788254378e-02 5.313880593654987106e-01
-1.020783794451034059e-02 5.951013907337910497e-02 4.639249760009241386e-01
3.593320306283696863e-03 5.829733443573587026e-02 4.666272148758309202e-01
1.934934299139220645e-02 2.358935964251549638e-02 4.558773575824543456e-01
1.830326758674661464e-02 2.391985982873684469e-02 4.556774549242083028e-01
-7.736222973000751214e-03 2.201122741598914023e-02 4.475982738412853656e-01
2.609223639628957883e-02 2.269976862440046747e-02 5.265130177962668023e-01
1.103923506888264058e-02 3.306463785774844261e-02 4.579594207052422039e-01
2.514584024021106201e-02 3.341961448025477371e-02 4.648296615699853973e-01
-7.227682881237576865e-03 4.838146070826389311e-02 4.596550917894230426e-01
1.438030576952097940e-04 7.097748538883243141e-02 4.774654394373478161e-01
3.608021905112365757e-02 1.778658038011055390e-02 5.187219226413333217e-01
3.111633211905999105e-02 4.727017358908085914e-02 4.819338463115598326e-01
3.789297854968971813e-02 3.396611251696658729e-02 4.958713875139307281e-01
3.784571834841363169e-02 2.959651725851063925e-02 5.012238208183386057e-01
-6.815574730065239624e-03 3.731894181264623633e-02 4.551881807961739024e-01
2.790337783150091677e-02 3.508256772881947899e-02 5.157776230056958511e-01
1.353274105238269458e-02 7.328095253608500614e-02 4.969887882721830685e-01
1.941650330730034348e-03 2.223462241107681744e-02 4.500034680972896939e-01
3.719143603615619048e-02 3.332212872211335469e-02 5.000160610638945125e-01
2.126233320680170208e-02 1.899064592556684236e-02 4.539373241243448986e-01
2.314805442702059981e-03 2.627449898748103821e-02 4.519634352042319336e-01
1.067817549659016291e-02 7.161450540492288186e-02 5.042822755038641747e-01
1.081004402251168131e-02 4.707883103738652597e-02 5.261347282550113968e-01
7.316147815126757166e-03 7.740445853184758918e-02 4.875281463342215349e-01
2.383883099011731982e-02 6.096214296699033197e-02 4.951679899114932448e-01
3.074536396799013027e-02 2.981768027215451339e-02 4.668125358836513472e-01
5.408285012310437047e-03 5.892901736814364078e-02 5.213005795815279786e-01
2.606221204192782706e-02 2.668723870370480131e-02 5.253715118621877789e-01
3.866677431901813927e-02 3.214385411801191916e-02 4.950014958841884583e-01
2.388428682700084391e-02 5.333139582976546833e-02 5.085402129630068879e-01
-3.641037607724723589e-03 3.644559171718105700e-02 4.554028873485124196e-01
9.608437593723885214e-03 6.355152549780912485e-02 4.720070721498249577e-01
1.282141058849268697e-02 6.209630194694824162e-02 5.139586733227956561e-01
2.063895906621030993e-02 3.008451037018022856e-02 4.600380934581820291e-01
1.640596545170864770e-02 5.708594619433277062e-02 4.728460672754868921e-01
9.173963772071669007e-03 2.824048830666314736e-02 4.549123733649018120e-01
2.741928694067015740e-02 3.465035202343611648e-02 5.164600839411459532e-01
1.988503909962133394e-03 3.941027168418884813e-02 4.583285347828429113e-01
1.780758361424912561e-02 4.580680048269322041e-02 4.675960281255794326e-01
3.412874868371241002e-03 5.716738740355510606e-02 4.660562464984875364e-01
1.308105979493446799e-02 1.745707854422818422e-02 4.508616144914207591e-01
3.384330756936199114e-02 4.423872828285990710e-02 4.844410981087196033e-01
3.317344678421371013e-02 4.564740199529797315e-02 4.930948605169112597e-01
2.800821018689616040e-02 4.786874140552687534e-02 5.072963204544442828e-01
2.241226849713113742e-02 2.653825641850277722e-02 4.590458583554330452e-01
-9.204982239795907531e-03 3.563739132650284303e-02 4.537795354029395822e-01
4.353104355386642858e-03 3.969742762040957135e-02 4.591897229918408541e-01
1.902281268435998193e-02 6.593556229973200622e-02 4.820783484964455412e-01
1.356053422222971809e-02 2.491216542908220380e-02 4.545408992038623142e-01
1.907157342892019242e-02 4.483334199632371675e-02 5.203498177537434488e-01
3.074456004883837495e-02 2.079409082502814768e-02 4.613455815880481703e-01
-2.006362305119832254e-02 2.764359608291357129e-02 4.478206542557962022e-01
-3.297843354322701342e-02 4.271252669615609177e-02 4.552682969664529899e-01
2.645895654358959917e-02 3.536405147983323616e-02 4.670070274574766866e-01
-3.067387902128143606e-02 -1.236365795602821808e-03 4.388078284829437514e-01
-1.957244092140179859e-02 9.812356851284009807e-03 4.405713256206710837e-01
3.380674345481856496e-02 4.487711743375383255e-02 4.878516705632156003e-01
1.335279817730984295e-02 7.429599960984532847e-02 4.865051878854302903e-01
-4.053009289084410702e-03 7.525857959231341005e-04 4.395740672030616358e-01
3.408539837052933924e-02 4.383968379428494766e-02 4.921191789653031057e-01
-7.883050871529236753e-03 4.903983625655864570e-02 5.339459902726790830e-01
3.751547621242103808e-03 1.283589846611802969e-02 4.460795149418551042e-01
1.583062834500799376e-02 5.835971975042091725e-02 5.146898779516955180e-01
-2.643500070706396310e-02 6.512394952284871960e-03 4.397899718489193810e-01
3.967658571504121406e-02 2.326645547692587912e-02 5.029990365439760414e-01
2.749847221452779433e-02 3.561855884485065626e-02 4.679602749119875504e-01
1.118464151733245156e-02 5.357593971713745656e-02 4.681278379572114123e-01
1.313753213704756985e-03 1.381540714750324576e-02 4.459116302609786309e-01
2.312774108142527305e-02 6.363935435786945150e-02 4.892912521518908431e-01
-4.321149898697496453e-03 1.749446181003594045e-03 4.399037531359908382e-01
7.511100622160103539e-03 6.327269364117414988e-03 4.441067606532206891e-01
1.959273707189538444e-02 6.043299990636299968e-02 4.781228428666590702e-01
2.974844522438053682e-02 4.992507005808345666e-02 4.824547341807849388e-01
3.566179159236595314e-02 4.033285406807769063e-02 4.945363832670591209e-01
-1.875082048861173925e-02 9.227780322541760324e-03 4.403946918233221375e-01
-3.690418477724445936e-03 9.882984041777537199e-03 4.432190978126019920e-01
2.880031983131308565e-02 4.317841905479253423e-02 4.740655870910754910e-01
1.428131180172370965e-02 4.869250630880894715e-03 4.450733964856688485e-01
1.944021361836836825e-02 3.030257104571568855e-02 5.293621742170797617e-01
2.791381538224975423e-02 3.423249771112731737e-02 5.160474491553003196e-01
-4.598305632079553208e-03 4.996939433227606114e-02 4.607395890048749942e-01
-2.581117348652820984e-02 1.543290831439579104e-02 4.428352138692023821e-01
5.340629399288703179e-03 6.862259307624957172e-02 5.106096970376372557e-01
-3.098696625647034616e-02 2.558689230551353111e-02 4.467412409011907726e-01
2.809455792029845467e-02 3.444808104984699304e-02 4.676722536377968531e-01
1.600688720306229704e-02 5.620884214285316524e-03 4.458845206332943123e-01
1.695034638761045570e-03 5.929959297823814840e-02 5.233207721609643981e-01
2.876807315952323654e-02 3.765438449781807057e-02 4.703033517937231789e-01
1.534950053605702372e-02 7.078152646219001976e-02 4.978712916441482284e-01
9.661562860270379513e-03 2.461915600223574252e-02 4.532137851621860780e-01
-2.468795404455864304e-02 5.044220309674599806e-02 4.595993955320208935e-01
-2.428239904817459591e-02 1.978589860823056282e-02 4.443869462069370835e-01
1.769265006032104057e-02 6.332804489240821677e-02 5.057454382625647948e-01
-3.501628296295874326e-02 3.225812826380033277e-02 4.492633988861228778e-01
-1.677132293996544746e-02 3.987619954205628980e-02 4.543688738640967451e-01
-1.650861929381741353e-02 7.670102800261445475e-03 4.399256006521125029e-01
-1.184022715863601236e-02 4.891414273080488956e-03 4.398006313199270267e-01
-4.812793592051778369e-03 6.727546334659832879e-03 4.417520504381613478e-01
2.190698337600370527e-02 6.444214824377933470e-02 4.852090791887516685e-01
-1.873015399217798152e-02 3.231531034778660494e-02 4.502734609521827913e-01
3.751448742823946386e-02 3.354795491633465881e-02 4.982535138830886945e-01
2.577217950896196121e-03 7.515397018298834719e-02 4.824993396157944425e-01
8.753992485562092640e-03 3.898641629739810210e-02 5.311169128704542608e-01
-6.897184986529854116e-03 2.368596163332007190e-02 4.485208508604354161e-01
-2.248399182532708623e-02 5.712903546897984269e-02 4.642248122199123528e-01
2.265241639378611643e-02 5.110454227660536641e-02 4.742754472261327958e-01
1.227394747449455509e-02 3.671466287609390089e-02 4.602396914166710373e-01
1.873818952699955395e-02 4.184766201849582368e-02 5.225318243014606123e-01
1.459122606335940854e-02 6.617334870251961876e-02 5.064834776555230400e-01
-1.548812765188491668e-03 5.790586776550132181e-02 4.643779027966059569e-01
2.069692057729810575e-02 4.710552930329169746e-02 5.178820163693752532e-01
-3.627283171237875165e-02 2.151251613457792755e-02 4.459120797457465923e-01
-7.962640618632700618e-03 3.584712942839438088e-02 4.541436789576174804e-01
2.199605743645109690e-02 5.930990330357773649e-02 5.035629886031364189e-01
1.805170868404003953e-02 5.482401877863345152e-02 5.155356206496460869e-01
3.735754250691006133e-03 6.873139132297512166e-02 5.075211268623553984e-01
5.802531332742714119e-03 7.368299633113335745e-02 4.956125149614205028e-01
-1.348837846474893777e-02 2.951608689748183578e-03 4.388251268625252832e-01
-1.440596730919682308e-02 5.419907029638142137e-02 5.298908840334279891e-01
2.884127803364198994e-02 2.356090568002701391e-02 5.238683158654066085e-01
1.414235293428548444e-02 3.838735512019102181e-02 4.618137870403364320e-01
2.162153105522215263e-02 2.116107248198645374e-02 4.553717398974319597e-01
1.427897581170003982e-02 3.285753294785188211e-02 4.589502215977738220e-01
1.659400930210871289e-02 4.676502553557945058e-02 5.217626829354157225e-01
2.492642264863317858e-02 4.850429974918103043e-02 4.745232337805048717e-01
-3.080041786713607829e-02 3.772076950738228324e-02 4.518241591530276491e-01
4.099729975687577826e-02 2.757249037155613119e-02 4.853470718130504791e-01
2.878246849564505133e-02 3.666536219631286175e-02 5.135015859115581449e-01
4.004156541819953868e-02 2.962892579261243789e-02 4.905634577776862848e-01
3.794474185223594559e-02 3.190255992423859238e-02 4.987144013367950657e-01
1.220553998251779244e-02 4.048305866867270980e-02 5.277687843669394141e-01
1.038843189859718109e-02 2.570207680374901604e-02 4.539913191732393716e-01
3.260928761711288232e-02 4.186015259721052179e-02 5.039550902533491694e-01
-1.040244278145664378e-02 4.194891684906694451e-02 4.565943330722657123e-01
4.030146611896957007e-04 5.816779720687216548e-02 4.651700370705570964e-01
3.392833971451582331e-02 2.430222207642075694e-02 5.140887373897443657e-01
2.949573943796699599e-02 2.792234959371238043e-02 4.645382821109905191e-01
-2.151495356798435038e-02 5.372258024559993517e-02 4.610474653378170973e-01
-2.649303510477130173e-03 6.093918599742709219e-02 5.196158948798444976e-01
-2.454730559765593359e-02 3.541830737812602659e-02 4.510868321658754176e-01
-1.345060421619968458e-02 5.308303532639374600e-02 4.608125385002574403e-01
1.853912275541584956e-02 6.670037046530430391e-02 4.821164476144267907e-01
-6.560550677979943082e-03 5.912539948425588054e-02 4.637898617086976261e-01
1.693022419812752546e-02 1.491690975984342332e-02 4.506049235465022229e-01
-9.305583519488762421e-04 5.783111589352363247e-02 5.267687596476908762e-01
1.632864523927705924e-02 7.032762153769393787e-02 4.966660158070110298e-01
9.415428175306005815e-03 3.206426606461537307e-03 4.433054254484017354e-01
1.362497492164075480e-02 2.122909604875623107e-02 4.527972702895697865e-01
-1.780259081073668620e-02 5.644784040836808153e-02 4.624969722457946131e-01
-1.323029985686844170e-02 1.349742960619591467e-02 4.427828662873698473e-01
1.859256681496294569e-02 6.732404369136274491e-02 4.831593183068585429e-01
2.167002924011222909e-02 4.698888482547909640e-02 5.168840408051292856e-01
3.079722730125040650e-02 2.972435304448975413e-02 5.158867422108428524e-01
-7.704095686141256005e-03 4.602128465655332124e-02 4.586618044237268932e-01
-3.304440889906117701e-02 4.176946959040894747e-02 4.544974437578669368e-01
1.432521457540345683e-02 4.966133965080408302e-02 5.219738542645003809e-01
3.631512140818015169e-03 3.332009077327649504e-02 4.558053439518054972e-01
3.464241832779481334e-02 3.730510325252359843e-02 4.768459169623201488e-01
7.435402493706270120e-03 7.532669173291352271e-02 4.819916415716532510e-01
1.671363169491047601e-02 6.896892392725353926e-02 4.820262147806217423e-01
2.798004158692458249e-03 4.285290957775426263e-02 5.325021143759008924e-01
1.689619125089574653e-02 7.089823743817090518e-02 4.885998572237836290e-01
-3.635908853973087579e-02 3.550381603290136620e-03 4.404888123538459599e-01
2.324941190873356517e-02 3.546187274837014902e-02 5.227296698226246985e-01
-1.349008978900318075e-02 3.572464902342054049e-02 4.529585970068150669e-01
-2.771944093983896157e-02 2.706252519489161720e-02 4.473336890640796648e-01
9.329434415955005847e-03 6.911685170274939338e-02 4.753712699487095406e-01
-1.355402736983774004e-02 1.185730190257416362e-02 4.420253024979324263e-01
1.475539030668885504e-03 7.424930671871758647e-02 4.866866521287005476e-01
2.164205529386220572e-02 3.549178277194396658e-02 5.243973677766335939e-01
4.160819677817249873e-02 2.263936099612283426e-02 4.775709464796479842e-01
2.691701255456123432e-02 2.701235674741188017e-02 5.242832567418045375e-01
3.993490165912939871e-02 2.679451128459286319e-02 4.776526096118446918e-01
3.636352930574034137e-02 2.074788147042636380e-02 4.657693706443432058e-01
-1.146634893029012045e-02 6.160627331227560427e-02 4.664249390172523491e-01
1.811305755114902064e-02 4.689082332185761509e-02 4.684180343367996269e-01
1.551893287646720528e-02 4.476518016549128204e-02 4.656399190217803685e-01
3.590223484748889665e-02 4.019151492735758419e-02 4.853110254579509064e-01
1.177959944394946917e-04 6.553942203951973466e-02 5.064899997515440733e-01
3.321111093778272849e-02 4.616123594637190630e-02 4.883243108129906584e-01
-3.655061442085583839e-02 3.157137003974423706e-02 4.490409601403625439e-01
1.410310545422287752e-02 5.108585894174984959e-02 4.682643909850501274e-01
-1.144852154185385142e-02 5.189132710531352277e-02 5.338321073460871036e-01
9.859845000588023448e-03 6.613268981237246935e-02 5.117031045960941382e-01
9.616744247822904545e-03 2.668057154869856590e-02 4.542572590526008924e-01
4.010332463554995563e-02 2.918303401279025155e-02 4.921900804688963404e-01
1.081986927661725273e-02 4.972741657594811210e-02 5.250924184868629441e-01
-3.026119323105191938e-02 2.993729721800481372e-02 4.484216001558485321e-01
-3.883306645757174380e-02 4.132712408695646961e-02 4.558734403006685088e-01
3.332714473753293355e-02 3.604973632956087748e-02 4.731871596511214029e-01
1.353873037869780024e-03 5.715939607090582408e-02 4.651822889949023265e-01
-1.330432409976570196e-02 6.118775766277739087e-02 4.670824053023256428e-01
-2.920438219936790161e-03 5.626769039519684268e-02 4.634646309707379230e-01
1.889307833139204640e-02 3.752766320228521912e-02 5.249902081619802763e-01
9.982719234938739611e-03 3.521667732362517705e-02 4.587319706055345558e-01
5.781219301986266490e-03 5.197519167666778128e-02 5.273108583614067868e-01
1.360218825749938062e-02 3.833785937808955463e-02 4.615848122461462810e-01
-4.726200442940947655e-03 5.702882390743758967e-02 5.301713897456176161e-01
5.386412795879553378e-03 2.496142491420575218e-02 4.522505088063941137e-01
1.807647872800433042e-02 3.696397626167657186e-02 5.258848216702753930e-01
3.384752841118363748e-02 3.493831488449009731e-02 4.729170466359630121e-01
-8.664578319273787133e-06 4.296619102930937517e-02 5.329811050265383932e-01
2.979944317200028045e-02 2.935132264399006180e-02 5.192843430334749266e-01
4.176711891514706815e-02 2.522144239828636239e-02 4.865828334906705521e-01
1.096931497020671095e-02 6.930239330571302814e-02 4.765576210599096196e-01
-2.171002039745202616e-02 3.678725474949491592e-02 4.520245731897000185e-01
2.976943626398779325e-03 3.830192724899549733e-02 4.580793522371763848e-01
3.749966864850116238e-02 3.367199567394289078e-02 4.981369758312180207e-01
2.040726002480489770e-02 3.608590522614116280e-02 5.248606584531941843e-01
-1.596153957729912892e-02 6.055553218637959451e-02 4.674215593650707379e-01
3.088968927510274756e-02 3.881769316564170208e-02 5.093085544218342031e-01
-2.980702504057081235e-03 6.955715289248290412e-02 4.758665955346412235e-01
3.781184393932799509e-02 3.027698512356701011e-02 5.008381312658819473e-01
-2.722060827288974583e-02 2.061069814742790690e-02 4.447449561978346066e-01
2.944914240117986123e-02 9.495312351325165684e-03 5.293699149588600994e-01
1.777305939218929570e-02 7.002957069317299055e-02 4.879801601202352068e-01
1.291946183629091513e-03 3.011699765632970885e-02 4.534941292658081213e-01
-2.032487370639087659e-02 5.920989464332103436e-02 4.669218974552865609e-01
3.820595807283359499e-03 2.432584099765890823e-02 4.515190585743520946e-01
1.020099885939733907e-03 7.443954411571485075e-02 4.859286042198038835e-01
1.324402723337787802e-02 4.806016232049738213e-02 4.662552910314002319e-01
