-1.738179768467778847e-03 2.409721864544526679e-02 4.468999505114281678e-01
1.018729858824233420e-02 8.162636378939340867e-04 4.413413929595715324e-01
3.357744944609248466e-02 2.661919996424067653e-02 4.520388943330755360e-01
8.520883714614729820e-02 1.856545287407592240e-02 4.893599886642578944e-01
5.492625950068086293e-02 -3.610115666256527057e-03 4.572818545936936929e-01
6.505765957484752060e-02 -4.678663078222938115e-03 5.047080784642803408e-01
8.864208324424528718e-02 4.832845528906480614e-02 4.908365342995580916e-01
8.341563753906899858e-02 4.953902948022731456e-02 4.727926094011245528e-01
1.137163181953726454e-03 1.459773226433934250e-03 4.410098676070638435e-01
6.896846833238566565e-03 3.744240524463363778e-02 4.506205727495180002e-01
4.009931776436646139e-02 3.853506350520034818e-02 4.567349853107374180e-01
4.182238963693209188e-02 1.614205681566487777e-02 4.522793024231823722e-01
-3.196552372676884218e-03 1.504543215988327423e-02 4.439901469034129300e-01
9.209571442326812407e-02 4.211201361258846976e-02 4.716150136239578017e-01
9.203754766766766848e-02 4.978935032427928703e-02 4.855681685963422201e-01
1.332823497873150166e-03 2.099047057545436190e-02 4.459185449253171840e-01
3.939888938169044952e-03 3.893103475306099355e-03 4.419744279025267231e-01
-2.735609827736741953e-03 1.158773818774086473e-02 4.431580124164716250e-01
1.778172971728831514e-02 4.485011662821147826e-02 4.542776040079467004e-01
9.064935825569105099e-02 3.068470611220778382e-02 4.924149121219105751e-01
6.704485496726325655e-02 -5.691156707094580970e-03 4.756617581914661663e-01
3.195570680444038969e-02 -4.901695728105615046e-03 4.434491480055700596e-01
8.139944724570566392e-02 3.957052952929744627e-02 4.674471128961553146e-01
7.972698682399585735e-02 1.567668753922573516e-02 5.048631780105783395e-01
8.897111884693179040e-02 2.494785000428189486e-02 4.903884067685538306e-01
4.846325832810256806e-02 2.467305934710461307e-02 4.561641106442647642e-01
3.517844937374521586e-02 4.093452246014415291e-02 4.561056698597741321e-01
6.418884729637422404e-02 2.998792090014496675e-02 4.615856290306813992e-01
1.505733415508841988e-02 1.411627395833220042e-02 4.458848097948992506e-01
5.492069239722228297e-02 3.714184891189146326e-02 4.596817701040087911e-01
1.438435770146360634e-02 5.025312755807162524e-02 4.614172198260202418e-01
-1.325914099997055860e-02 1.591659044154888555e-02 4.450226156350635121e-01
1.472534700630603703e-02 3.412364063548597136e-03 4.424764934538044092e-01
-1.460648219718385134e-02 3.173146720012592209e-02 4.503080441052854654e-01
4.685058149030019159e-02 2.823893833709072501e-02 4.562474139486411562e-01
5.914940217868033985e-03 1.293531647867355791e-02 4.443852255480378877e-01
2.295952135160148067e-02 2.999579452342658256e-02 4.510969744867637243e-01
4.957108576844492659e-02 2.268343051176159933e-02 4.561023477873710763e-01
7.878175510366977607e-02 9.093807815897320818e-03 4.911875579985798268e-01
7.427952121347179693e-02 1.874518187945528949e-02 5.180962433558725655e-01
-9.437643761965368305e-03 7.828965895573589476e-03 4.422697165781836470e-01
6.512118700974103835e-02 1.422541414013775429e-02 4.626124643017471283e-01
3.152782635308774145e-02 3.033026648447082613e-02 4.527737481898987393e-01
5.666828351142985665e-02 3.151279506177260409e-02 4.598023198852290716e-01
5.773691943920105513e-02 1.387001843606532579e-02 4.583095520842647153e-01
8.371512264485922450e-02 1.888071196554258480e-02 4.972397335662593898e-01
-1.775197248271315892e-02 3.161284795420597760e-02 4.513941379459542325e-01
-2.808742782658739390e-03 -1.287805715883668474e-03 4.398542611838408556e-01
7.625225711444544308e-02 2.730901501062254350e-02 5.207787966100051458e-01
6.725337592858383895e-02 2.399343605665442067e-02 4.627010026468696413e-01
-1.130835375988550363e-02 2.119380488135271315e-02 4.463152076974366000e-01
6.988160748702788860e-02 7.688297918115627981e-03 5.100237599926966681e-01
5.134170141926741593e-02 4.399749881788506817e-02 4.601411247581826403e-01
7.012123011392294714e-02 3.778667961346337048e-03 5.022145900165907451e-01
4.424940263192999462e-02 5.343971538742809529e-02 4.656699818617267561e-01
3.500679547791861468e-02 1.093087975790549629e-02 4.491402394010173271e-01
7.706323204300012664e-02 1.572456572295522978e-02 5.105094399540408556e-01
-4.440698587087880261e-02 -5.343283636154941979e-05 4.435142377600537200e-01
-1.804796018297349230e-02 2.738372593595645235e-02 4.500020531453038930e-01
-6.113645970247365974e-04 3.200802062662706782e-02 4.489197252359439227e-01
3.184927859928744776e-02 1.474339147670554679e-03 4.453419035363900824e-01
1.036419048710561647e-01 3.759574385797633672e-02 4.799838487726700298e-01
-2.043230566358681527e-02 2.057457222966531385e-02 4.484929665043805302e-01
6.243195653695431807e-02 4.029141351608620664e-03 5.188561418687134275e-01
5.344369518704285976e-03 4.332325268150555991e-02 4.520616045252907056e-01
6.358773202596001983e-02 3.091226238839241483e-02 4.614993698904081842e-01
6.100416698858330405e-02 6.310833428185388255e-03 4.598225967905970046e-01
7.084563436089218180e-02 8.749217714232874338e-03 5.101415952883691096e-01
9.059961801577189056e-02 2.632341143484856830e-02 4.743796725546973736e-01
-1.587887649249868083e-02 8.711071179004546347e-03 4.428598499884009998e-01
3.533862334935589794e-02 5.448235917647788196e-02 4.632926164781991374e-01
7.323179176852250005e-02 6.195951314091124526e-03 4.738724067683363073e-01
5.697597549541023182e-02 4.981602516983936468e-02 4.650625017246907689e-01
7.807903433354503042e-02 1.207318396786575578e-02 5.025852205204639489e-01
9.049583309753220228e-02 4.181039169593785826e-02 4.707044442759793501e-01
9.149476892495293778e-02 4.742934198471981944e-02 4.750438744647641487e-01
6.528053105397665229e-03 1.818783832074790524e-02 4.457105166020560172e-01
1.217325768304505784e-02 2.930528625207533613e-02 4.492201061954059216e-01
4.780280952482374168e-02 5.126882164937707209e-02 4.624453602363802762e-01
6.911175032139849073e-02 4.745864039191786260e-02 4.658000183382305925e-01
-7.789358097370503720e-03 1.807536191872124304e-02 4.450252431513030960e-01
-3.668526651974674674e-02 -1.345021857841601203e-03 4.399328433985554287e-01
8.664701027929377908e-03 3.159089023637230015e-02 4.494059538407483290e-01
9.004145873802904543e-02 2.931248197517117779e-02 4.713553268464263923e-01
7.939534388370642071e-02 2.152875805757875280e-02 4.689009366179702765e-01
2.667692054654366776e-02 8.998944173103659919e-03 4.466072699235407728e-01
4.402026173031660383e-02 4.141130972318022435e-02 4.581182350598215769e-01
3.346174680948406366e-02 1.945463771072597492e-02 4.505196433247422028e-01
-2.940395098900345713e-02 6.049482025402182217e-03 4.462313539606927448e-01
5.242098049638686807e-02 1.622993608536784510e-02 4.562874587162569773e-01
-9.997740826217571541e-03 2.024231838539827452e-02 4.459042180361110219e-01
9.331496607304450019e-02 3.710655029940278238e-02 4.912429029597494279e-01
6.604608427555848371e-02 8.384541939380511441e-03 5.183400052273783309e-01
7.578746342309061745e-02 5.290868504562488799e-03 4.861251869758450583e-01
-2.208073910151731045e-02 1.100112310918810107e-04 4.402330968006302747e-01
7.351029782224795250e-02 1.613097609109550093e-02 5.165547451839227477e-01
-2.066777213460711457e-02 1.260894557037338555e-02 4.456683973718464364e-01
8.490252216875843194e-02 1.690221376836395506e-02 4.860839336385635034e-01
9.439299592931880978e-02 4.423149349222336296e-02 4.741123488855088497e-01
7.296857934736428186e-02 4.128307374290955331e-03 4.771482577792874324e-01
6.437917885881382085e-02 -6.164062746000506694e-03 4.699488727809119082e-01
8.562521032627247453e-02 5.084374259505999166e-02 4.880655953344014142e-01
-9.024519298818036231e-03 4.171164936037381754e-02 4.528656545173937453e-01
1.872899123367977384e-02 -8.242202550633832489e-04 4.418518220360599380e-01
6.146019869960192561e-02 3.399633265863552523e-02 4.610232135477260740e-01
1.727676746683569353e-02 2.126599129611446426e-02 4.478394247206849421e-01
7.879433721328266138e-02 2.326274468215146218e-02 4.675128218268488345e-01
7.408174267037272165e-02 1.073212760087021052e-02 5.079232999633371826e-01
7.580884655537922789e-02 2.615064710978574208e-02 4.652579207568593445e-01
5.667215361768840332e-02 -8.516235665806129451e-03 4.610121824147734304e-01
2.455653601941744195e-03 3.067448992194621131e-03 4.416176730529767225e-01
-4.078859682840786649e-02 -1.200820367783173286e-03 4.406410523288025738e-01
1.433513638399347423e-02 2.072658634931277485e-02 4.473028521394697421e-01
8.375681578231726487e-02 1.547839159241807747e-02 4.883551108690022957e-01
2.238721469388677346e-02 4.805742242554145865e-02 4.564828535681008659e-01
6.965060941472067668e-02 1.612144776044417693e-02 5.214975441534769329e-01
-1.083985398553761331e-02 3.078016952275853396e-02 4.492101347464204641e-01
6.625019862529435422e-02 4.002268107130892150e-02 4.624863083137162878e-01
5.966177318220487052e-02 -6.324160372857072152e-03 4.632106900326070642e-01
8.906980132716686704e-02 3.510601131001429148e-02 4.971863166072217899e-01
6.088655777739950675e-02 4.565701433589332281e-02 4.622229402489532180e-01
8.152852538699805612e-03 3.098646697580018095e-02 4.491784439039453458e-01
7.779590535887513647e-02 2.118371527804812499e-02 5.156029983965466634e-01
5.576133166154704363e-02 -1.581673539343410664e-03 4.573854734416444301e-01
4.348248532058172910e-02 4.991587299064538519e-02 4.599833781499860774e-01
5.846671000181804384e-02 5.755501949309618434e-03 4.581587053573611956e-01
5.037546327618967063e-03 1.124454256332707916e-02 4.438371398032638915e-01
4.756251828296672451e-02 1.872920218692091660e-02 4.546399626643771730e-01
9.136293281079096995e-02 3.209220249349164361e-02 4.706800676227950730e-01
8.284760470887703177e-02 1.793585593330901048e-02 4.998542479751413303e-01
1.018496669035337393e-01 3.768733223948127903e-02 4.814374070293472863e-01
-3.035421842521652397e-02 6.686760275015322941e-04 4.409124065166277195e-01
6.227256644558019222e-02 6.290993271902882086e-03 5.212214639047431097e-01
6.262756827718034269e-02 3.474654554998651834e-02 4.613149541439687806e-01
5.736260668943712199e-02 5.090488648464979587e-02 4.691452703223712439e-01
7.504218220419026086e-02 4.741629913355331280e-03 4.896783823209928110e-01
6.277500711498920638e-02 6.986519764059441646e-03 4.609677168807061465e-01
5.718304861322431182e-02 -1.445856669732790414e-03 4.583338708607433420e-01
9.061652531401452604e-02 4.886286324863457764e-02 4.761021178964805478e-01
8.164072863198464092e-02 1.745800717794124962e-02 4.743326745535046407e-01
3.838986837901309929e-02 4.097493030716722884e-02 4.567978012647609387e-01
4.955556211939572686e-02 -6.865034282224748673e-03 4.540795854823938549e-01
-2.401066598211797076e-02 9.501591564386409339e-03 4.450415407468888418e-01
6.641132254185352912e-02 1.460090254585057028e-02 5.240948968332356239e-01
7.314692863025953895e-02 9.446236661175269264e-03 5.070782196816240317e-01
6.544072431576065940e-02 -4.834569526509521027e-05 4.675012729879855500e-01
6.162914394579252497e-02 4.816927334891746987e-02 4.638652916304656926e-01
7.775709696903990165e-02 1.432685011411574151e-02 5.072050615138208318e-01
-1.029018210884012803e-02 3.204838833378509388e-02 4.494956749285272113e-01
6.452274255740010622e-02 4.351735446978363675e-02 4.625579515771144901e-01
8.636663467796011628e-02 3.117522930950140589e-02 5.031630248872855926e-01
7.154699820620426254e-02 3.442761161057100727e-03 4.980961937190533373e-01
6.347197369964406588e-02 7.714368358493939488e-03 5.211881690681061663e-01
2.793260827554411990e-02 4.568052351114129661e-02 4.561922227316810852e-01
6.411056411905378949e-02 -2.640456447533611525e-03 5.083571791494517766e-01
4.197664998075553711e-02 1.457421393216495539e-02 4.520177051222826203e-01
9.379931037108579783e-02 4.668957392458718964e-02 4.887037338053800695e-01
4.095803025615610965e-02 9.350767601771477547e-03 4.503852674338533757e-01
4.012271131634125021e-02 4.376746742394281575e-02 4.576008411170334189e-01
4.847504164805346155e-02 5.191490629130658674e-02 4.642278664714181713e-01
8.646211186217872546e-02 4.639548624915652841e-02 4.706282494370436220e-01
4.042576549165114407e-03 1.650412015354751558e-02 4.450281738835609180e-01
-4.544399406832285923e-03 1.601500951180142435e-02 4.443065918812775239e-01
3.513176580066341287e-02 3.445881800102432689e-03 4.470990863370940538e-01
6.468221750448843732e-02 1.579504709248607391e-02 4.625420650161731762e-01
6.984977602105257866e-02 3.269465877752690541e-02 4.633312278859356703e-01
5.252115189727558225e-02 4.873794364891454595e-02 4.617818377922957018e-01
7.411245928798483595e-02 3.657993864084387384e-03 4.840253012315489101e-01
-2.558851718217189722e-03 1.211164353846917209e-02 4.432771477368547264e-01
-2.183475362040748075e-02 2.364487490416389975e-03 4.407984869307797204e-01
7.546766581592845302e-02 3.747928348913703162e-02 4.654551255909788465e-01
9.317732501328448991e-02 2.991638223821281931e-02 4.737872619350874670e-01
9.404795021805582855e-02 3.208823238258130123e-02 4.723404974811975521e-01
7.745287184235058464e-02 7.530707266038170859e-03 4.905571331135957780e-01
3.863443362579616069e-02 1.787032477494150326e-02 4.516325648101661705e-01
7.741864858062658117e-02 1.463485541487738809e-02 4.719520454772977436e-01
9.512652905727964070e-02 4.215373506645691409e-02 4.731627027225393523e-01
1.995705886351769459e-02 4.420035088492015041e-02 4.543561754865402813e-01
8.576594141161880680e-02 2.311035410388136146e-02 4.727440568833831125e-01
7.429071130253495081e-02 7.317193724219479140e-03 5.012205525621561408e-01
6.760001591264583332e-02 -6.497683599907912166e-03 4.784718170437433638e-01
2.546152794370009492e-02 4.889963241423941898e-02 4.572773354812550983e-01
2.751487214889478117e-02 2.130640965791336279e-03 4.444707964973121372e-01
3.618891549915654454e-02 1.965377817007586680e-02 4.511558084089760667e-01
1.624862915790739951e-02 8.657157045369226131e-03 4.445894835889997454e-01
6.316631810506240230e-02 9.438385730980710514e-03 4.608067130077825313e-01
7.117461625622632793e-02 2.620639798897511641e-03 4.974421431351899181e-01
3.135311034071862346e-02 -2.698304579192836380e-03 4.438668783935211803e-01
9.441199952536981355e-02 4.138497001908358203e-02 4.908427217025224110e-01
6.528263301259996931e-02 5.116261677794833873e-02 4.699533941648858515e-01
7.222151970632738338e-02 1.096148566662886320e-02 5.114534068062073224e-01
6.319267850266742370e-02 3.612893513515270938e-02 4.615864554821693111e-01
2.249259315451628341e-02 4.501834645672679602e-02 4.550798600007318062e-01
4.645833653337027441e-02 1.832234551909589157e-02 4.541816980930853398e-01
2.411628079349974196e-02 4.645917782482850145e-02 4.559780699517008706e-01
-2.235516549881244944e-02 1.968432027067637188e-03 4.406751011601580115e-01
1.436732056918244016e-02 4.312711119896524975e-02 4.530262254862291171e-01
-8.449171431715779557e-03 1.816202068541178036e-02 4.451023703665681897e-01
-7.270362674903033465e-03 3.990996677403521598e-02 4.510438203084067288e-01
2.241776842688850135e-02 -1.162022948112918005e-03 4.424084028103789090e-01
3.844501066845893572e-02 1.044912093659615404e-02 4.498353160887494373e-01
7.343447885055148783e-02 6.956311731402131313e-03 5.018852676223020115e-01
3.737968468264088462e-02 4.854618133946854430e-02 4.583552852366795105e-01
1.140821554624191908e-02 -1.178768574480511516e-03 4.406964794068546909e-01
-4.203844841567509240e-03 1.262160473728198527e-02 4.433137069941124331e-01
7.024035210750638469e-02 4.257432682496555681e-02 4.638764181810555165e-01
6.886099282357753537e-02 -5.661856400567252812e-03 4.836063944174839313e-01
5.236017525954902996e-02 1.714226210926657334e-02 4.563170995646728678e-01
6.970479811455093655e-02 -1.446162609883369470e-03 4.933362131299623421e-01
5.254311512654343680e-02 4.526861373764563129e-02 4.605933057814260989e-01
9.084936798361971377e-02 3.749322075686425254e-02 4.943620713396553734e-01
7.408126619614154029e-02 1.300600591451187178e-02 5.113428574606880828e-01
6.537737896979864405e-02 3.837158235437557879e-02 4.622326597138066706e-01
1.063513614151032245e-02 4.919828941474425898e-02 4.604112351182526042e-01
1.064361994322906950e-02 4.831796726001704595e-02 4.565533756063846482e-01
9.172201147849907976e-02 3.425856197424882038e-02 4.707228594940734978e-01
-1.481194381282237640e-02 1.210926268971009544e-02 4.440331741237636409e-01
5.744301177993443863e-02 -4.745673791005020764e-03 5.197439482202976802e-01
2.540498715061019833e-02 3.513033215203923559e-02 4.531590284490104592e-01
3.476647827694130666e-02 1.915375301755529308e-02 4.507519002456176760e-01
7.736646062330297668e-02 4.849582031645528757e-02 4.686791881306835439e-01
8.767122001147437116e-02 2.581311054487525625e-02 4.956268862399313968e-01
5.205143151414638736e-02 5.195660969202911886e-03 4.547977631152900213e-01
8.260504192320815287e-02 3.906149792386595654e-02 4.678639091094980995e-01
6.262554122871266671e-02 2.506734287487392271e-02 4.611498342406306628e-01
-1.297106209160254174e-02 2.373701952169741253e-02 4.471556607904179081e-01
7.850349115456856097e-02 9.671794798758818687e-03 4.835371055644645533e-01
7.256756439220124477e-02 1.157174410332455390e-02 5.117870093461762693e-01
7.383337695820020585e-02 4.698499774145893301e-03 4.957149503461463769e-01
7.379836923347406208e-02 3.026419415690639880e-02 5.218058166361866368e-01
2.081259745089564933e-03 2.253831030648128370e-02 4.464217915960358996e-01
3.983048946877397467e-02 3.670664673461520450e-02 4.562330061659014557e-01
1.133345379751162646e-02 5.078902865071364958e-03 4.428025908848470804e-01
8.375048899818467174e-02 4.878878196605977713e-02 4.721258026807255703e-01
6.044809264750845151e-02 1.807142152382925498e-02 4.601933645848492738e-01
7.002147734756894448e-02 5.102784090543550227e-02 4.716050412882737408e-01
5.477064409791643912e-02 -6.423945722389639776e-03 4.581543887136326765e-01
1.783825765829147314e-02 2.690101556521782081e-02 4.491645435688592647e-01
7.976096149159465909e-02 2.327391153326787560e-02 4.679474761679562334e-01
2.049974872795993011e-02 2.416298573501070648e-02 4.489326515867297918e-01
9.068090444099138892e-02 3.167236108140052131e-02 4.928122687916078326e-01
7.427664150257638764e-02 5.752137541561596831e-03 4.973948645157753035e-01
-3.938087304170310304e-03 2.544720575764861017e-03 4.410739321416576875e-01
1.122846297048521631e-02 1.050864828572114704e-02 4.444765413082117367e-01
5.734750337479378041e-02 3.798316665683068930e-03 4.578355394548246360e-01
7.529804043539470304e-02 2.249626134046780329e-02 5.197296259307462307e-01
-9.315111149996682660e-03 1.437764434997612986e-02 4.439548462134706996e-01
6.701620342976485900e-02 4.901757700434055537e-02 4.658163301291344816e-01
1.100125100115168300e-02 3.651268775869209726e-02 4.508848009499910603e-01
7.517531284743289577e-02 4.968905284061949507e-02 4.690224552293822402e-01
7.424012742755378702e-02 3.240700396516998927e-02 5.178124877093801537e-01
7.902524325504986860e-03 3.463123315844256374e-03 4.420617141052702315e-01
6.124690146331575324e-02 4.232707275524162649e-02 4.615719972400151860e-01
6.827426267546329863e-02 8.726568409287272995e-03 5.145906032585411127e-01
4.172768343916707229e-02 1.939572225162221331e-02 4.527720258554596700e-01
8.655836971299875338e-02 5.064449641158155074e-02 4.745420832727471616e-01
6.311970083147150357e-02 1.813778832865875490e-02 4.615334449440346432e-01
6.193697641981778940e-02 7.199058712089084246e-03 4.602995753569809612e-01
9.329806348582699027e-02 4.853629439811563834e-02 4.814185751467413010e-01
4.017091775895597489e-02 -3.074147338298204284e-03 4.481661691009486415e-01
5.966757093143564700e-02 6.285674195240641138e-03 4.588661841353533499e-01
1.810611074479348548e-02 4.074354360356582938e-02 4.529421366680282390e-01
8.369442098050529355e-02 3.401397554699343850e-02 5.069871813842922181e-01
8.922709810514160844e-02 4.695750840765640366e-02 4.939927405062135568e-01
7.764872853598306368e-02 7.688653329480714567e-03 4.891862336591407678e-01
7.636541337404083307e-02 2.922975526704717220e-02 4.651096927739521436e-01
2.183614772801817372e-02 4.177761905775337348e-02 4.538188358548650436e-01
9.631707609746649468e-02 4.418635572701928166e-02 4.787482735833064051e-01
9.862581947404754079e-02 3.107389606813001220e-02 4.822044002619547132e-01
6.960831376946796656e-02 -4.923651514459019031e-03 4.859532979180594681e-01
1.747168583953966070e-02 2.769131018211159340e-05 4.418762386226486871e-01
4.834779614342630399e-02 -5.028578474032677388e-03 5.278384424478268500e-01
5.169416531311236962e-02 -6.464114134424206980e-03 4.554617027132825124e-01
-5.830405863582145340e-03 1.163921830998508340e-03 4.405044943086030007e-01
3.417513940019498153e-02 3.895370019736695000e-02 4.554692346354597965e-01
-3.712067921788039446e-03 3.251659115545045380e-03 4.413236661893167878e-01
5.578913871120196044e-02 -1.151586411425504532e-02 5.236972614016665029e-01
1.537923899773689825e-02 1.591750639453112445e-02 4.463762506493358928e-01
6.162429529191180283e-02 2.423599231047706554e-02 4.607932314211138913e-01
7.682296084706558004e-02 6.814402089975115685e-03 4.895232386550883996e-01
8.070505311531391002e-02 3.806188278533802899e-02 4.673464184236593155e-01
6.581834115243416494e-02 4.689388520837813046e-02 4.644644323706654254e-01
9.796251382232210037e-02 3.864103254119542058e-02 4.857264795232321686e-01
6.812597196457707838e-02 1.155300781714631297e-02 5.188066250043792405e-01
6.279395294964823515e-02 -3.622221903074361940e-03 5.106001259723124130e-01
5.161574593983823955e-02 5.319291054259473080e-03 4.546071756491992244e-01
8.513151517061380569e-02 2.625182691650498543e-02 5.037422473719703753e-01
8.053449050256838992e-02 4.027649165030293410e-02 4.669959859191391560e-01
6.378659317509173532e-02 -1.083547407804315299e-04 5.106066518394042353e-01
2.772238843870379610e-02 1.305534940145999453e-02 4.478242533619734012e-01
7.136570758641783141e-02 5.267937991192926661e-04 4.791960999516521325e-01
6.469104177481924123e-02 1.850473770908191845e-02 4.621521035321424775e-01
3.834076426694123241e-02 8.462958175487401979e-03 4.492978985058485586e-01
1.161963597916684625e-02 3.671074283815869976e-02 4.510256171724364993e-01
7.986503113237007623e-02 3.160172340676390551e-02 4.667690622948433288e-01
6.525885164174921593e-02 4.523181388289579385e-02 4.633713892255109656e-01
8.044146050094128086e-02 1.534049581981618456e-02 4.752827040840019168e-01
8.070974961555443805e-02 2.122702052979173401e-02 5.106449895085645174e-01
5.167179918367785507e-02 1.626412588372862927e-02 4.559573636884279302e-01
8.199364034076070396e-02 1.352689728595531798e-02 4.840472038580490022e-01
3.153030384006387521e-02 3.908394813330380579e-02 4.550236162634570536e-01
6.871076873576942301e-02 4.595088298647034830e-03 4.680594750040548147e-01
5.333581658717130580e-02 -6.262678545952574637e-03 4.568554516953688416e-01
7.619407183740503631e-02 8.181606038218255939e-03 4.991967226888758269e-01
7.907413740872974717e-02 3.148372475571501600e-02 5.140608103329697975e-01
7.449381091646489761e-02 2.746100315255177796e-02 5.231654701625574333e-01
2.997838437308647519e-02 2.288036153042656562e-02 4.505459519319963690e-01
5.292051513461346057e-02 -1.395084561473739632e-02 5.271247087300873213e-01
8.754794084190976877e-02 4.872342683462455720e-02 4.907596053422405014e-01
1.258004501974692435e-02 5.537184485836316172e-03 4.430286612628157039e-01
-3.777290670156991520e-03 -1.426057448948842184e-03 4.397517089329013862e-01
7.028960680185982954e-03 3.486996232850111954e-02 4.500568840084468447e-01
-1.882636874859812057e-02 2.519292132583650715e-02 4.495194063656054451e-01
6.601587465988710546e-02 4.403997830151048370e-02 4.630036281682897714e-01
1.106600673221824413e-02 4.385445996106227678e-02 4.528065231422084835e-01
-6.192505429985655646e-03 1.059104500744918916e-02 4.427934455296659855e-01
5.416746924015687636e-02 1.077184412425627111e-02 4.563959212029955470e-01
9.346613976020029524e-02 3.443381153817535317e-02 4.711749489691212101e-01
1.643432530647471329e-02 1.115582286221593333e-02 4.453444449617223744e-01
7.352038943737274068e-02 6.466836729603690076e-03 4.740744728413497366e-01
1.373714028327971057e-02 4.980321696650005792e-02 4.605310745307895082e-01
8.174417030140225526e-02 5.065826981309552030e-02 4.859293602653165234e-01
1.065457943013805621e-03 3.394449255064311416e-02 4.494138574876433978e-01
9.227978594519510580e-02 4.955809619508801112e-02 4.851444372717488851e-01
-1.609912464587702312e-03 8.959767812670597908e-03 4.427325056742089648e-01
5.498970212195269762e-03 4.138191328152067416e-02 4.513724791686047344e-01
5.714765919318746251e-02 1.250875599396899119e-03 4.580660837211474878e-01
-1.060331472269122194e-02 1.388866195738361342e-02 4.438520931297190164e-01
8.624510164213385066e-02 1.904706932767680216e-02 4.843550151024218486e-01
6.919525944944718288e-02 1.155991369567913388e-02 5.172363906142748435e-01
-2.075491502005508485e-02 1.247131911012159915e-02 4.456157067023150953e-01
4.724868845568405001e-02 3.724070152619537305e-02 4.580117206618790626e-01
6.954249135663675974e-02 -5.117418500289444734e-03 4.864154337183203558e-01
3.806855318716864667e-02 3.862377082287325736e-02 4.562911916174252625e-01
-2.745641959456968095e-02 -8.396166286637942594e-04 4.399230578821469173e-01
3.851065971073160121e-02 2.617889506922457463e-02 4.531934423139478696e-01
6.446358639578386729e-02 5.371297440280821921e-03 4.626521641574199983e-01
4.987140760912772003e-02 1.776596955342367792e-02 4.554322268391248762e-01
6.960674638290009764e-02 1.795947693132492196e-02 5.232220083608702943e-01
3.946669059703657167e-02 5.358658790369311836e-02 4.625462602719576100e-01
3.142395333059314760e-02 5.550821436252765303e-04 4.448698369055957280e-01
7.428586387849661632e-02 5.846686099113791203e-03 4.776718583466015855e-01
1.115683192955153197e-02 2.572348381792410182e-02 4.479930598544653031e-01
8.501568668038127219e-02 1.699708102692720768e-02 4.854045062401425858e-01
2.316144760283208454e-02 7.112764767868058786e-03 4.453149403364285441e-01
3.140779781802751497e-02 1.331422476475912012e-02 4.486383857821560905e-01
3.628520680956465183e-02 5.175358858108572435e-02 4.596033151515758197e-01
3.547802435330841414e-02 3.796270833691624963e-02 4.555637173369559423e-01
4.360761229559181190e-02 -5.513235813174315221e-03 4.498623106035178898e-01
7.559692951491346624e-02 3.228206627103504672e-02 4.658678714809620924e-01
9.013245773681378969e-02 2.638253786634983666e-02 4.871460666923914662e-01
2.564138341139493918e-02 -2.036616681338020932e-03 4.426966122818260518e-01
9.120938091329081066e-02 4.733771184074591493e-02 4.745503535311868526e-01
7.292397478433203240e-02 1.470708672464187891e-03 4.884369583323478481e-01
-7.796522196901856105e-03 3.274669896198251218e-02 4.494092524944456879e-01
7.028408396225005461e-02 1.853070450553954973e-02 4.650091376350187211e-01
2.693880120366894809e-02 3.617697487285199964e-02 4.537329120895294277e-01
-1.502384995115583956e-03 2.643312824401877412e-02 4.476290394633379854e-01
7.115915106768672116e-02 6.243430176139726402e-03 5.046409321563046779e-01
4.433380574881408409e-02 1.588460549305497141e-02 4.531470909900578437e-01
7.341845077639633232e-02 2.987571097503942744e-02 5.229743660281742645e-01
6.975209880389571238e-02 1.018235117894412262e-02 5.143741008920389435e-01
9.169920658494611077e-02 3.115709928075693566e-02 4.906893313065179840e-01
8.550222960157416452e-02 1.854412084209483558e-02 4.882048429574520898e-01
-4.361088758480118760e-02 8.787221028746835649e-04 4.429767407680639812e-01
9.109292941564745005e-02 4.695586528148388422e-02 4.917190831085533342e-01
-1.708173678550616199e-03 3.559801018629728253e-02 4.496548326398447371e-01
4.599906782320054011e-02 3.137850505200184825e-02 4.565730640026872678e-01
1.434806209791097964e-05 1.473609204509265802e-02 4.441336564240544460e-01
5.026721818990612795e-02 5.170491038121558663e-02 4.658878889888698471e-01
2.228242953428769338e-02 2.256187638178897698e-02 4.488844514072822811e-01
6.358032688033504742e-02 9.408376642525277970e-04 5.121034780845578060e-01
2.834109991933624409e-02 2.279467178120994295e-02 4.501742696268165034e-01
8.643473060355849613e-02 5.140987977236227691e-02 4.856986323680109741e-01
5.243068886957966829e-02 2.199317631397078310e-02 4.570043110075378001e-01
6.602352022365977346e-02 9.719472238553331436e-03 5.199253949848247069e-01
6.863158579295070005e-02 6.170379212985000437e-03 5.096894846007221647e-01
1.042641526580844052e-01 3.256865055229799660e-02 4.802136656503945833e-01
5.726150078135287813e-02 1.734126234766237597e-03 4.580859795191203898e-01
8.147232072516133461e-02 4.327015125650225669e-02 5.031571543364444787e-01
-3.272878413113323309e-02 4.907423829431475926e-03 4.471283962108543730e-01
8.748072964416575559e-02 2.134750433369488748e-02 4.864101741029575043e-01
6.773254742428519437e-02 1.229373671314529931e-02 5.201883605362574992e-01
8.871259285831139402e-04 3.338637658819283011e-02 4.492790860074211690e-01
1.486287227795093230e-02 3.151385844762627508e-02 4.501716420964332888e-01
7.882056463721015538e-02 1.281138591171546680e-02 5.021506082431278495e-01
3.665449106350908426e-02 2.613335539990315273e-02 4.526113165053649023e-01
9.303587096676156631e-02 4.602842803478943146e-02 4.748725353549921313e-01
-2.998270714221127481e-02 5.567962360977859668e-03 4.450732741580056828e-01
-1.118554122717455197e-02 1.746406435831595813e-02 4.450724897338900199e-01
6.315391052215543755e-02 8.905266352466981172e-03 4.607974663227100698e-01
7.800821327006726702e-02 5.104763826763847323e-02 4.734538502632100188e-01
9.063439186305061179e-02 2.529754028724397197e-02 4.781273992824585095e-01
8.895025159234458412e-02 5.027227031942560487e-02 4.761281342232388525e-01
7.514196508816829712e-02 7.700055358323170535e-03 4.762091321916703812e-01
9.708921549057721034e-02 2.910724729217590775e-02 4.802946966497268488e-01
8.835615676718218403e-02 4.951103894024277974e-02 4.882954655668736987e-01
4.075310175665135259e-02 1.284514130403707245e-02 4.511947602352647246e-01
-6.849623219634802529e-03 4.237929736746895437e-02 4.521408808146786251e-01
3.643430873541957105e-02 1.908859804595425258e-02 4.511369070423676964e-01
7.057055965401054509e-02 4.620323644795827807e-03 5.026096585025698893e-01
5.415135599484426771e-02 1.199861201265035870e-02 4.565816059054664255e-01
4.865791714546913171e-02 8.181916260837404642e-03 4.534495667578786748e-01
9.758168645890467202e-03 2.705570993809021038e-02 4.482248727688827872e-01
5.693579382372607883e-02 -4.848543673678474414e-03 5.204113041437520293e-01
4.819410353622740478e-02 1.471952177758894392e-02 4.544462412914749283e-01
-1.086492085075637173e-02 1.817332769394618130e-02 4.452835455504784434e-01
2.911015925670681209e-02 3.185229070507335919e-02 4.529267515637015462e-01
-4.518923520019911891e-03 7.663847138409833615e-03 4.423191378027708787e-01
-2.275832785045284884e-02 1.227446689798279179e-02 4.460575300727752657e-01
3.151260249547092190e-02 9.138497548888832589e-03 4.477430318877188009e-01
-2.079186600220945397e-02 9.668906249619059479e-03 4.441949324584002490e-01
8.380878498590392522e-02 2.036155073127999399e-02 5.014360334996776913e-01
4.077886819220485209e-02 2.600280563302836620e-02 4.538478616046616732e-01
2.952965833227574888e-02 1.195700397087502004e-02 4.479233836640770239e-01
5.355810817585936884e-02 5.118171035485442888e-02 4.687835653161741001e-01
2.312429318674218831e-02 4.265408658607554304e-02 4.542276857814321334e-01
4.553024379591861376e-02 5.049756069866388752e-02 4.610924561670989852e-01
5.505419033498502868e-02 4.017214103895112853e-03 4.565747744990050760e-01
1.214323208632722868e-02 3.058789871632251051e-02 4.495627354916019724e-01
1.832686002449405993e-02 2.010545573249868448e-02 4.477386152094355865e-01
6.886523779723853489e-02 -5.529816060934171669e-03 4.832751398868949666e-01
-2.549223217274475088e-03 7.141781831268180850e-03 4.423913380406369611e-01
5.887791006547247324e-02 2.271666231717111954e-03 4.591964133672323256e-01
8.226310024925749531e-02 1.312134057513546920e-02 4.868524190762394399e-01
3.135501353938861119e-02 3.264069280901207848e-02 4.535652803084372908e-01
7.141139941375831968e-02 1.249009437025403856e-03 4.777031282757516206e-01
8.474942128902321348e-02 1.733049992040655574e-02 4.825802421425141042e-01
-1.232339829426117549e-02 2.543336034744611909e-02 4.474775428336507099e-01
5.270123627932093990e-02 -3.145827737063451417e-03 4.555250887609564869e-01
3.264434583286542069e-02 4.561581219645470531e-02 4.567724467739376348e-01
7.316655365230799457e-02 4.766550107219378468e-02 4.670427766223858579e-01
1.458492029096776022e-03 9.443324892565259018e-03 4.430836386847818442e-01
8.737393515328689686e-02 3.563860990832269648e-02 5.014441331815395753e-01
7.485277383555678787e-02 7.500036632053582938e-03 4.756799745653386702e-01
9.807976209241001109e-02 4.062552148894388315e-02 4.745241930043566092e-01
8.840065922453568814e-02 4.322982253589831292e-02 4.988569503621234635e-01
5.911567469027839694e-02 2.310959953518965798e-02 4.596539310694535141e-01
7.704313602495097002e-02 2.422637183276946451e-02 4.662494405995698532e-01
3.275034391296474667e-02 3.280490406880725435e-02 4.538633929035013059e-01
7.336657139149029005e-02 8.523771912660108377e-03 5.049645072255883882e-01
6.983626429252251522e-02 2.887888997548846391e-05 4.958508137133721960e-01
3.489673846929607082e-02 3.421325506835509039e-02 4.547941158055992528e-01
7.163102710014611352e-02 4.408935959161641716e-02 4.648944722671687901e-01
8.715402082089135360e-02 3.343939157533797057e-02 5.016792938418891401e-01
8.949029552762152728e-02 2.546447526446712212e-02 4.740632107803196549e-01
6.793755054582457931e-02 1.210843964869756650e-02 4.645026405115523227e-01
5.713119594906584248e-02 1.018519511650840988e-02 4.576078714601790054e-01
7.941427105415889420e-02 2.032106400850726066e-02 5.118120616132816325e-01
4.325391444080996933e-02 4.233136294150632861e-02 4.580814786395557836e-01
-1.415246090961570433e-02 3.270239141449887699e-02 4.504422373039677074e-01
7.051726737822550106e-02 3.990398090254455160e-02 4.633702951805517833e-01
-1.587020212707361891e-03 1.374668425352372665e-02 4.437050936914332389e-01
6.592184342774790040e-02 -5.502433832924314740e-03 5.018531423991247076e-01
2.800143692736899864e-02 4.766987722308495962e-02 4.569531972230600481e-01
-1.666496673960996336e-02 6.554108644828139998e-03 4.421525871735296764e-01
1.961950223119202780e-02 -2.857455258216869392e-03 4.414130490570151166e-01
7.072086751285425188e-02 1.281537563035936925e-02 5.163547428696008135e-01
8.224991374695594937e-02 2.177254942478418914e-02 4.708580458934531476e-01
3.252204683807355216e-03 3.585022006799065686e-02 4.499071578833614415e-01
-4.462815322890639064e-02 6.890146210043169260e-04 4.451416749254646921e-01
8.684688341292161329e-02 2.006080393432243744e-02 4.795871853091690507e-01
6.996998852874189434e-02 2.068632922944547547e-03 4.994686278394480650e-01
5.489339614785247734e-02 2.231131933120906671e-02 4.579895300161754834e-01
8.317579956140379316e-02 3.660776876810335062e-02 5.067274976659569274e-01
6.272188931874102258e-02 3.092371304046985948e-03 4.620221108977928814e-01
4.904427533412804296e-02 -8.217966013876719378e-04 4.529717353733471175e-01
3.377727646925420685e-02 5.140432350331238659e-02 4.590875722719069962e-01
1.611736178630610375e-02 4.051953044560913791e-02 4.526006373746743749e-01
7.479390930670729021e-02 1.916653591695726896e-02 5.177968322580462912e-01
7.256624136777913014e-02 2.273014239371801137e-02 4.649351195285702509e-01
2.413714699495248146e-03 1.037578493506743048e-02 4.433955611248362461e-01
2.789672615709763714e-02 4.498528074249882880e-02 4.559177060586299124e-01
8.794221021432462038e-02 3.456487383307899064e-02 4.699141514596775204e-01
1.836895521116791927e-02 1.120536423546342891e-02 4.456216909191427766e-01
6.229241279213987986e-02 2.202731821435719925e-02 4.610544330821306214e-01
1.311114804571677714e-02 3.320320823156643064e-02 4.504484904871532969e-01
8.325409341368222860e-02 2.034728364536854406e-02 4.729370080789856989e-01
-2.238862168647551970e-02 2.220697926958152373e-03 4.407849871133720510e-01
3.394238230233233983e-02 1.524547537551899923e-05 4.457397358076314320e-01
7.723949306603219989e-02 2.505833686656418896e-02 5.186045378950789875e-01
8.910239361150143478e-02 5.002060243636800851e-02 4.872463576288730835e-01
5.634277801482248660e-02 2.001015017236477261e-02 4.583043520202160215e-01
7.603643479520419413e-02 2.134194990339324111e-02 5.180427047063753676e-01
7.157101782414675151e-02 1.536396835442570448e-02 4.662552809130602882e-01
7.484496971831287870e-02 4.319030774840383440e-03 4.881704448451775202e-01
5.194157715655697838e-02 3.395808708809455040e-02 4.585669908912575754e-01
8.866930164782062251e-02 3.699554349620853139e-02 4.987261107643668478e-01
8.999676392083881538e-02 3.039607691132906880e-02 4.933836465096281820e-01
4.237660013845256229e-02 5.011811867112185570e-02 4.598803258674810102e-01
-8.057855449768062256e-03 1.719526081370459022e-02 4.447538504127555581e-01
9.466143486032617405e-02 4.662647283980294460e-02 4.786242538360521159e-01
1.217211082438128880e-02 4.922878963728161139e-02 4.597543737268385833e-01
3.545638850582934209e-02 1.758974529824143540e-02 4.506588492290490300e-01
5.537082227892158731e-02 2.039965415904926305e-02 4.578663475034961405e-01
6.969365441436466135e-02 4.629257018851593020e-02 4.654500997554514297e-01
5.254097683911881922e-02 7.618051902161803411e-03 4.552477536430360461e-01
2.599155562086427965e-02 4.179427284242452634e-02 4.545862189245025164e-01
-2.635584137806795332e-05 2.240460162699472318e-02 4.463682705527914907e-01
6.033995247205677093e-02 4.676820831899843739e-02 4.626750300304767194e-01
