4.124303278243992427e-02 8.724390272318721662e-03 4.506585375923590209e-01
8.499458743668129868e-02 3.621621911873783295e-02 5.043577986886337294e-01
2.146682478137957630e-03 4.795447350130780696e-03 4.422644775445816467e-01
9.327661067833478703e-02 4.818020038788271148e-02 4.800635080813976385e-01
8.088349729098850971e-02 1.424776576911433376e-02 4.818205603671713022e-01
6.694532222519376796e-02 2.554635090424046268e-02 4.632863275325981856e-01
2.200420463138177268e-02 3.487987126326265105e-03 4.440273738524690428e-01
5.632969025791134676e-02 4.640912518005013698e-02 4.621892402836096370e-01
4.827621237212748051e-02 2.939235329785942763e-02 4.575662898797525080e-01
-3.070672679892911747e-02 5.532281216373045353e-03 4.465903358817099322e-01
6.705391049345715837e-02 -5.586268501500661447e-03 4.975612031627343890e-01
8.052656428410864820e-02 3.059226639627390248e-02 5.130936214356494052e-01
8.087133928031202054e-03 -3.423029110301029770e-04 4.409465911426659335e-01
7.011102717584950794e-02 1.154547726603314013e-02 5.152911354921787535e-01
4.051979921628517251e-02 5.371212965881757596e-03 4.497253164511398893e-01
7.439346598467046212e-02 1.151594556985766418e-02 5.077526370052017901e-01
8.530512204525396436e-02 2.424883426852102522e-02 4.976505428217343208e-01
8.548612560658863657e-02 2.211187337479622941e-02 4.932017308903893227e-01
-1.903179070766883654e-02 1.670001966680017408e-02 4.469567981629612441e-01
9.607134654298236931e-02 4.027839763706445725e-02 4.882128955967756645e-01
4.253045721022194470e-02 3.204979174662614394e-02 4.563925179014442501e-01
-3.084392660941172315e-02 4.934691857143931951e-03 4.436100261979393777e-01
6.213516881591427815e-02 1.836197003621313842e-02 4.618259144106754976e-01
7.681692707677678644e-02 1.011915753839660176e-02 4.796615319824549806e-01
5.205980498657541977e-02 1.222358644729495264e-02 4.561948206724613097e-01
7.955721089715374339e-02 2.987237121614253962e-02 4.673530443245499377e-01
2.083241870775527291e-02 3.514640888300345906e-02 4.526500814687444696e-01
7.443777293782383175e-02 5.885110228940732512e-03 4.957196316982223627e-01
8.293044579873812272e-02 2.070385154223387467e-02 4.741722263123007153e-01
7.817145358290977786e-02 5.198595072886787877e-02 4.751939241383887902e-01
5.758904342130732879e-02 -6.147325807510616025e-03 4.613096756696130063e-01
6.504656451545064166e-02 -2.758386067679420486e-03 5.053498001044762766e-01
7.380452547698510002e-02 4.200050779391902890e-03 4.903245406286978469e-01
6.410683324359663093e-02 4.985862237450141426e-02 4.665374722097341276e-01
2.085294095939666664e-02 5.449559098526883354e-03 4.444921418644000033e-01
7.313257990882547632e-02 4.933159034607624387e-03 4.963149881164621857e-01
9.795073021099984234e-02 3.514656210572079248e-02 4.773502236914097252e-01
8.224334728572725572e-02 4.465354815786154452e-02 5.027528128386518080e-01
7.650827287235151264e-02 7.079866153397175801e-03 4.871032501449842900e-01
5.624103541565288883e-02 -8.225495341978699901e-03 4.609372007035137941e-01
8.786866022615293093e-02 3.749580729376379012e-02 4.994109789321954374e-01
-3.308921450158658004e-03 2.940656605374740093e-02 4.486129747577424220e-01
-7.811674963485700299e-04 -2.177893666489254167e-03 4.397621701190372878e-01
8.502162134753173117e-02 1.926242472966025604e-02 4.884614255524822313e-01
8.517458362381895298e-02 4.967599669010974717e-02 4.736097189498248983e-01
4.075620689215506826e-02 1.979243152658928528e-02 4.529878496554968215e-01
5.017442865914102657e-02 3.496412902503330533e-02 4.589561248860465903e-01
8.355692552893324854e-02 1.740349953319946658e-02 4.824871372241236189e-01
6.842766192680030390e-02 -4.158942371074779085e-03 4.795162884071388354e-01
6.657263535627569451e-02 6.266810038063562981e-03 4.649530810954052296e-01
5.598667499097854938e-02 6.257748072959159157e-03 4.573082594885675145e-01
6.464947588745710572e-02 2.638326967462136657e-02 4.624681900449279515e-01
-4.757236580435822426e-02 -2.811984079103208804e-03 4.444944687799285421e-01
6.931773124933476860e-02 2.942673746799073786e-03 4.720996162263871310e-01
-3.188533571583501008e-02 -7.214567528486945033e-04 4.402198710411473481e-01
3.339454759079851093e-02 5.179555271621696932e-02 4.597557795239561873e-01
-8.729853110400632304e-03 3.319863340894585457e-02 4.498413421401291634e-01
7.325433024409352956e-02 2.338071576316758451e-02 5.225444876048233045e-01
1.728773150144443174e-02 1.342725739000956474e-03 4.423998367093111006e-01
8.934640831657222892e-02 3.188968058197182848e-02 4.943483295638411157e-01
1.130139917500835997e-03 1.670707374272965839e-02 4.449101035817774608e-01
8.520794726281949449e-02 3.789640735942002153e-02 5.037965766239723697e-01
4.493319680304322383e-03 3.925891396076756912e-02 4.511614000246498279e-01
7.700619220348349503e-02 8.082734686687853554e-03 4.938619102198197885e-01
8.226966102492661026e-02 2.642414811748388867e-02 5.089225066749162307e-01
2.079965185810532524e-02 3.848348995716254807e-03 4.439186018291538804e-01
3.119810440058577022e-03 1.964162727162775332e-02 4.458312065948960567e-01
1.807103568554484230e-02 5.369664565599960651e-03 4.439237982776977898e-01
-1.313345562945287051e-02 9.188738117807869477e-03 4.427379558723971709e-01
-4.727087122445287198e-02 -2.418028872820983475e-03 4.429280340747301370e-01
6.641239961993124219e-02 1.091388393473374276e-02 5.202857344392070038e-01
8.389058107419944399e-02 5.143797386869726485e-02 4.897598763643377096e-01
7.575936218009636514e-03 4.885959073388825014e-02 4.602377687038310961e-01
7.462987561341556664e-02 6.486628919062402930e-03 4.804576515397835368e-01
7.221751449938508538e-02 7.548163522242565260e-03 5.040337573621529454e-01
2.566039462055761874e-02 -3.432328481475584343e-03 4.425618843289390036e-01
6.832223495174916117e-02 6.171674091137202209e-03 4.674155744090546794e-01
7.330083497154017691e-02 3.109490997708217602e-02 5.214025745199643014e-01
8.187932159919716901e-02 2.524780348138693647e-02 4.696431886668475109e-01
6.563579057905839786e-02 -1.633986639230797016e-03 5.044409476571939388e-01
9.126750506849699851e-02 4.239048243205278260e-02 4.943673728371255627e-01
4.222708596424562533e-02 1.880771874768302071e-02 4.532699374256060065e-01
6.581245146576045202e-02 6.693293439630100886e-03 5.150238771101329771e-01
8.805038660901831626e-02 2.942359730433760992e-02 4.719003639443026810e-01
7.610143536010141596e-02 9.073738723524939209e-03 4.999876410882131972e-01
3.298513978036604621e-02 4.787063771818447083e-02 4.580838070254639183e-01
7.428994231900427903e-02 1.370452066265428689e-02 5.112812723460308240e-01
7.985598314630965033e-02 1.212892880728475183e-02 4.926184188887721693e-01
6.457272010462864094e-03 4.240040128953218024e-02 4.522140525841666370e-01
9.367409606840129688e-02 4.206899474236930336e-02 4.915675274559714869e-01
7.874597968699467709e-02 2.864164055207534670e-02 5.164044840079081711e-01
2.435579066631137976e-02 5.055597610104542450e-02 4.583594848722158388e-01
5.681001940883980555e-02 3.415370351020383111e-02 4.605908553355779755e-01
1.857986217619770133e-02 2.015232548405448618e-02 4.480700918164741697e-01
5.611153700188603946e-03 4.219530772433904842e-02 4.520446922672811119e-01
6.920105933353497274e-02 2.517096501594000280e-02 4.640915839034863710e-01
9.414505728822955555e-02 4.306863445663300372e-02 4.904682098537189727e-01
3.537909615340092268e-02 3.003565086984798932e-02 4.537459898604314645e-01
-1.429469343024288019e-02 2.223989415016661836e-02 4.471851899085559356e-01
6.843094160401168302e-02 -5.772998295450658401e-03 4.893189693243147342e-01
6.468778929213474249e-02 2.535579372582320856e-02 4.625938284471028394e-01
7.027856891707713605e-02 5.358311768628416273e-03 4.712609396684794283e-01
8.909324549655536774e-02 5.388672978320713930e-02 4.838673235377426995e-01
2.742566762165024249e-02 2.815236564980412928e-02 4.516892371351368118e-01
4.463174707875437741e-02 4.779214523186162134e-02 4.600314500159523035e-01
8.371352367468676281e-02 2.168249612071414603e-02 5.003238816434313341e-01
1.769175658068267848e-03 4.008251726993551645e-02 4.510579078814079823e-01
1.735627883252187365e-02 2.705725410234387576e-02 4.494570365907838427e-01
5.499026016147654655e-02 1.333066318755008091e-02 4.575742419639147740e-01
3.813771706985186888e-02 3.279310473916883378e-02 4.554044932584407901e-01
4.580940082597069474e-02 5.374383025239700545e-02 4.682815416339433656e-01
7.207860794959592907e-03 1.210516558373746047e-02 4.445346927059045106e-01
3.296555364242396979e-02 1.592515615733783307e-02 4.499486931768941766e-01
4.308434143425429741e-02 6.082145852371850792e-03 4.509047076402807885e-01
6.934840081616221175e-02 -4.429253831041857908e-03 4.870073773030637043e-01
-2.460151659101661448e-02 1.228797061727428773e-02 4.469720583653796209e-01
8.432780021720887031e-02 2.581881169383709249e-02 4.713409072110728570e-01
3.993431927824324726e-03 4.157089782466946021e-02 4.516489066874776470e-01
2.884970270167477521e-03 1.763701428333896981e-02 4.453462401374059798e-01
7.763978002801100176e-02 1.223521653877092906e-02 4.772494748810513499e-01
6.919975003566583571e-02 3.520283452712738570e-02 4.645037971905610075e-01
-2.028266117627518239e-02 7.751431440359864491e-03 4.430962555534310177e-01
5.421529748780658936e-02 3.948546113864201401e-02 4.605856666305651603e-01
5.629944209552251860e-02 5.191419373584375829e-02 4.707809813497007001e-01
7.230038029618705842e-02 8.975116081745591196e-03 5.067898944355815338e-01
8.389291351268268748e-02 5.139620363230754108e-02 4.898107662476968716e-01
4.909688080777824259e-02 -1.289187621414026111e-02 5.304456620645068288e-01
5.623897058935493909e-02 4.977059422534507033e-02 4.641645072715175901e-01
6.473714083461183655e-02 9.617443246274335819e-03 5.213160931918873198e-01
7.661392577670224358e-02 8.892913228530887476e-03 4.819987919739341375e-01
4.644677936257463058e-02 1.136631487476813876e-02 4.535654339102589971e-01
5.238306971537649848e-02 -6.142780990993911526e-03 4.564488488836310198e-01
8.173310153624510632e-02 2.287838841953544061e-02 4.713890169236432115e-01
2.889559847674228604e-02 -3.728231915887932589e-03 4.431734679474824135e-01
7.883840789638558999e-02 1.036505789382072273e-02 4.909278162120185307e-01
6.751449736170693494e-02 3.063705595878787880e-02 4.631361219593695400e-01
1.081022064946061609e-03 3.204124766101257293e-02 4.492763332923663255e-01
5.921048168207668910e-02 5.337444398037897997e-03 4.594128919197094651e-01
7.940718348473489729e-02 2.627702683284958984e-02 5.143706698772455566e-01
-2.370870492994102061e-02 -5.305996340786729021e-04 4.400634954903494545e-01
1.509557591515850623e-02 3.470839472059297076e-02 4.515670282050381901e-01
7.386019118523330651e-02 1.451270256018053623e-02 5.132286340414355941e-01
6.443743266008453152e-02 1.066064444335781741e-03 4.664103625383856921e-01
4.790521251515268697e-02 2.023475218122286132e-02 4.554691851549266257e-01
7.958087014351056254e-02 1.849306556881672586e-02 5.082250480762225964e-01
1.309783410721026761e-02 2.415191234542898510e-02 4.481333537125826716e-01
3.102771044083627028e-02 1.103180579969626190e-03 4.451293703712147498e-01
6.198501090550016801e-02 4.513044379205987527e-02 4.631135672696661265e-01
-2.640154537610980498e-02 2.676596185754815446e-03 4.413859126611226480e-01
3.160392974375966779e-02 4.412955067717411889e-02 4.567446195107229823e-01
-1.610307973652444491e-02 1.358410777481332786e-02 4.449936278670173495e-01
2.800965804607857129e-02 3.312945452661224949e-02 4.535528370010822874e-01
2.029592006308499064e-02 1.296989047905908882e-02 4.465676362250318165e-01
7.345498127427874113e-02 9.449866634324427528e-03 5.056893010036006553e-01
6.102351788057586851e-02 -6.327403697119680231e-03 4.659439715494738121e-01
9.863616466653668535e-02 4.190884922219123565e-02 4.811824649712318491e-01
7.588249812031459818e-02 3.326293665321829185e-02 5.160603100570796409e-01
5.923627539822030191e-02 4.766451699695180982e-02 4.634964075710815701e-01
-2.209174430109611675e-02 1.745037914549128419e-02 4.480847175755934830e-01
-6.444975780552777284e-03 4.385788504435335355e-02 4.532722052390661394e-01
7.787915902205780339e-02 1.456221273000937039e-02 4.746905695800932024e-01
3.291776168877747627e-02 5.321196102985346899e-02 4.613854476508185698e-01
7.666381715998078772e-02 3.834806009917168107e-02 4.671186574746533648e-01
8.067957383477571132e-02 2.481634810972888072e-02 5.114469561262066089e-01
8.552691443334745069e-02 2.586140280238249239e-02 4.998317960421463368e-01
7.509953192961241197e-02 2.243349660767054651e-02 4.674728573841712698e-01
7.428676956067345460e-02 3.157642182370350853e-02 5.197988862408173816e-01
-1.192009561297432962e-03 1.100337624596596856e-02 4.433585046198142421e-01
2.778813932469509362e-02 5.133319486168871904e-02 4.593264680045023862e-01
2.225619640631828697e-02 8.445419361134494721e-03 4.457544727351359648e-01
8.721064412545678768e-02 4.152289276803221296e-02 4.699200157921667453e-01
5.670047031071481780e-02 2.085401879586804702e-02 4.591785232027331687e-01
3.860186270549805648e-02 4.583803121564829913e-02 4.583715381593807536e-01
-1.696654889405428343e-04 3.473860436697254195e-02 4.498422000860166081e-01
7.237794377606625307e-02 3.856764153186453131e-02 4.653998645280996160e-01
2.606346939637269045e-02 2.092770801545262762e-03 4.442723351388401798e-01
4.148649280608525391e-02 4.640912533214965052e-02 4.590075522806468800e-01
5.573580356212309156e-02 1.690275415755063473e-02 4.583744330093021957e-01
-2.142206475385647485e-02 7.789311526952604099e-03 4.433107297971791150e-01
4.858741057791964024e-02 5.226489470268817078e-02 4.654750662031308939e-01
8.697045379485893180e-02 2.189769720572472961e-02 4.851254923173037858e-01
4.837393850301260900e-02 -2.806758413320894346e-03 4.531356286363352193e-01
6.354207668526522246e-02 1.417200974616685850e-02 4.622578213050153595e-01
-1.547147901831271571e-02 5.885554973330507644e-04 4.404794232737495596e-01
4.249368255946164852e-02 5.020732701161337991e-02 4.605449634647804658e-01
7.024795989237059279e-02 1.349121217545280228e-02 5.173258744313793400e-01
6.897202771693666801e-02 1.061670437361770039e-02 5.158562767624832457e-01
1.008686146731764544e-01 3.817107508708614261e-02 4.829435046509619744e-01
6.921179180995742919e-02 5.181592416322185896e-02 4.725333908744420164e-01
6.753569862509151145e-02 -2.959951779620292531e-03 4.982017317800280787e-01
1.433128480847379801e-02 8.422637012947486145e-04 4.417039199485940926e-01
8.746597636660105590e-02 5.001018448956410373e-02 4.897448805933857230e-01
1.741758935214381999e-03 1.131359733234717398e-02 4.437167280431731364e-01
8.667536950738216617e-02 2.234004319550159795e-02 4.763906986189392900e-01
7.023074154699335270e-02 2.745560756231995442e-02 4.641738105715803031e-01
7.913927903792242202e-02 1.391376569585115949e-02 4.771713788686208213e-01
1.548311719889540992e-02 2.023560749046115007e-02 4.476508813137952680e-01
5.016224311913573125e-02 3.654360542858345329e-02 4.591622403278173836e-01
6.159098829139377645e-02 -4.396273564874850041e-03 4.653069877086988271e-01
8.818629819256652846e-02 4.887580744972162827e-02 4.921146471236769737e-01
5.502945948739444704e-02 3.199985343074809863e-02 4.601320952502785944e-01
3.891175183686356592e-02 5.425152304546713294e-02 4.645631888520413422e-01
5.894792699555077148e-02 -2.610207265274759429e-03 4.606742952866766938e-01
3.694859881591679163e-02 2.204450163698145476e-02 4.521924164765918075e-01
8.515005843132564256e-02 1.944598941824826621e-02 4.809284024125869972e-01
7.921914242287009245e-02 1.089854914427486506e-02 4.897740171615368454e-01
-1.519696928722762824e-02 2.439459054786169076e-02 4.478622228623388990e-01
9.160684542561929600e-02 2.928740180282535591e-02 4.842094244384512192e-01
8.058668411193402326e-02 3.101701568828423364e-02 5.129558421304771798e-01
2.823774432702134789e-03 4.635450297807670178e-02 4.544574852445423252e-01
5.913103743457495676e-02 4.886852171552429069e-02 4.642382288072231522e-01
-1.678299484344933715e-02 2.452711195098340041e-02 4.484688085653678602e-01
7.145201480959867402e-02 1.820281336640151067e-03 4.790716112901523549e-01
2.082391603909245631e-02 1.009372991117398963e-02 4.459488806941490080e-01
8.655096863302359778e-02 2.930846365881872168e-02 5.007880656898402449e-01
7.439670534182084294e-02 3.450781545908939568e-02 4.668151893300312438e-01
9.827715339271102246e-02 4.299238446765642208e-02 4.784277163661043719e-01
1.010560155924937337e-01 3.548574045116184572e-02 4.796097302855718003e-01
6.802812208666836336e-02 3.368861989623379849e-02 4.636109026513288156e-01
3.735851493476596841e-02 2.000276069515249250e-02 4.519716551801356008e-01
-1.770813988340054490e-02 1.285415679543196188e-02 4.450795786868499415e-01
6.792381613849303446e-02 3.331906150210986461e-02 5.192670043927840595e-01
6.282189676712401916e-03 4.016955893343901463e-02 4.515643502830096190e-01
4.988804243873225935e-02 6.018172114410613380e-03 4.542569163488839878e-01
2.761928262219190064e-02 1.995678434812247007e-02 4.497185887437901708e-01
7.449392992051004359e-02 1.618250529767004467e-02 5.146658101984753486e-01
6.740726931718986348e-02 4.884829305957959743e-03 5.094223326316094091e-01
5.922382464201943891e-02 -3.810940136575648868e-03 5.176133477119102544e-01
6.858763052819828732e-02 -5.987280770565947194e-03 4.872842929185321470e-01
6.705295481068170027e-02 3.367676069800590311e-02 5.187661892895333304e-01
6.498238856150433118e-02 4.130140340114836495e-02 4.631983805869936965e-01
6.257423337176445943e-02 -4.662411471190149384e-03 4.668531031498036055e-01
8.772877277084610570e-02 2.797999436730704351e-02 4.960596117330496879e-01
4.517314135688566684e-02 1.547626535565008524e-02 4.538570931569452238e-01
3.576632680301478073e-02 4.858907366067335282e-02 4.586615222723438023e-01
9.164427481091096117e-02 2.902252270655654443e-02 4.836005954768712867e-01
3.538401703386320762e-02 3.637449028801394840e-02 4.558506772789539530e-01
5.569947521122797784e-02 3.335659202726078132e-02 4.602927994279753521e-01
1.172742072039754946e-02 8.049533044175206237e-03 4.439390464037846207e-01
6.308930282664070022e-02 6.616734931368239026e-04 5.123397351780663023e-01
9.536720681680226075e-02 4.490833537651338359e-02 4.792792741691412894e-01
4.814064973258874031e-02 3.082621701038631631e-02 4.576760251160801318e-01
8.847126195100708801e-02 2.551702008645650652e-02 4.897995713937713935e-01
-1.031802121090996151e-02 1.873519825340271699e-02 4.455655368399276117e-01
1.060502335109493599e-02 2.773109986957712769e-02 4.488100564002596715e-01
8.341906866605727777e-02 5.184883977868778165e-02 4.876830364018395203e-01
6.627544994978822046e-02 1.478207884407586360e-02 4.639993516648114880e-01
6.643207491867617054e-02 -5.663883500581828358e-03 4.996832567206745956e-01
8.032296204595665290e-02 3.615445642456705660e-02 5.095812169639437617e-01
1.003426390380925820e-01 4.062543714469574879e-02 4.814302590580284980e-01
8.759511081489774337e-04 1.275371880395490855e-03 4.410308886480935331e-01
7.703504296783902916e-02 1.148422296162450972e-02 5.026413903444689746e-01
9.237789690528880326e-02 3.169179494719752410e-02 4.864381711637025818e-01
3.360701206230747723e-02 1.143804836237001174e-02 4.491766759714286295e-01
6.207880306361671791e-02 -7.916790457934159281e-03 4.685597680879986515e-01
6.872748609525748675e-02 -5.009517742436069010e-03 4.836714732878836798e-01
8.551730578146921058e-02 2.753037463018970232e-02 4.710481460229540840e-01
-1.019320421681677719e-02 2.392380199706901217e-02 4.472390833602348792e-01
1.018306526293817627e-01 3.410958801459334361e-02 4.834405636149762819e-01
1.435145931758277302e-02 3.423629745757110661e-03 4.426069302516207338e-01
3.185606790566474639e-02 5.577997732667572782e-03 4.468834925694757931e-01
5.412812756690749127e-02 8.856779262790491145e-03 4.565527324795302655e-01
8.107863931383467448e-02 1.385646646252230649e-02 4.929915349349845988e-01
8.037718211013067382e-03 6.386588556690898574e-03 4.430532619042026332e-01
2.695992457475408083e-02 2.736116581207934453e-02 4.513237309887767057e-01
7.172524626599806330e-02 1.814134305408089676e-02 5.204842454309630551e-01
7.619779616617815277e-02 1.804150829440979292e-02 5.140672758253616026e-01
6.489894196006247562e-02 -5.206728663116351637e-03 4.710865569308635981e-01
5.140800359347138387e-02 8.108136926498791044e-03 4.551787751810323357e-01
3.357373746162516104e-02 5.530899716437992497e-02 4.651990680310835180e-01
4.323075639293454814e-02 3.681372120991734109e-02 4.575977806101999001e-01
2.377976823103546133e-02 4.308021819689829279e-02 4.549785716961711191e-01
-1.933394914277781693e-02 1.359850735689280797e-02 4.458548864291158598e-01
-2.453895325172129015e-03 2.858247573516546625e-02 4.484050332139430939e-01
8.143733843748222900e-02 2.265021148293542771e-02 5.091771057818542667e-01
7.672065372870703892e-02 3.227732702704944057e-02 4.668039767910901472e-01
3.256945847735844696e-02 1.018032996032820076e-02 4.485746845853428866e-01
-1.573902299953519254e-02 8.937845969583985833e-03 4.429870170017676245e-01
3.004968008795795564e-02 5.279379304954016222e-02 4.615181287059065274e-01
6.082629268470721856e-02 -8.417659436496787578e-04 4.625995786012029320e-01
9.684174995184620383e-02 4.011553874680059972e-02 4.864218443836082484e-01
-5.716768502629268611e-03 1.061503184968120780e-02 4.429065492703389562e-01
7.292445950082096506e-02 3.291004740561962599e-03 4.824693607203925927e-01
8.079802505661457662e-03 3.656152452717544021e-02 4.509132195915741548e-01
8.795307392409242031e-02 4.759166460072371957e-02 4.726781563562082455e-01
5.968364325815547766e-02 8.266849954626993499e-03 4.591370341166514102e-01
8.410756736482355445e-02 2.276168500328535835e-02 5.001498473206565931e-01
9.240579419209435028e-03 2.414961124722015198e-02 4.476729509533009521e-01
3.644700948293766452e-02 2.223105375424083360e-02 4.521288103736184061e-01
5.018884743814093496e-02 2.729975689991815530e-02 4.579370546850075052e-01
1.371729077793609058e-02 1.323376019298809665e-02 4.456941972944373220e-01
3.074850187325672488e-02 2.860582574904079953e-02 4.524062175371546535e-01
9.876986369447005032e-04 2.667284923941736288e-02 4.479196664129425631e-01
7.564575466526207714e-02 3.792406122000883950e-02 4.667737623012955805e-01
4.543433685007705614e-02 2.707421631305999450e-03 4.520341857466088631e-01
2.609890152879339176e-02 8.285780444561161723e-03 4.464840558266729986e-01
3.664348079807175362e-02 1.699781477797431342e-02 4.512900474899490533e-01
7.384282214978583891e-02 1.631929767943358922e-02 5.159970552019109702e-01
3.479022159076597398e-02 -2.122653321432358547e-03 4.456354807347838731e-01
-7.523168071958484526e-03 2.248724019675063870e-02 4.465780210134972505e-01
3.006015456352959664e-02 4.110163996966616912e-02 4.557650717790649453e-01
6.407850295136886809e-02 -3.373557426817046668e-03 5.075935593102093302e-01
6.563850729778766824e-02 4.195854360224272883e-03 4.654208433771996889e-01
8.284649847596320393e-02 2.020559081742503635e-02 5.022997274266071122e-01
1.841162014835605104e-03 6.383483675782561546e-03 4.426118646624248587e-01
4.588999907671618278e-02 1.581706769782152341e-02 4.541734423853047153e-01
-2.787204298445756980e-03 2.602859499750221489e-02 4.477528640130077897e-01
8.865044663152936433e-02 2.593640043324878935e-02 4.896845231897568596e-01
7.910850574646921540e-02 4.217763643922921996e-02 4.678812723254395234e-01
8.387507282451202306e-02 2.713417957275417874e-02 5.057892485626643841e-01
7.843158806585150133e-02 1.628486925333693519e-02 5.075744267474159299e-01
7.558649696520333694e-02 2.503986418512354692e-02 4.665601370300824224e-01
-4.378651978526735232e-03 3.064764284108881937e-02 4.489033772027606894e-01
5.638139428125679004e-02 3.482513731507451415e-02 4.605083833769262891e-01
6.779542544316412289e-02 -2.941792402851409281e-03 4.974254711008083696e-01
9.530974955974785834e-02 3.447962920928459435e-02 4.755699069971220383e-01
8.800783910340375521e-03 4.434155783538025475e-02 4.532494304975641652e-01
1.774151855163634203e-02 -8.416488065219260295e-04 4.418185997866144743e-01
5.121241526124680615e-03 3.160281239361110300e-02 4.493759798233477043e-01
2.176712398375824087e-02 1.439582263262036491e-02 4.471542696603794109e-01
9.910680526496648546e-02 3.393977168462269239e-02 4.848742881241429048e-01
8.180799052986106878e-02 1.570903157695483984e-02 4.803493361177477716e-01
7.854556264107359631e-02 1.619474245412918026e-02 5.071537478453067571e-01
4.486163944303742102e-02 2.771445032606680708e-02 4.561089086625835787e-01
1.183915977474035708e-02 -6.272407226843778813e-04 4.410389023362982219e-01
4.441719252060838397e-02 1.277906987457843105e-02 4.529851741560808054e-01
9.016742927600375490e-02 4.487394021765917645e-02 4.959088637382715881e-01
-5.641015838559100722e-03 3.182943477975944818e-02 4.491416598327216958e-01
9.056310144285900643e-02 3.605703393682535562e-02 4.943362651309609612e-01
5.828824288939699755e-02 5.303184575094253318e-03 4.587708588483451755e-01
3.380474105197132234e-02 9.555817880502585210e-03 4.486588060989973314e-01
7.721524565795466477e-02 2.702106780978250772e-02 5.187158016997213128e-01
9.136178668702256422e-02 4.548074370254655274e-02 4.944120629101248499e-01
5.910555362038670546e-02 -8.980872096340635977e-03 4.651443596951851389e-01
9.957813961232588051e-02 3.458772635067151185e-02 4.855131105745487674e-01
6.583033925157168176e-02 1.674295566396985860e-03 4.677330188603250338e-01
3.713749124403613322e-02 3.362997817901849235e-02 4.554886072686640808e-01
6.945707438080415963e-02 8.137984456913491867e-04 4.747880115438084525e-01
9.258261639812404714e-03 4.851509356855745331e-02 4.573183650566265968e-01
1.490310931932005596e-02 1.279689447558877849e-03 4.419422146440139532e-01
7.650354608924651856e-02 1.094694113852779684e-02 4.763894551318704762e-01
7.147979761324721459e-02 3.872373736399925548e-02 4.650250211462944594e-01
-2.057467325004432024e-02 1.038536140917564222e-02 4.445289305706837113e-01
7.028494717872896258e-02 5.918429119373068946e-04 4.775203076205987718e-01
8.447954256311923649e-02 3.504145371425306660e-02 4.703703280934967701e-01
9.536319249832785061e-02 3.545260635956508366e-02 4.746445296193173013e-01
9.506280514159311246e-03 3.138717236909201180e-02 4.497699167798897557e-01
6.382100320814523831e-02 4.016860890357968478e-02 4.628783369079711441e-01
9.545150217036260654e-02 4.311540004353490302e-02 4.865552265168927581e-01
8.375725912547221652e-02 5.122845838473716329e-02 4.900887375309604943e-01
-1.226993619554436754e-02 -1.615880470133611822e-03 4.390453524860984946e-01
5.639851110165527287e-02 8.274565281275399892e-03 4.575182555440947541e-01
7.809234929235027434e-02 9.263385999574869772e-03 4.925774306306075490e-01
6.814492097110243229e-02 2.292878144569088922e-02 4.640146915791689697e-01
9.213974359013239745e-02 3.649712800571708327e-02 4.723313806823722927e-01
4.664964675101762603e-02 1.855544224968078831e-02 4.547878491297951964e-01
-3.121029514054443621e-02 6.737506738184542449e-04 4.410162073413222417e-01
4.449890406684162136e-02 2.602694895456852259e-02 4.555917924847487921e-01
4.833823209515308167e-02 -1.174724429785302914e-02 5.309229196087742464e-01
2.826265864216217713e-02 5.095201712678282258e-02 4.588886424463101132e-01
4.694067105058306877e-02 3.266156125824248163e-02 4.577280127122611009e-01
9.857101601520122658e-02 4.282492024493705918e-02 4.778012489757842984e-01
8.245834113954611522e-02 5.145045970085973530e-02 4.896499318808420487e-01
2.671986839888529711e-02 1.666255084716230725e-02 4.485647130782488556e-01
7.749957623396976081e-02 1.154397715938325353e-02 5.013388535109956079e-01
-6.455184553539860745e-03 1.175848690593735146e-02 4.432536218147679064e-01
-4.474584794062945459e-02 4.481736983553536412e-04 4.450690606522482162e-01
1.267135343633325403e-02 2.560893683258900003e-02 4.484425906097355141e-01
9.451272931106174946e-02 3.171286021702823116e-02 4.763420596077729829e-01
8.523435420030299470e-02 4.486071966218492524e-02 4.704549618945765843e-01
4.703117301050816629e-02 1.123823775110864044e-02 4.538265002361836498e-01
-1.571188657646046746e-02 3.188701656337847301e-02 4.508524438536415935e-01
7.108670978758412085e-02 -8.434794736513963765e-04 4.858387297891272882e-01
7.539150221652107797e-02 2.619339366243534500e-02 4.662061373168893130e-01
7.552215313936599950e-02 6.460263193821442346e-03 4.941102125211047080e-01
3.399361440234414250e-02 -1.457266974711221054e-03 4.454832634495681787e-01
8.268980495005617826e-02 1.477898920209717686e-02 4.878067968409319777e-01
8.600404716108558945e-02 4.499337601148784005e-02 4.707520392172558354e-01
4.496746115876336380e-02 5.268102302040748169e-02 4.633122799363663114e-01
1.019762446627863889e-01 3.760060764155312429e-02 4.800538565103403821e-01
5.576745754475440769e-02 1.694490280924108860e-02 4.583918590920084690e-01
3.759742145565714289e-02 4.667214532837967583e-02 4.584312771959088706e-01
6.936621405790231731e-02 9.174988871354155737e-04 4.976860468584413111e-01
3.746858243298541169e-02 4.198783026062228446e-02 4.574108802388918149e-01
1.527599898783200787e-03 1.418293424147190791e-02 4.443533940308529995e-01
5.311551325523672373e-02 3.561256159801511750e-02 4.597603569563363801e-01
8.268841634717485900e-02 2.486440478374619956e-02 5.074034047092311761e-01
7.488547400743238158e-02 4.974255927254556814e-02 4.693438213356710409e-01
8.713913869145439861e-02 3.651764281714072607e-02 4.710420779528793900e-01
5.261494862453638954e-02 -7.475763404384929041e-03 5.255802440018016997e-01
7.633003978746077944e-02 7.347486136253676171e-03 4.941038359310341854e-01
3.635203391153558200e-02 4.200569180533220842e-02 4.571515593003335765e-01
7.052353011005652039e-02 4.996054482650599121e-02 4.680652070634448436e-01
5.862224662157494715e-02 -5.092499600512755305e-03 5.184742619792601648e-01
-2.058154447043484409e-02 4.159584082985947132e-03 4.415038477613681400e-01
1.817942726953335197e-02 1.798744484158942836e-02 4.475568184652952142e-01
5.912510515066432548e-02 3.669695318119035876e-02 4.614302720740036667e-01
8.678487376354317162e-02 2.344961622664111164e-02 4.753359725589280660e-01
7.225794569283297553e-02 1.402316337665519483e-03 4.890914952597681387e-01
6.721473356709686819e-02 4.685420825933770544e-02 4.656420082022764695e-01
3.646994306060974411e-02 5.445933056669702288e-02 4.634887151609763944e-01
7.359689373408317969e-02 1.200893571303386989e-02 5.098946142563874906e-01
-4.395683532175932717e-03 1.633507730882586412e-02 4.445442667032026840e-01
1.069842852343497533e-02 2.112579129822881457e-02 4.471365899317818471e-01
-9.598148104700485184e-03 4.035661930203352649e-02 4.521273267311470834e-01
6.240903584105028656e-02 -3.828064381695248271e-03 5.109396860531913998e-01
1.827359410642034887e-03 3.111780344045109517e-02 4.490988826115608346e-01
8.432680029319750137e-02 4.450698757634655167e-02 5.016225248963850358e-01
2.694254279536192898e-02 -1.931125152577198821e-03 4.431539262001167323e-01
5.111290939730206428e-02 1.994275061565849161e-02 4.566897686809135437e-01
8.565387407513253004e-02 4.904722187397721200e-02 4.940319769693663488e-01
6.182330046079109048e-02 -5.963210768972710199e-03 4.667756311702406236e-01
8.733010884980373090e-02 2.194977376207556466e-02 4.816444095017856086e-01
5.052448079978575507e-02 4.798031906393677992e-02 4.614329607472275052e-01
6.475016612874956445e-02 -1.489824782559428335e-03 5.069242775474670504e-01
8.165629686189455894e-02 1.603372095347149057e-02 4.971995455262809838e-01
3.554912633534568905e-02 9.590922036550533422e-03 4.490823020157205803e-01
7.568139659616791859e-02 6.783024163583652177e-03 4.840542983849973058e-01
9.659080881685089270e-02 4.047946340925227815e-02 4.752864899551328959e-01
9.943584976536477826e-02 3.853117007482234624e-02 4.773906995835434652e-01
6.614562882828926849e-02 9.650149141601721894e-03 5.193088567548880263e-01
1.978416981957929754e-02 2.829524273676984128e-02 4.503444693646463381e-01
-1.057050436445735112e-02 4.115790337187200110e-02 4.534940002907216217e-01
-2.528002683289271024e-02 5.770652566669714871e-03 4.427429774121309780e-01
7.419969210368196344e-02 2.583614944381169148e-02 5.228730617170010975e-01
7.933348962473109334e-02 1.637468815401255107e-02 5.055059609642001961e-01
8.464858876353392736e-02 1.931237972753037033e-02 4.781162995551149764e-01
1.195787600629544430e-02 -9.715413439120418847e-04 4.409193648806904453e-01
9.346035644969284684e-02 3.279983544018675451e-02 4.873254331684143126e-01
5.072753492477862641e-02 4.110304893734118004e-02 4.601145674882150538e-01
4.763834506977999983e-02 3.461651127907838799e-02 4.582939722686724671e-01
5.534813322028021149e-02 3.856513866054526313e-02 4.606894125682695074e-01
7.916496721986636398e-02 1.342641682996153704e-02 5.001758962230991035e-01
5.924464968769983797e-02 4.845679928372343542e-02 4.639529280865402616e-01
3.130019857251258031e-02 -4.939420906094942054e-03 4.434421017978920077e-01
2.008305988477501400e-03 2.916095213888150392e-02 4.486091007253677487e-01
5.243822645412896805e-02 -4.344698332576083129e-03 5.246246239102249076e-01
-6.541286186369336952e-03 8.889622638965808885e-03 4.425236768129916509e-01
9.989920448862099622e-02 3.134919008444594923e-02 4.803589784877151936e-01
7.845459692408650321e-02 1.298200431535022868e-02 4.778751931505642037e-01
-5.846397160950623194e-03 2.645004953231670786e-02 4.479134593832991840e-01
9.348504290239402492e-02 4.822545082721522991e-02 4.823393312107489561e-01
3.587652235136966350e-02 3.997114878799992374e-03 4.477993529391872118e-01
5.010402715412064917e-02 4.124776348481772742e-02 4.600308471006344102e-01
6.964452145134776562e-02 -3.210501844674655894e-03 4.843501970539814128e-01
4.049146124517762763e-02 4.134455117492477627e-02 4.579954028799870791e-01
5.227397105525366516e-02 1.252702112629700860e-02 4.563275540414696851e-01
1.236572847767796260e-02 4.483998260985989220e-02 4.539123143084741185e-01
2.233480827099717375e-02 4.893178291554429321e-02 4.573578601938459443e-01
2.634559935063086715e-03 3.360912518442497887e-02 4.497219655584980824e-01
1.795802329030339595e-02 2.584293900206776143e-02 4.492469619747715415e-01
5.614975974591692592e-02 -4.086191252808049103e-03 5.212049766079234203e-01
-1.280059386312516929e-02 2.872669546484337560e-02 4.487246745330216724e-01
-1.542243754051667894e-03 3.682651962295766662e-02 4.502288043574291243e-01
5.415163476851939800e-02 2.352300100342584813e-03 4.564509696463760480e-01
-2.760587724398955514e-02 6.671854663024349465e-03 4.445424736117578601e-01
-8.369028095170351345e-03 4.027641620687047105e-03 4.413878945405402265e-01
-1.352822842573087742e-02 5.124282200184012565e-03 4.416682245579642840e-01
4.564886865279491751e-02 1.185505783221313652e-03 4.518231633137492209e-01
7.599679543207964183e-02 6.923384246058485528e-03 4.850864972240823692e-01
9.567205876830835176e-02 4.449148509569609417e-02 4.766171432633732885e-01
5.394556062420791803e-02 -2.059681290316035807e-03 4.566634824501972778e-01
8.940834644615158755e-02 3.889997267235903444e-02 4.706925941953669645e-01
4.157481789293607927e-02 4.067182274161099814e-02 4.581200730983216451e-01
9.328731622157965253e-02 4.843437946944859768e-02 4.829569407230337452e-01
5.124983123354228537e-02 4.442238006260505051e-02 4.609117258546974738e-01
2.232824054753666798e-02 2.670610311212012408e-02 4.502767880252104837e-01
7.179740515083189722e-02 6.691866771640917269e-03 5.030667853979019499e-01
-1.189373024578165017e-02 3.124188074635930647e-03 4.412123749632635428e-01
-1.399237784226899789e-02 4.462586030737405833e-03 4.415035246022497861e-01
3.539299417710892875e-02 3.046642192963446710e-02 4.539165144817366437e-01
6.538484458290297341e-02 1.428073670142446933e-02 5.248594895187028708e-01
7.977132313966886490e-02 4.116969298852166115e-02 4.679702053466057721e-01
6.109223350686571186e-02 -7.042398594909626830e-03 4.665628839808210193e-01
4.936860697293701111e-02 5.173050782014702864e-02 4.641684638444319444e-01
4.542787271473829047e-02 5.805151548306517958e-03 4.521874534393223732e-01
3.027601578937168941e-02 5.002494425377675830e-02 4.585593593115983579e-01
5.276422506668405898e-02 4.786325752366300118e-02 4.618151673937240798e-01
9.170236641155316004e-02 4.698175562404841715e-02 4.754454618411071976e-01
-2.129866258936088941e-02 1.560916012234505809e-02 4.473003185949706029e-01
5.406306710499266671e-02 -7.462783714966698435e-03 4.583207958801397974e-01
8.992856380185246593e-03 2.812137325511996494e-02 4.487566095914913289e-01
7.781395430585441586e-02 3.292011535489190732e-02 5.145241597849775639e-01
9.037035765993237102e-02 4.666383910200014307e-02 4.936830848563494856e-01
1.841291215337459777e-02 2.722975383781710973e-02 4.497166598558808293e-01
1.309162311770102442e-02 1.869025007887951603e-02 4.469534653522074796e-01
3.553614428629203736e-02 1.588511175030764624e-02 4.507248372745946141e-01
8.632751459969580793e-03 -1.539322123515460966e-03 4.405465560592617402e-01
4.903272425531962631e-02 1.615812643899994239e-02 4.554050839113368276e-01
6.794446174439221220e-02 1.269013211495367659e-02 4.652358243633463175e-01
6.085515193504105469e-02 2.253126734407892920e-02 4.612172245834759710e-01
7.297880280907299844e-02 2.116463349829081353e-02 4.669590166720061220e-01
6.904032870256482379e-02 -2.755379827898604347e-03 4.791905381651793139e-01
4.811150579401073102e-02 5.280240614885332168e-02 4.673169246158833667e-01
-1.100525642645151791e-02 2.233024058463266986e-02 4.468001190753765894e-01
6.746334759595001840e-02 4.943170571568641924e-02 4.669469253609207504e-01
8.606403105337831483e-02 2.798164978460565902e-02 4.711883701816426129e-01
6.449831911498934978e-02 -6.177007204306579451e-04 5.081367558739485757e-01
6.386437254292573126e-03 1.761115289439984730e-02 4.457886449229829240e-01
2.307477851018514825e-02 2.332326944321861523e-02 4.495254671398049018e-01
