4.963233048173603529e-02 4.432508149990531388e-02 4.607145032076035429e-01
6.560439101477197332e-02 8.214288064770388850e-03 5.181466856239046459e-01
2.550928078866549625e-02 4.745644533233784462e-02 4.572569999430793897e-01
7.357556879719853726e-02 9.235834307066514634e-03 5.049179828637037071e-01
8.565865484876640512e-02 4.862888865743690558e-02 4.964160471560296606e-01
-6.594027612771677718e-03 3.995716264102214949e-02 4.513040644860406569e-01
5.518281949289818161e-02 5.038756685132884244e-02 4.645379203081010933e-01
6.725971970211078871e-03 4.884574975662391016e-02 4.599578694822304969e-01
9.265376927888809011e-02 3.222822705774531366e-02 4.868721694026535984e-01
8.183061795541515804e-02 3.768235725097190264e-02 4.699072468964392568e-01
4.081921086814806893e-02 1.992790120514212684e-02 4.531048544210742879e-01
4.336250954909040556e-02 5.278579320945222392e-02 4.630440348306879006e-01
8.600791447732282491e-02 3.336046115703089621e-02 5.030788260156598968e-01
-4.780510517346701904e-02 -3.122597363963585358e-03 4.439479149743080222e-01
3.808806112967522139e-02 5.473415315874391451e-02 4.660195695968472052e-01
8.459671573349560048e-02 4.911304356593282350e-02 4.955363441891629805e-01
3.022461539241988460e-02 5.392828706003182510e-02 4.625887577306015408e-01
6.603425175769947475e-02 4.861736463798888366e-03 5.119389392837148112e-01
8.679601906774205011e-02 2.842053416297595642e-02 4.719223117039153537e-01
5.946153426577759082e-02 4.995829470047927906e-02 4.654390360946039085e-01
8.971991171882446117e-03 2.923338472565891952e-02 4.491498897480962205e-01
5.770799896236974286e-02 1.411138140219324842e-02 4.589750888266447837e-01
4.675443096529044440e-02 2.541278145796662183e-02 4.563603689205014136e-01
6.568385307620626390e-02 1.053224418072253379e-02 4.636453675301340227e-01
5.139120706089615742e-02 2.563817648919093639e-02 4.581319330760683095e-01
9.002176685687079960e-02 4.202163352603747321e-02 4.957454937658713479e-01
6.816682288360813302e-02 -2.247768153690173250e-03 4.760630682287178006e-01
8.928292674568660825e-02 3.032308929472979711e-02 4.936122825961611338e-01
5.343620900042508198e-02 -7.195450998238289708e-03 5.247330052455736471e-01
7.527838896828817350e-02 5.207401344394108067e-02 4.755021866952021670e-01
3.018486909302404986e-02 3.782389552280550002e-04 4.446818966094817083e-01
6.365049961692917369e-02 2.883455507800866680e-02 4.622578705686671841e-01
8.871149747150598383e-03 6.928885572158322535e-03 4.433072787454304109e-01
8.255920575669463413e-02 1.738988999636638388e-02 4.945424031165108203e-01
3.629102004496052858e-02 2.687138552597802526e-03 4.477372791524003581e-01
5.477576990410733954e-02 7.992797314547335497e-03 4.568203170292249315e-01
5.913026766922317018e-02 2.261162879106772342e-02 4.605356980183880067e-01
8.678339463566570045e-02 2.819465349713739036e-02 4.720922317755972264e-01
7.255088134804001110e-02 3.421469399579057935e-02 4.660446388157246655e-01
7.244605135078689695e-02 9.094437926191432930e-03 5.064986699385356506e-01
5.074828545547152570e-02 4.881894623497343849e-02 4.618913991220024995e-01
3.734011780919192780e-02 8.318843869248571804e-03 4.492762385640409195e-01
7.333752080294363151e-02 4.911661331116445872e-02 4.687405746966059050e-01
1.025014525307837571e-01 3.383406570041676970e-02 4.825155725697999332e-01
2.550277272383345145e-02 5.226904249623053056e-02 4.613819888334901309e-01
9.787529606370801161e-02 4.024756959955531899e-02 4.763581548531040100e-01
4.556456858147351491e-02 4.350489749400847372e-02 4.596304304866753454e-01
5.789921049286935600e-02 2.808137110893384365e-03 4.590584853915500863e-01
7.402453740618492040e-02 1.472828190096392778e-02 5.131357807465166676e-01
4.947433748015848953e-02 4.045391306061223852e-02 4.598900312840320526e-01
8.329530654917288723e-02 2.310655846937489932e-02 4.728947023692105511e-01
-1.043221577409977029e-03 3.421024122005076121e-03 4.416463503062219575e-01
7.061079133002839958e-02 3.333622075266249457e-02 4.649217259159331150e-01
2.709992752556550366e-02 3.550239801937282724e-02 4.541783105293459855e-01
8.431027416887730552e-02 3.381069551360180864e-02 5.063041688896698922e-01
8.031714798206802952e-02 3.566851356345407398e-02 5.102376426282344557e-01
8.813448437500262522e-02 2.435023898766260769e-02 4.869381257085331205e-01
6.920520106729093068e-02 4.148155390144745661e-04 4.751142596795904227e-01
7.330968075532681705e-02 8.711479376295332838e-03 4.733232421992111250e-01
7.777144988151767080e-02 2.571647138430524504e-02 5.173475205916042707e-01
8.972554471703771128e-02 3.278409877779224491e-02 4.939586598480980584e-01
-3.773197232361295839e-03 7.538503801614711460e-03 4.425063256276734469e-01
8.011569451727421076e-02 3.631261691611872844e-02 5.096086913375033056e-01
6.264071998954834179e-03 1.454371837245149734e-02 4.450407969780693640e-01
-6.243959772239689177e-03 4.369149019716259824e-02 4.529669943179311931e-01
7.686370237862563681e-02 2.882467735857529439e-02 4.665278727585046581e-01
6.575403825999580343e-02 4.826518905531999859e-02 4.660654260876999078e-01
7.769761361801467980e-02 4.816375049565296829e-02 4.696955570850328554e-01
-3.890759891717704422e-02 6.115682029855934454e-04 4.410337343805805776e-01
1.618741066360038228e-02 5.040185040186708626e-02 4.598468844059254712e-01
1.766045334024108487e-02 3.647627533942519179e-02 4.525416509043915791e-01
3.270578076666120354e-02 2.652890285165466697e-02 4.523491230936180219e-01
2.668665694256407844e-02 2.022662423082402169e-02 4.496330628822748920e-01
9.454071399585811664e-02 4.624982328449919050e-02 4.802182349891508384e-01
7.357524389406482068e-02 2.033114337239769892e-02 4.675381360551796317e-01
8.052068745382726100e-02 3.102689975594020988e-02 5.129806540495501777e-01
7.496502581382709363e-02 1.088864873695499780e-02 5.055793497599587738e-01
9.098461335687935136e-02 3.625551516199803509e-02 4.720307695356449895e-01
2.419927979303440960e-02 4.550534248686808302e-03 4.448593207507503533e-01
4.788481372132757929e-02 2.689916702595112480e-02 4.571426696034243120e-01
5.942346003526633585e-02 -2.853782284835205789e-03 5.174598754840897818e-01
6.892850913971286519e-02 1.605881578289759457e-02 4.656039690983628798e-01
9.445695434144109337e-02 4.575064478407776802e-02 4.788842656839061851e-01
4.938186363068688273e-02 3.650058947444809881e-02 4.590868919593372177e-01
-5.081065877752936367e-03 2.836201780517339996e-03 4.412063847745038014e-01
8.363328913662013142e-02 4.237416100271457209e-02 4.693671192477207876e-01
5.605662828611976400e-02 -3.718458801886431395e-03 5.212276976604820478e-01
7.581712544858085212e-02 7.902319153943937122e-03 4.820171463224469099e-01
8.926048685481144385e-02 4.823716238401046241e-02 4.745132329251314784e-01
6.787742584988512573e-02 4.411606707734719302e-02 4.644985450842655239e-01
1.894690765930164000e-03 3.728243318142098611e-02 4.505269773817537349e-01
5.334764592289586299e-02 5.264484203840613490e-03 4.560850291542489221e-01
7.573821305747413524e-02 3.519274146352854155e-02 5.133866118907907117e-01
7.053258376076579350e-02 4.210109880859441017e-03 5.007258692181509874e-01
6.616517479170448690e-02 1.425862576881393486e-02 5.238797706423037326e-01
-3.256216216978281841e-02 4.236962079992832170e-03 4.443387420303729907e-01
1.496081623320962874e-02 1.014566483797850645e-02 4.451216800956050990e-01
6.225193970479957206e-02 2.284290941579355042e-02 4.619073400236073379e-01
5.188459008499299308e-02 4.595677834172055831e-02 4.614624688116717444e-01
4.459695196446609999e-02 -1.709753890878296968e-03 4.508962835849539275e-01
4.613322692396388397e-02 1.030814186838983036e-02 4.532446889631728815e-01
6.889789270812550492e-02 2.835794317729030574e-03 4.716364606010544636e-01
2.750912173115979339e-03 3.229129350906411594e-02 4.494717460963899569e-01
8.625716442947077567e-02 2.518406486106020484e-02 4.958632896049324779e-01
1.569113663238053472e-02 4.957830696209281074e-02 4.578084397797838601e-01
6.497144244952816894e-02 2.144029203821661358e-03 4.664463443749504723e-01
6.623059385696683510e-02 1.653717447944564115e-02 4.641478886995696329e-01
-1.195318549339124958e-02 3.676022935420721061e-02 4.512000860956832948e-01
6.760734345085223085e-02 -5.679952769630521904e-03 4.793734356149608744e-01
1.691401872928025019e-02 5.106264649174685477e-02 4.614856546254077485e-01
5.337155585748268316e-02 4.565840794003115516e-02 4.616686951732243416e-01
6.940088472273010789e-02 -2.748281225779399504e-03 4.820043590186806615e-01
8.687495966553375470e-02 3.794068488077528140e-02 5.014124243942335024e-01
-2.576472583287037817e-03 3.425821457926048891e-02 4.496936486554873325e-01
9.158120043811240896e-02 2.680979540356216717e-02 4.768251950926529203e-01
3.700808390135782930e-04 3.022395858905746469e-02 4.488738393796169457e-01
7.519310116507320341e-02 2.487151703703727179e-02 4.666547527034574649e-01
6.030947540234507520e-02 -1.260135239070999443e-03 4.622507971009681693e-01
7.915541507007972655e-02 1.732145248593737127e-02 4.740216244508833054e-01
2.405228320935198089e-02 1.592128858614155068e-02 4.479354961954325476e-01
4.037781066529536056e-02 -3.512590052467398812e-03 4.485331924466859910e-01
8.734696312526771950e-03 4.940995761395060304e-02 4.617207163710821405e-01
4.196741111426766785e-02 2.493006432014809384e-02 4.545473466722251277e-01
8.494937470495335374e-02 2.255762869907226853e-02 4.953303897073846329e-01
4.743320966748848511e-02 2.634551683117736590e-02 4.568473459471207865e-01
7.862010389526830068e-02 2.610395589265346317e-02 5.158392432021968732e-01
5.274144268052579493e-02 5.129918664637938414e-02 4.672713021745500406e-01
7.989978259482645451e-02 2.973156378143072473e-02 4.676344851162808069e-01
8.032255026708060019e-02 1.787402517139321731e-02 5.051406477883557677e-01
5.650324988300141349e-02 5.153173148989714097e-02 4.699264009025930777e-01
6.452062950052410428e-02 -5.580761167645828698e-03 4.708846737331635612e-01
-1.891674989713465135e-02 1.002781367847951910e-02 4.440924744114025380e-01
7.764056365920182778e-02 2.062344983405932364e-02 5.142815969822334132e-01
2.385253838508007845e-02 1.347173704779386361e-02 4.473578578636275282e-01
8.446889252944149440e-02 3.520891572179944695e-02 5.053932109858895183e-01
8.905263777096104894e-02 2.543541419788239444e-02 4.783501519949461822e-01
5.634762975795226669e-02 4.105194039285747776e-02 4.613527742246708030e-01
7.699326994787396294e-02 8.237475044102210778e-03 4.941314629760372723e-01
4.941003852599848423e-02 5.261014305292726484e-02 4.684497783525655712e-01
-1.631783790156601105e-02 2.323819867645741249e-02 4.478267957177499148e-01
9.141050577723260073e-02 2.827834219833880169e-02 4.824511784782649637e-01
5.444893016708611533e-02 -8.351839300880048531e-04 4.569417990372390270e-01
1.789078559054071288e-02 5.054095151251953438e-02 4.584401008886869189e-01
7.780821441019165896e-02 4.932672695556991616e-02 4.702372391629519033e-01
1.801081591026040124e-02 7.736610794761761278e-03 4.447155605470289319e-01
1.441934918462779019e-02 3.021565458325356154e-02 4.501593733552173848e-01
7.553011580824878224e-02 3.853098787666022623e-02 4.668779507532321849e-01
7.944928231870374002e-02 1.665457993691020142e-02 5.054118792226890422e-01
8.950620800932793109e-02 3.309393476645169918e-02 4.944710835128669491e-01
1.116410924570572852e-02 2.759585407020156457e-03 4.421995950632018890e-01
6.812030635939690659e-02 4.525999245204475468e-02 4.651723751052229683e-01
5.219563477317680500e-02 4.448672884363992497e-03 4.555380485925796807e-01
3.537110074817743227e-02 9.683352168752962230e-03 4.491141043807885813e-01
7.051066775220002358e-02 1.042179477913243377e-02 5.126187058645331751e-01
6.847199908477379082e-02 6.637536547624906663e-03 5.099255417114127997e-01
2.438433630585045558e-02 1.296093566479774445e-02 4.473841973928489590e-01
6.505649236597908780e-02 5.134701886986887953e-02 4.689421623148639640e-01
7.678583891875608025e-02 3.849063470795408004e-02 4.673817888138079857e-01
4.878747093915261103e-03 2.454516045705151805e-02 4.473438868775841404e-01
1.426996881254422901e-02 4.148563875074147422e-02 4.531297591308439676e-01
7.770608635553717669e-02 1.331990105268886747e-02 5.040025443936689831e-01
4.504067134665466765e-02 2.439952005535136331e-02 4.554717393200407582e-01
4.299916722159753679e-02 2.765919118902370258e-02 4.555452030751209191e-01
7.966093429669666645e-03 3.494947999193892541e-02 4.505866115831297924e-01
4.721875285828575075e-02 4.219734964014135170e-02 4.598107996914633233e-01
8.157955851035329775e-02 2.492027906372428631e-02 5.096344962125374245e-01
3.085490271232473047e-02 -3.777994984794627153e-03 4.436794134530906430e-01
8.828944867367495564e-02 2.870844592930813649e-02 4.948513570126324423e-01
1.825554383026407185e-02 2.097052287623927397e-02 4.482647697791013464e-01
9.030687158459588249e-02 3.064689155294713849e-02 4.906612749427516351e-01
8.398938320619260545e-02 2.530055795039445540e-02 5.043802174074480948e-01
5.150147044406425123e-02 5.643953024694731667e-03 4.550431252677459293e-01
9.587134815945147492e-02 3.552879028027124131e-02 4.759494002719419914e-01
7.986771460507838261e-02 2.175194726145874072e-02 4.709590566194699068e-01
8.720307434971240335e-02 2.393041631538194575e-02 4.756633589732625622e-01
6.635348231106875938e-02 1.032652458431689013e-02 5.196686050359302644e-01
-2.876317841816061066e-02 7.548865905345869542e-03 4.469534801024312998e-01
9.312196875704623414e-03 4.817679727892763136e-02 4.562383075898908680e-01
6.463982975170155798e-02 5.057588733628520100e-02 4.675202553262071126e-01
6.383581914727583240e-02 -1.740320131611330836e-03 5.089211839291899464e-01
6.233106052469633562e-02 2.563079107305400034e-02 4.619621640592456724e-01
7.874518724960639926e-02 3.384353468694031863e-02 5.130125101251429287e-01
9.121209779438410603e-02 5.039570841576597460e-02 4.866242629614329629e-01
7.039504523963936722e-02 1.745642865475116948e-02 4.661936957055039521e-01
5.428964692796224567e-02 1.393005930964561281e-02 4.574510805842284533e-01
5.086300225426313576e-02 2.830592669109989121e-02 4.584750614057565010e-01
8.156325365906602620e-02 3.736870889449511041e-02 4.699498934065804989e-01
5.591533949683406834e-02 1.217965223796898741e-02 4.578742592377201825e-01
9.336530473895761351e-02 4.501283363869130333e-02 4.910565979358216260e-01
7.244682451286041380e-02 6.452955434903340573e-03 5.013900291307510360e-01
7.533471008770289100e-03 7.996227430803826489e-03 4.434586203881580313e-01
-7.910858885140058250e-03 2.439230900893164800e-02 4.472462311900672338e-01
6.483487554809771493e-03 1.332572261918030937e-02 4.447819521634324147e-01
7.864931896022500646e-02 4.754218677134788157e-02 4.697220266298816616e-01
5.409938772406633345e-02 5.145155658001426824e-02 4.690795820578078090e-01
2.579006220986805684e-03 -1.448304735276646944e-03 4.402407205957886704e-01
7.348409619491476363e-02 1.700132784400103583e-02 4.681124521559611451e-01
9.032328172908936359e-03 4.683267512783087505e-02 4.552106960055768980e-01
8.675329765635429735e-02 5.452485853399886145e-02 4.788380907907993644e-01
8.865179528841253542e-02 2.450710474846759176e-02 4.800035013204461687e-01
9.742750219902777953e-02 3.314801216785766280e-02 4.847017643699312317e-01
3.628957334839145316e-02 5.025538881314269707e-02 4.595963712751087726e-01
9.349862757911510391e-02 3.606175168255815189e-02 4.730364150868603956e-01
8.705166622363458284e-02 3.909818794967295091e-02 5.009529773495901006e-01
9.252885293334035810e-02 4.785897199757421089e-02 4.898812479934550046e-01
3.165554789703661775e-02 4.527748840686290216e-02 4.571835377728331595e-01
7.028183212177166461e-02 1.728557284277838779e-02 4.661549303192826232e-01
8.072183183973988263e-02 1.298837448969442955e-02 4.861129049826011239e-01
8.572962325904662229e-02 4.767621194821066583e-02 4.980775985346599377e-01
6.763524320711099269e-02 -2.263167478477161494e-03 4.745013228255893223e-01
7.686593597354252072e-02 1.312924261205863745e-02 4.748823492743074470e-01
7.245118943234467312e-02 7.917915767771734406e-03 4.726498728458704557e-01
-1.931399609758520028e-04 2.555455226185479947e-02 4.476376308888508904e-01
9.029128104833050728e-02 3.569703922629310217e-02 4.718134900283221800e-01
9.964782949132064763e-03 4.493290141589473263e-02 4.538024988210532240e-01
4.318704532867600338e-02 5.018491273640641320e-02 4.607619347836634516e-01
9.265726744033808693e-02 2.872346549473527369e-02 4.766626101765286116e-01
1.739448980557477611e-02 4.683089949919811562e-02 4.559169798834742382e-01
6.352480172589511365e-02 3.199358016225270496e-02 4.624563220472432956e-01
-2.119857580960620054e-03 4.446159317209203571e-02 4.529713763182313668e-01
5.359594150164447360e-04 3.793635232815286557e-02 4.506020302581315029e-01
7.846486800013573182e-02 1.014086997158690148e-02 4.935474812538551137e-01
8.036817720216098138e-02 1.217240203876702315e-02 4.883055190535512402e-01
6.333832444970251274e-02 2.756441129441846230e-03 5.144829206949216305e-01
5.792685256657707088e-02 -8.022704487087712472e-03 4.628983695642157059e-01
7.540418936676072936e-02 9.368593990560832724e-03 4.769505066713375929e-01
7.334904382184190275e-02 3.598978477159619355e-02 4.668251607033249706e-01
8.714220147475057465e-02 3.431432867564065264e-02 4.708850343719493403e-01
5.115627415437045550e-02 -1.082108773627722675e-02 5.279913243909289955e-01
-7.114531466811493433e-03 4.395741702101572945e-03 4.416145430482739109e-01
8.327515348351904878e-02 2.338644337485345365e-02 4.726612663586447494e-01
-2.270480815254784235e-02 1.524748279685324975e-02 4.476442660246869321e-01
-1.367667049690416380e-02 1.466018127661880034e-02 4.448337622985150674e-01
9.212637722947962515e-02 3.519995403665028555e-02 4.722885792145532502e-01
4.322647087106406411e-02 3.297985874991070723e-03 4.510008031877333345e-01
8.335647463742339169e-02 2.693572641230730647e-02 4.699671289798597607e-01
6.621014605263815522e-02 8.657922010213009445e-03 5.177306948748889859e-01
6.744552946465585952e-02 6.951898532564227719e-03 5.123455626534941798e-01
2.863228361603089786e-02 3.907491475475223519e-02 4.551137193353885224e-01
-1.431783258982391102e-02 2.678621605422802990e-02 4.484463379784667802e-01
4.008178501274647920e-02 5.134535728843715729e-02 4.608630224835672529e-01
7.993752877650438238e-02 3.121185216573789042e-02 4.678531999945681474e-01
5.484698601432841381e-02 -3.918443840955607854e-03 4.578990432957837919e-01
6.705458380261640483e-02 1.380323092338583101e-03 5.043170849072264872e-01
1.162401820159629159e-02 4.739647097672929077e-02 4.557241237189049721e-01
5.226354687762793660e-02 4.529343013700005277e-02 4.614066560913258064e-01
-6.569648802364047580e-03 -7.085763755103743552e-04 4.398424415878581795e-01
7.224118123071474051e-02 2.246316072301734329e-02 4.663252941629300041e-01
-5.683650516223232724e-03 3.975917954116104519e-02 4.511774814944424228e-01
6.704333644764325084e-02 -3.032795741819151267e-03 4.995186742538448854e-01
7.910680880137574422e-02 1.097848711808818364e-02 4.903343817759261425e-01
1.761916994315871829e-02 3.705245590370868924e-02 4.526636629655600985e-01
-2.619055788275503373e-03 4.516145552339374120e-02 4.536922201873573868e-01
5.666914133334968046e-02 5.077486438705427346e-02 4.675293089649855127e-01
8.947482522234051494e-02 2.768048332801400016e-02 4.881122191936093091e-01
8.716125623955510437e-03 1.335530410137745171e-02 4.450924995233109249e-01
4.491654067037611359e-02 6.654304952003904303e-03 4.519851390628827348e-01
1.471052537708816312e-02 4.933663527354944893e-03 4.432355701902763179e-01
4.344575978777066166e-02 4.294354319073359627e-02 4.590291892212192693e-01
5.325880060010607792e-02 -6.395680490022450509e-04 4.561623669604729092e-01
7.633041268593923623e-02 1.185627200738866363e-02 4.752869323356872511e-01
8.497193014516077336e-02 4.877801214586712647e-02 4.970261645489113533e-01
9.708156832391562352e-02 4.378318869520659434e-02 4.765712355667910960e-01
-1.132873783930492088e-02 3.236679195835606530e-03 4.412269703144288679e-01
7.443995967182998053e-02 5.747862232906447884e-03 4.825376034490549970e-01
4.848201831426321440e-02 1.925798489345305689e-02 4.556603829913958847e-01
-1.887631072918876524e-02 7.044033597368075036e-03 4.426606555868725645e-01
7.514912650872151989e-02 7.568019472003351816e-03 4.802831229640319721e-01
8.732860751102566876e-02 4.436103982655192901e-02 4.710878981470515425e-01
5.068285875970776622e-02 8.484758578082462338e-03 4.549369488847188614e-01
-1.356344271159742008e-02 2.037248516402060533e-02 4.465440666297417205e-01
5.078698128821282354e-02 -9.980823153567217748e-03 5.281365282515114723e-01
8.177579711618825076e-02 1.435493035102078895e-02 4.860318875021144569e-01
-5.574230578963400122e-03 4.018720563961608594e-02 4.512710478416797621e-01
-3.328442273204353270e-03 3.028502823718512774e-02 4.488755649935124992e-01
7.884796996339953068e-02 1.083229599950071183e-02 4.945573696197406166e-01
-8.403464371958244833e-03 4.113084060771117489e-02 4.520455534262608488e-01
-1.432148655349994686e-02 3.753933925666917693e-02 4.520871205490510358e-01
8.825020605885025571e-02 2.504621253084892557e-02 4.757499258351537419e-01
2.098774743006963373e-02 2.527198740538746935e-02 4.496463342914912009e-01
5.702455037937258914e-02 -5.862171012827007907e-03 4.605237296816458992e-01
4.852874450998354711e-02 2.357043378701633579e-02 4.565468141247976397e-01
-1.877190770791742347e-02 2.763784874765048277e-02 4.504359221210052500e-01
6.267451685394848093e-02 -1.780542723472484587e-04 5.126100348664464068e-01
6.913059784989454559e-02 3.358225170756432010e-02 5.182756434433964943e-01
8.550406881983575735e-02 2.044817336446685604e-02 4.792555733974792065e-01
8.419968060726441828e-02 4.458392936883796148e-02 4.702018536460419451e-01
6.835073923812887142e-02 -1.309806155511139721e-03 4.753385940235065332e-01
9.575062264913924981e-02 4.417641773153459933e-02 4.804308111874119325e-01
8.425927235277579086e-02 2.104516740941183781e-02 4.755795003985597291e-01
9.636033623628294242e-02 4.355924046998801979e-02 4.809177563707425218e-01
5.226734189138616815e-02 3.352542343378531187e-02 4.594527768165198589e-01
8.142077336024075573e-02 1.448154748440309142e-02 4.930807196621680433e-01
2.221442386740016262e-02 3.071653145525479398e-02 4.516064588065496488e-01
6.743022594068558140e-02 5.213147747589377129e-02 4.705497868604284206e-01
4.324360550362591621e-03 3.431461584443955964e-02 4.500591589350529387e-01
-1.878086039719211245e-02 2.955925809211472875e-03 4.410572127336886417e-01
1.435754662669219174e-02 7.983990427484155550e-03 4.443149860359092984e-01
3.777204029726183299e-02 5.246732394960017254e-02 4.612333807541763031e-01
9.489388856467091682e-02 3.227971108218475466e-02 4.852725158872002731e-01
6.870137076860803604e-02 -3.493800896104978012e-03 4.935579027578844147e-01
2.463720881512072164e-02 3.041453261928174848e-03 4.443911476378681336e-01
7.751254648803021507e-02 2.301617206457312256e-02 5.170563221562332057e-01
-1.489473868183449970e-02 5.007550843723913153e-03 4.416340814492672462e-01
-1.384175212591944731e-02 2.474849765466233947e-02 4.477077692145896570e-01
9.704149608966143592e-02 3.318250506037469238e-02 4.850437065601019837e-01
7.565101827638724685e-02 2.039520846142383118e-02 5.172920003450315329e-01
3.126999767970744387e-02 5.472636790815514629e-02 4.631520058888458080e-01
9.231502081740250443e-02 3.994803471919736865e-02 4.929094540804743740e-01
7.232175351006314701e-02 1.574912525693746707e-02 5.171584267816732305e-01
4.673892410873564662e-02 4.938484001871574353e-02 4.611550416301571365e-01
7.963563424068798025e-02 1.434880944323557034e-02 4.783907867427937832e-01
8.432908102152195107e-02 2.479811202853903981e-02 5.027751778839444352e-01
1.460068154432468679e-02 2.869764624740545750e-02 4.496446422097046813e-01
4.328232183439317121e-02 4.613406039244619117e-02 4.595201019095935258e-01
-1.047810455819134234e-02 -6.367728119838599998e-04 4.394738413239457353e-01
4.226109860095284519e-03 7.786890200084692175e-04 4.410889568038864894e-01
8.438864378770251362e-02 3.261561383685946530e-02 5.062886832591017017e-01
7.869936996004382734e-02 1.038395462362022570e-02 4.914124541512708277e-01
6.508683358324121593e-02 1.359484747398967582e-02 5.245781691978012029e-01
-8.928834505281791310e-04 2.367534818226746732e-02 4.470101809423583927e-01
7.855284285788884883e-04 4.502394666329295747e-02 4.534851147460233212e-01
1.272562354204861620e-02 -2.445523984550570639e-03 4.404412974290689009e-01
9.797099414732457490e-02 4.304362656302869461e-02 4.801389668107126640e-01
2.363202201200628391e-02 1.367756368627680297e-02 4.473458068492864315e-01
7.209127023459442618e-02 4.645308058867073445e-03 4.760726596486456463e-01
8.144926669653358708e-02 2.709494612315904022e-02 4.686910760545558996e-01
7.516761986026720965e-02 3.244965957343007995e-02 5.179043029034862133e-01
8.906204824027665057e-02 5.162853920577889499e-02 4.787683416210171128e-01
5.445648412769073243e-02 -8.800385467879312529e-03 5.243296776577218710e-01
7.973973149768544266e-02 2.531581643773011397e-02 4.686010930966807431e-01
3.635899172321416933e-02 7.604548572261627011e-03 4.487931181832168215e-01
6.581705353466654751e-02 4.811655304884844553e-03 5.122914358559541581e-01
6.938270711802890789e-02 5.198611014743158981e-02 4.707535688593148526e-01
5.443706750869892891e-02 2.144143456570820824e-02 4.583239809231538509e-01
2.190454551424640683e-02 4.562324045168619779e-02 4.558095244655990808e-01
8.708330947450912407e-02 5.521484799279927080e-02 4.813231372521427076e-01
2.911940585883043137e-02 2.908616019605470698e-02 4.523744756005904644e-01
8.360716774025098164e-02 2.333464141665212224e-02 5.034922512183284127e-01
6.023952292470773073e-02 -4.218944642212877141e-03 4.634532425186441706e-01
2.446482220247958236e-02 1.220552543868677967e-02 4.472602292810676783e-01
7.017942709891249187e-02 3.075024684443638384e-02 5.248523603623652667e-01
6.468165175145323270e-03 2.762295935899541574e-03 4.418864000091006772e-01
2.556261215595350203e-02 1.861914631193089739e-02 4.489247385707251792e-01
7.491041843828608049e-02 3.989299469157106537e-02 4.664545907536146174e-01
1.389172127484324462e-03 2.102416068366420518e-02 4.461540814600013505e-01
-2.034661325471234100e-02 1.234596182613467361e-02 4.454891968164060856e-01
8.636036521980411385e-02 2.164960043795542341e-02 4.871401837672488244e-01
8.656693212752426814e-02 4.934535987424796405e-02 4.736174158409744983e-01
7.190033043597343632e-02 1.635687204612317792e-03 4.915870651008689141e-01
8.034184648606750023e-02 2.628332880799665386e-02 5.124770471097843672e-01
3.780904079936143330e-02 -9.780389709745816382e-04 4.473870006514128472e-01
-1.922617987574125678e-02 1.447847375384281841e-02 4.461682287693048421e-01
9.592715483499844598e-02 3.175801615709518411e-02 4.775477616428259187e-01
3.407027980410501367e-02 4.855416855013598015e-02 4.585008826928974046e-01
5.936826829862194843e-02 1.900552341303552578e-02 4.604138046856927069e-01
6.884771420323859692e-02 1.268813302419294700e-02 5.184813365457308088e-01
8.010787357694032496e-02 2.042152369047559729e-02 4.722260704224805483e-01
8.279923765352791010e-02 5.100824861846408459e-02 4.745088817686589078e-01
7.559296981261297288e-02 1.785815490020889462e-02 5.148229251364154768e-01
1.471817557925212024e-02 9.381984158784703598e-03 4.448325477738096501e-01
-6.399470676755173587e-03 1.483750179194497087e-02 4.441711520082253783e-01
5.672640179088112022e-02 3.535745388482036677e-02 4.607905651094509336e-01
-5.419506816720269689e-03 3.697789741499699773e-02 4.504869449521077263e-01
-5.826787780954972504e-03 -1.321271287021503734e-03 4.396922205345719092e-01
-2.644504743929729576e-02 7.549889686583979506e-03 4.454848575851035886e-01
8.761501080005590358e-02 5.479771296806427994e-02 4.827347423443059671e-01
7.033644801468048879e-02 3.975464469139711882e-02 4.646565067713981922e-01
-1.015272295985355892e-02 2.171015460976317979e-02 4.465642965471538495e-01
1.019032865239941771e-01 3.528597789769712806e-02 4.837006703747955272e-01
8.366630979392558620e-02 3.115599799898980532e-02 5.073299306094375405e-01
3.338251621130253199e-02 3.406268130318855503e-02 4.549844031698058733e-01
8.372635380434576002e-02 2.564369685821801109e-02 5.053401940220215716e-01
7.169478735266518465e-02 1.523042587549944954e-03 4.818585851127420439e-01
7.641036852685799408e-02 8.495179414079675334e-03 4.971111167332576963e-01
1.815907634930873787e-02 5.041554843537193395e-03 4.438558886818005922e-01
-1.290814303863776873e-02 3.796719356439232085e-02 4.518319447718593396e-01
4.018571083099729130e-02 4.675329695963654358e-02 4.589135358819685373e-01
8.048061984619538090e-02 1.398964685321248298e-02 4.819029138329460338e-01
7.739770744628421406e-02 3.996536488318277319e-02 4.674816223847960139e-01
2.264236223801087758e-02 4.302299491873045473e-02 4.548450255249651963e-01
6.549240065141766209e-02 3.257777509190709631e-02 4.629389432638299495e-01
1.346712151719841113e-02 2.493635925729254660e-03 4.422667075895148625e-01
7.723368256322468706e-02 3.554471166819039157e-02 5.124079530580712971e-01
6.642771458982156541e-02 1.790801408973448708e-02 4.641116409375550811e-01
4.179704869516137622e-02 1.845677542736316387e-02 4.531543190810604083e-01
-1.135648747170001083e-02 6.871749880089030212e-03 4.421728603537649072e-01
8.811056088058730196e-02 5.307835460448845355e-02 4.789120303395585920e-01
6.356668750545925450e-02 3.203464737153254027e-02 4.624683952247084506e-01
4.615545684635602441e-02 2.958978545235421351e-02 4.569068770384082656e-01
8.890795671595111416e-02 3.509103597079433340e-02 4.960152914045247718e-01
-1.332432500332367611e-02 3.887601938271874336e-02 4.522290559570651958e-01
2.359811360971643748e-02 4.944133766333157209e-02 4.578688395205940953e-01
9.841677342421110974e-02 3.955709424116586603e-02 4.767934033240073810e-01
8.051831863206532214e-02 2.023672759671547167e-02 5.084087354530907321e-01
1.343463145871898190e-02 2.352213980114319092e-02 4.480957260970656608e-01
7.787512473939574298e-02 9.150963660190854915e-03 4.921012224014504333e-01
2.887991451122733089e-02 2.835670064434850715e-02 4.520682194749778837e-01
2.626480731883050826e-02 2.896870552757419698e-02 4.518548755805083528e-01
6.621408180802035304e-02 7.006019327689598161e-03 5.147055387334106280e-01
2.338155469317652196e-02 1.686514774088008345e-02 4.480785014695261581e-01
9.711166833610064553e-02 4.081142133706272546e-02 4.758635930985967710e-01
-3.564159081151999781e-02 3.151948577243348076e-03 4.438144587831581722e-01
6.890754368140735581e-03 5.449051361284111897e-03 4.427417865444246425e-01
5.270253562681264520e-02 -2.701917126540318882e-03 4.559811208148618067e-01
7.261183195283002489e-02 2.196694725683628197e-02 4.667186010483794778e-01
7.753623411926080511e-02 2.843825000378881127e-02 4.668115514667490196e-01
8.376306960145943337e-02 3.737950663198991857e-02 4.704393668031888187e-01
1.255088594161990652e-02 3.599993301106203109e-02 4.514570574422199778e-01
6.873569044196359279e-02 -5.500802329917493447e-03 4.873234834020532813e-01
8.297897470330775627e-02 1.617091500933592538e-02 4.894134969072937436e-01
-1.536528321237704692e-02 3.027213909321549781e-02 4.501644433584273131e-01
6.639633365695020439e-02 2.663994132200863361e-03 5.082004555458174977e-01
7.360199856837426613e-02 5.098278150998668962e-02 4.706431869740875795e-01
-3.683818327314227620e-02 2.851437113246056265e-03 4.424926640371086850e-01
6.077955384382752874e-02 4.974637516903161055e-02 4.654466022158831318e-01
-5.130438411359133574e-03 1.185857648338047021e-02 4.432710312645540829e-01
3.252818018469565836e-02 8.584981627364339507e-03 4.480751833790362904e-01
8.242181555879429800e-02 1.674473953134595489e-02 4.937218833679771213e-01
7.576314234426212435e-02 2.955135213980712716e-02 4.660524510767124484e-01
-2.114384661188057138e-02 1.254768755573130480e-02 4.458229383747048802e-01
7.746615550459426403e-02 1.122690405995599092e-02 5.001490430549502264e-01
8.481658565356631208e-02 3.681842995444377376e-02 5.044520127768786777e-01
2.258189358339130273e-02 3.594184163062239673e-02 4.533049667999351495e-01
2.223230910308500452e-02 2.955707805616020201e-02 4.512764926453817216e-01
8.800649045520490821e-02 2.390625844415360940e-02 4.860454235957374913e-01
8.217025673783286133e-02 1.598113806650505730e-02 4.820025567814898437e-01
8.320470805565996497e-02 2.507301000533627630e-02 5.062254495954487954e-01
1.752541290844170790e-02 3.780106471767445686e-02 4.528143135539859920e-01
-1.280519269555082523e-02 3.501694247227093298e-02 4.508669947965160407e-01
6.807796533661328309e-02 -1.434516828641919451e-03 4.974723801066723849e-01
7.385074095947177786e-02 3.209377884150747123e-02 4.659353631428174713e-01
3.301588234933769406e-02 5.731104612216016483e-03 4.472308228912885708e-01
4.978991706612946599e-02 4.316733552405700725e-02 4.604968041365596343e-01
6.601210999458881346e-02 1.504600005906243584e-02 5.247616882118280035e-01
3.855341309900429253e-02 -4.157399982952197925e-03 4.472367173007481544e-01
4.817115040672448334e-02 2.058423494185561767e-02 4.557186396018248487e-01
7.496162102476872091e-02 2.150408490297374409e-02 4.680296784695525680e-01
-1.837367572447958994e-02 2.343930521454957311e-02 4.486796371098277780e-01
6.987535236508062020e-02 -8.250372517507726083e-05 4.778808408777492356e-01
6.578619566531215823e-02 1.019590064792732023e-02 5.203826666785090760e-01
8.759259896037395465e-02 5.000713966442818514e-02 4.900615267356744353e-01
-1.736382974205958121e-02 5.408526926541160074e-03 4.417764994635082765e-01
8.316185705831179165e-02 2.395284047696541116e-02 5.054231580549504166e-01
6.106157776581507685e-02 3.909954204797375793e-02 4.622874302903344224e-01
6.174817719553966217e-02 2.059140923351165942e-02 4.616986224668322980e-01
-3.063066667274921655e-03 1.044799472688195258e-02 4.430688466493838407e-01
-1.811828250602325399e-02 2.354973251268460688e-02 4.486054427710994830e-01
6.599472803423202250e-02 2.015206823954358156e-03 5.080563190802426243e-01
-1.628906605947224098e-03 2.634097501730062185e-02 4.478665103108442347e-01
8.099249357385350512e-02 3.415139171078199198e-02 5.110443422346534481e-01
5.377025929530896559e-02 -1.314535013931037583e-02 5.261601972580119968e-01
1.016640087173648482e-01 3.411922336900895247e-02 4.806273939611758195e-01
3.210636071178046141e-02 1.363378651679371389e-02 4.492711933368508936e-01
8.554293171571629439e-02 4.212647864725648644e-02 4.698197733076484028e-01
5.223424377789757239e-02 3.060823849565733057e-02 4.592674764352349115e-01
8.974754028581527487e-02 4.681728208824155468e-02 4.945783874806217173e-01
7.617446672776603811e-02 2.438958717274414614e-02 4.673295023285782279e-01
-9.883291835845032722e-03 3.750848576186136679e-02 4.510090362924877305e-01
7.531544775210925746e-02 7.310396034174355441e-03 4.968956685767508263e-01
7.319717101824330975e-03 2.899375752944600634e-02 4.489225809026762271e-01
6.550657140841092962e-02 1.310427578068993314e-02 5.236379617291521127e-01
1.485311619862541427e-02 1.475556972793172841e-02 4.462777809477855850e-01
3.681250563463220153e-03 3.048086715808380476e-02 4.490912855473108145e-01
4.208202064469900028e-02 3.217985676215091156e-02 4.564027707536164047e-01
6.740039344915516040e-02 4.349104701554897673e-02 4.642679715633409865e-01
9.762496849778491692e-02 4.322870754033258239e-02 4.763998404966205413e-01
8.529204601756343318e-02 4.477611185880342459e-02 5.007860473927664424e-01
6.818110711975930438e-02 -2.899402650186348913e-04 4.736715513931716859e-01
3.269259875322727440e-04 4.275513654407346598e-02 4.518383860554535114e-01
7.671368623846076817e-02 8.862880920931053702e-03 4.830519575188491066e-01
7.980562777265359786e-02 1.502072946494507552e-02 5.016626952592678768e-01
4.577096245713089401e-02 2.311993624317189994e-02 4.554156142620257031e-01
6.989217793233649945e-02 3.748999979646040759e-03 5.015186180285886586e-01
-1.376619993497932987e-02 3.685848612367532973e-02 4.517022276489409682e-01
-4.323662030827046115e-02 1.710244142504363431e-03 4.462593570321874981e-01
7.809246515752102380e-02 1.822080354765431495e-02 4.719485646597496031e-01
5.872242287185602122e-02 1.252463654661914623e-02 4.593353181640285054e-01
-4.237687159062835350e-03 4.439916127894547732e-02 4.531333539039720804e-01
-1.879217531922366263e-02 2.856176489625511516e-02 4.507751346558922512e-01
7.515317923874301198e-02 5.210480014644214980e-02 4.765655564607625405e-01
-1.833556424473088003e-02 2.470577589346645286e-02 4.492001263090895091e-01
-1.784721992625679793e-02 3.289652438567006176e-02 4.519947734002215944e-01
4.460829580924469129e-02 5.341358195445879836e-02 4.650205586902897426e-01
3.587012454171296244e-02 3.391562975868518681e-02 4.554260303673718369e-01
1.230582592079616615e-02 2.765388921786565354e-02 4.490206731058071221e-01
6.700526884736705824e-02 3.314262158320181728e-02 5.214430464696742096e-01
-1.876586321848613265e-02 2.881857333856723685e-02 4.508579992836428407e-01
7.315342086671605681e-02 1.424712521277168333e-02 5.139372568291350474e-01
2.871233985026477170e-02 4.459503119671894000e-02 4.563785689778588339e-01
-2.908429041655689190e-02 5.911214992757188660e-03 4.442552086949373980e-01
5.578721520353584207e-02 3.107607848922668350e-02 4.604990712910633222e-01
9.135777296915767454e-02 3.307527562779463692e-02 4.913069244860318041e-01
1.426770565201053269e-02 1.275503971696012248e-02 4.456868953806500944e-01
3.189491035215097359e-03 -8.988827056771850257e-04 4.404656198721933480e-01
4.171525027777756370e-03 3.950636276277524200e-02 4.512512112277640153e-01
1.862125763098845810e-02 9.894997830234470576e-03 4.455515965368431752e-01
5.478911677715378459e-02 2.183788958587371334e-02 4.585235207502112442e-01
8.679275780466889911e-02 4.706597224047090466e-02 4.979433625310748512e-01
7.937953614799028723e-02 2.682631293533106406e-02 5.144565699396371761e-01
