9.194556137975516685e-02 3.001227589082147706e-02 4.837106174214267362e-01
1.542554772107707431e-04 7.177621035542862404e-03 4.427307470292026759e-01
1.269635526334155287e-02 1.509003550014715624e-02 4.461370290900668056e-01
9.737715326020478235e-02 4.014046604200618290e-02 4.851315908301178093e-01
7.140799992732331514e-02 7.257251966806869091e-03 5.045740794313879896e-01
6.102404450941529418e-02 8.059040438129423320e-03 4.604864878248083326e-01
2.969765130004446002e-02 3.331892051524742299e-03 4.457010007649562788e-01
5.480140533513540302e-02 8.812556877134484004e-03 4.570551119847923727e-01
7.113224736872454657e-02 7.663100767707905873e-03 4.711678757175086774e-01
6.963607618763775764e-02 1.359788777089051756e-03 4.972651587164897968e-01
8.122903510863718757e-02 2.972404994016990959e-02 4.685091781268133637e-01
2.909456065523328278e-02 -1.535079126355973819e-03 4.438448956503072140e-01
7.283546057649073480e-02 7.636477624107809725e-03 4.740270154575836337e-01
-2.065965145763489982e-02 1.713821609209752184e-02 4.476307278684574786e-01
-8.333247638755907766e-03 7.593526511546540986e-03 4.423266937059653348e-01
2.401898426541576592e-02 5.098454975229133740e-02 4.591082113740587167e-01
4.750020309568181442e-02 1.745087002304024706e-02 4.552202913762492531e-01
9.083473287094888382e-02 4.587498658660214834e-02 4.745251292484241046e-01
-3.170648808057364813e-03 8.305324942659864443e-03 4.427138113927782670e-01
-3.957421358725664307e-02 -1.388058585652191847e-03 4.403735724935641804e-01
6.298992588900936829e-02 1.124364708437083915e-02 4.617486053819287450e-01
1.199764542779573409e-02 3.052889782721246448e-02 4.500153640728301596e-01
6.307091534823862367e-02 -3.337308239808861772e-03 5.096161003775702136e-01
7.236763102768713207e-02 4.510145011901499877e-03 4.780586984005133488e-01
1.740014458394240071e-02 4.488040994499074149e-02 4.549114831169429052e-01
3.441322250097048757e-02 3.942309142424665208e-02 4.564621549972640580e-01
2.553026664883590365e-03 4.413384225212055312e-02 4.530091543070919324e-01
8.970934800468848003e-02 4.696265526173573623e-02 4.945690169573435657e-01
3.740985177892502955e-02 2.881218753357334822e-02 4.542391606012617933e-01
-4.075371250936042633e-02 2.649766785526903954e-03 4.430406823797883309e-01
7.827308024831479416e-02 1.574624881374363239e-02 5.064823232623857363e-01
7.773423075035074126e-02 3.143322601983875031e-02 4.673169040049826028e-01
5.626395979832856525e-02 -6.413189968608667794e-03 5.216332696188542561e-01
9.272591023515291964e-02 4.722405331345091301e-02 4.778617622501534212e-01
5.286004437179463167e-02 -1.044890856630851031e-03 4.560573579209424300e-01
7.956703743401374873e-02 2.674567005162495348e-02 4.683448236187638392e-01
-4.132647289671692592e-02 1.132976560401683123e-03 4.415062266244813016e-01
3.903276778719350082e-02 2.305225826735290279e-02 4.532524138612655240e-01
-1.774676650122202978e-02 2.746128098269141199e-02 4.500264868969637844e-01
-7.573752005049252251e-03 1.628760712016832576e-03 4.406220327915628676e-01
6.880356460106237804e-02 4.535046663338534317e-03 4.701515377532661799e-01
5.349299021810924315e-02 9.399557108422995633e-03 4.565140187174065445e-01
5.725319460367601920e-02 1.695837784324813122e-02 4.592813111196651366e-01
9.850586272979022784e-02 3.847130703253850287e-02 4.858397544537968460e-01
7.608797810546556739e-02 1.198731430254795088e-02 4.752688495538472391e-01
4.320314425788753659e-02 6.630912887406782696e-04 4.505546164462784775e-01
9.337647791076643389e-02 3.845940704255838144e-02 4.738910287890758521e-01
6.148780321746873806e-02 1.883836530563586659e-02 4.618581625698484072e-01
5.630068536399551044e-02 7.060888410693476162e-03 4.576367416711993319e-01
1.713064189690764391e-02 1.176930555965090622e-02 4.459018516709573610e-01
3.421673109000259588e-02 2.199461916699322131e-03 4.468469239506596691e-01
6.520689351024633318e-02 5.212300971693782647e-02 4.701593606388550506e-01
7.976217526035839223e-02 3.350786937452460840e-02 5.126844817630116236e-01
8.262642744847553677e-02 4.380332634979064443e-02 5.040694507263326907e-01
6.270217854473260355e-02 4.364188744663234643e-02 4.633803246749008120e-01
8.795554963748111743e-02 2.605154760213605064e-02 4.915089017519571613e-01
3.092232864375117976e-02 3.179429805413899052e-02 4.537776946427595770e-01
9.954533686157954198e-02 3.561778490623776494e-02 4.794882634210885231e-01
8.617946432225218056e-02 2.175088571269936238e-02 4.867711287035680900e-01
5.625567482285478288e-02 -7.501529018502767730e-03 4.608134670984143644e-01
8.393701256498461993e-02 2.037216306262812360e-02 4.936163004166611024e-01
5.056553144890600648e-02 -1.333440300710399436e-02 5.292612498452207159e-01
5.582078844305162629e-02 2.292576652701998688e-02 4.592847736340680553e-01
8.710561949925928193e-02 4.413338372304343588e-02 5.001163488595057327e-01
3.667740513267229302e-02 2.571041121515222835e-02 4.532018255339027024e-01
1.943617900397728512e-02 3.968737696764774309e-02 4.536969250965307565e-01
3.537006684214358959e-02 4.875446162956055540e-02 4.589259078019803928e-01
7.503246450533609946e-02 2.395087730199201015e-02 5.206476629744406504e-01
6.340023253949597648e-02 4.774862819584366896e-03 5.171005064033769028e-01
2.278200127225729968e-02 3.685284126237221153e-02 4.537517465774160708e-01
7.421882071117479052e-02 1.355224803375329294e-02 5.108091865652816255e-01
8.194513421287683008e-02 4.982436274371844498e-02 4.972686575211050508e-01
8.740260307742105106e-02 4.210544848307898325e-02 4.997932049739532978e-01
-3.244489556770623062e-02 -1.679499596242178990e-04 4.405565112092916791e-01
5.068761644207803174e-02 3.929051790526980059e-02 4.601756618644420871e-01
4.371917389184799829e-02 8.822013118819700683e-03 4.518314760321822665e-01
1.927861558753112339e-02 4.035293554754374595e-02 4.538013275378919298e-01
-1.147017627670980297e-02 3.019222794721123163e-02 4.492999361159283889e-01
7.482251767585181013e-02 4.589398622140228312e-02 4.680456450950065683e-01
8.279158926228195881e-02 2.752491351662422411e-02 5.078185184754360204e-01
8.686333875424187556e-02 2.850794342003649950e-02 4.725910655695093054e-01
7.049871941664639929e-02 1.369517092786078517e-03 4.776697875659234871e-01
7.687550865590674076e-02 2.655131427312412695e-02 5.189548556891440123e-01
7.729944332371890825e-02 4.395823430330075832e-02 4.682921255247355918e-01
4.171102618885780267e-02 1.461076778183319734e-02 4.524646121447857272e-01
8.089761278457686944e-02 3.017982628529491604e-02 5.122012623490552752e-01
6.211195936962971009e-02 6.633774974542509459e-03 4.615830052187265831e-01
4.939236719716247337e-02 4.070071976126541508e-02 4.601075561765107791e-01
4.180696764397922455e-02 3.774071061240592134e-02 4.577740182090887511e-01
2.862736967597264565e-02 1.673376827035854761e-02 4.492028676868526360e-01
7.680832047518514061e-02 1.653353125385519443e-02 4.721648478123718906e-01
1.359941623344936359e-02 1.206247193502155146e-02 4.454739209418822066e-01
4.750186572854071809e-02 3.317169549214780966e-02 4.582837365038756050e-01
5.723041223499616276e-02 3.544931956346687729e-02 4.611494890758328080e-01
2.084178740253178272e-02 7.321881369656812674e-03 4.452219194750379749e-01
4.047372663734802312e-02 5.794562583892698578e-03 4.499234378948628876e-01
5.586315093291704774e-03 2.069671032750376727e-02 4.464989648283319568e-01
8.382658074927551439e-03 2.192328231525687496e-02 4.471430421528452270e-01
8.188488682719270717e-02 1.445161873391223595e-02 4.876286911170614191e-01
2.461311926357184852e-04 2.904855131832906681e-02 4.486612205618280003e-01
6.456594517751157447e-02 7.373798101029963026e-03 4.633336553679043845e-01
3.621555747104697465e-02 4.908004093434788218e-02 4.592244795337929175e-01
2.668984283998798029e-02 2.576050082353996754e-03 4.447075218474566549e-01
7.858168891899794395e-02 3.132000788818077586e-02 5.151089146850539313e-01
7.563472172450390330e-02 5.230634175053600066e-02 4.748260256714074701e-01
5.973032089358955299e-02 9.051816066189299556e-03 4.594336337177366003e-01
8.403491926170106319e-02 1.950532515905329181e-02 4.775823908577518373e-01
4.403829907354442352e-02 5.280823177335174784e-04 4.509298455037313302e-01
9.311325490291826046e-02 3.710982342609800422e-02 4.735568766471157098e-01
7.775901675220824039e-02 9.406700029811924241e-03 4.948497907112132110e-01
3.246852799182145533e-02 1.086255530591196880e-02 4.488787628462181933e-01
3.896190970593664538e-02 3.960178948076401029e-02 4.575790444165725446e-01
7.351515492763660564e-02 4.204913548755091941e-03 4.903847142751762700e-01
6.916489710033231486e-02 -3.570190199845809167e-03 4.888604846837558138e-01
5.088905028925925361e-02 1.647673148054405387e-02 4.564064731975520095e-01
6.893321401069371634e-02 9.021985982314310783e-04 4.983073722157091434e-01
2.812244419077831320e-02 3.482965146828397029e-02 4.543361449236419380e-01
6.805602480786243635e-02 1.303968232573442416e-02 5.199446893231270961e-01
8.506724586004059396e-02 3.276927011877934365e-02 5.047140453246070635e-01
8.651274996591272470e-02 2.511801034189365539e-02 4.942780029682991572e-01
1.791603807774135720e-02 5.783035400554521581e-03 4.441228732342817342e-01
3.800553983609882697e-02 5.099523569270388718e-02 4.603928308797376467e-01
7.416403375790700525e-02 3.100181211564699210e-02 5.206840014864626554e-01
8.159119961752531180e-02 5.124467311635066968e-02 4.745902001973403284e-01
6.757822049541345986e-03 7.375542973613142921e-03 4.432563179341070803e-01
8.532177093604703666e-02 2.534609988911413342e-02 4.983930006456938622e-01
9.666036221879144297e-02 3.386563319404891498e-02 4.860340438604809354e-01
1.847095064643521772e-02 1.412596573568609092e-02 4.466997059352762478e-01
6.053887897681614616e-02 1.271693737742400979e-02 4.604650025949069136e-01
5.980428578520076421e-02 2.812596575458426590e-02 4.615154788984111578e-01
-7.712866940948043953e-03 9.914587585065862824e-03 4.428424032379502662e-01
7.550815717561894236e-02 1.087467110197427519e-02 5.043062030229922277e-01
3.526215101296827081e-02 8.901844066510889580e-03 4.488961013743774653e-01
2.404442635800489031e-02 4.268501024983872155e-02 4.551956620072407089e-01
6.913931513046696342e-02 -3.321387382223884785e-03 4.895042540161565481e-01
7.636641693292899047e-02 9.493068616141259880e-03 4.994729593719245409e-01
1.227071006206164640e-02 2.501017666829865108e-02 4.483825426721548268e-01
6.577165770253430577e-02 1.995787182909021865e-02 4.637640319759292473e-01
9.615134098953491415e-02 3.148825064872987078e-02 4.829467343562733883e-01
6.803047712657810109e-02 -3.985755998140231822e-04 4.982498605334433339e-01
6.371371393473683475e-02 1.258687984391903061e-02 4.623913373807520544e-01
2.060392834510050772e-02 2.932429913508645750e-03 4.436361878559352823e-01
7.187847125311304375e-02 7.431601203606923341e-03 5.039487341942517906e-01
2.901936410642281042e-02 3.275092244426140720e-02 4.538082410187979643e-01
8.543862296581630766e-02 2.123043485630475569e-02 4.894899182958566408e-01
8.312799280738798757e-02 3.273937282005640742e-02 5.084021174078309224e-01
7.324665318506620726e-02 5.221805851185455649e-02 4.751037194306388933e-01
-4.087816221295736269e-02 1.989648917436324070e-03 4.418064779983049140e-01
6.328098608245527612e-03 4.882238765184153395e-02 4.595914473687539026e-01
7.153458746604553220e-02 3.347831587971912548e-02 4.656664395397610567e-01
7.651079195280469092e-02 3.298907584365112777e-02 4.674055981350840328e-01
1.133487956128351182e-02 2.899412158911035542e-02 4.494550649298766909e-01
8.666819116699508996e-02 2.381573976656698940e-02 4.911442795488910051e-01
7.902289819203529853e-02 3.028770430882761835e-02 5.154089404720803014e-01
7.733694468240452646e-02 1.003789258862085310e-02 4.834850453067717768e-01
5.779052993908514319e-02 5.129879933141907877e-03 4.587425216364270364e-01
6.284759305164742960e-02 -5.148317612992545089e-03 5.091682528775474115e-01
7.438396356372536933e-02 7.684047090332333900e-03 4.780926915893913831e-01
4.127226413604381805e-02 4.742454847469777801e-02 4.594645832261323171e-01
8.164656207857087789e-02 1.566047886063949568e-02 4.942134156100472242e-01
5.450664275770462919e-02 -1.018272003951141771e-02 5.246776715127169366e-01
1.954108615527128806e-02 3.460560960825317250e-02 4.524406400529293326e-01
-1.798664616579844291e-02 -2.842908466565196093e-04 4.403302552376354151e-01
1.954710220730879189e-02 3.088314247625658163e-02 4.512157723684058208e-01
2.101965607213012940e-02 1.020073435992059543e-03 4.430636775302095876e-01
4.688648435690629529e-02 2.151049676958604120e-02 4.555618186196807029e-01
6.124658897034444133e-02 2.356576626047599335e-02 4.617352730881348899e-01
8.635017262871941268e-02 2.140073425077484298e-02 4.828509130900457413e-01
6.890634635131021035e-02 2.107521741827173261e-03 5.007413716841764284e-01
5.586678376148680736e-02 2.742543873055821105e-02 4.604298382116065458e-01
8.635730911466553417e-02 5.036841563610389844e-02 4.908075000950499756e-01
1.482959605430190370e-02 2.619150937848927982e-02 4.489936532072861808e-01
8.570788425911254893e-02 3.737393601553382766e-02 4.712963333004450694e-01
4.256584720382546733e-02 2.944945727131520474e-02 4.559182423385399474e-01
8.499298166644239649e-02 2.712734593300374433e-02 5.026267995559884350e-01
8.511246884749960884e-02 2.449920278266586732e-02 4.975488710180223650e-01
7.813657168196000424e-02 3.079686443774330359e-02 5.157569322473439799e-01
6.475576825442808104e-02 3.736666624566638891e-03 4.651895405473087663e-01
2.996221952637451516e-02 3.931397729523181117e-03 4.459725160893553420e-01
4.194463655411554553e-02 5.463286463500961754e-02 4.681932760480577160e-01
8.236154998870723332e-02 2.633845098093709480e-02 5.082686929613934312e-01
9.530615573416877095e-02 4.401336282640074676e-02 4.843389002086659900e-01
-1.911551689428628992e-02 3.280815830481831341e-02 4.526135579684005816e-01
6.060686377419883392e-02 -9.050420210996168446e-03 4.676597267425207094e-01
6.951429229761807438e-02 -1.963270915210140778e-03 4.813053889000660224e-01
1.708983761955164965e-02 1.890809012630571481e-02 4.476931984833645850e-01
6.269186999748424527e-02 2.548697453965833443e-02 4.623273149214461863e-01
6.844012704124421975e-02 4.765875415826038679e-03 4.693915874343483896e-01
3.908554756184789980e-02 5.429884946533779233e-02 4.646221387168158468e-01
6.934957644071203242e-02 4.498463478052181462e-03 5.038627631614184255e-01
6.786917720784095553e-02 5.614966914799316691e-04 4.724906669252390556e-01
2.034177763103744638e-02 -1.859961146269619066e-03 4.420662969051262770e-01
8.080027463634235907e-02 2.378418693891752936e-02 4.707282431137991274e-01
8.146328687496569299e-02 1.952767842736185394e-02 4.747785615777336266e-01
8.723637360140283625e-02 3.796754120144145428e-02 5.004368073865287370e-01
8.833116154370125594e-02 2.453111634915110945e-02 4.842927265910983436e-01
6.481013844782956834e-02 4.361721796293278192e-02 4.639012855035092309e-01
9.420789320204037143e-02 3.095706722760331597e-02 4.834384215739686019e-01
4.043914131528995870e-02 4.852946751581443952e-02 4.597325425663527643e-01
6.492110680569390668e-02 1.200565963395431625e-02 5.232577951104800951e-01
5.085913402808921874e-02 -5.208694339717857835e-04 4.547354379345437403e-01
1.249085202087628355e-02 4.937369486589512912e-02 4.595995934838150720e-01
3.345522855532263168e-02 4.966496093940388212e-02 4.589888101908130569e-01
4.045960145774367411e-02 1.352438718273266290e-02 4.517711701819768777e-01
3.668078500948343534e-02 4.000801973615186746e-02 4.571185431162926860e-01
3.919824155109050134e-02 -3.998618958010880485e-03 4.477555263759946391e-01
4.889250684443566253e-02 7.748323928822783979e-03 4.541204304880981368e-01
2.045862168892025046e-02 5.100100785370226264e-02 4.592021463355858701e-01
1.754390888127652440e-02 2.841904642235294591e-03 4.430045499682912502e-01
9.636084998658753231e-02 3.268013620039534467e-02 4.781787399245012726e-01
7.654092159272056495e-02 1.012137555336889948e-02 5.003034932865395579e-01
8.732143794875675546e-02 2.805359673818629690e-02 4.733609770063506583e-01
7.283748957694891057e-02 6.242761562394583477e-03 4.995976277756555839e-01
4.492762647235145484e-02 2.019808212921304913e-02 4.545392806763329796e-01
8.867838813875169798e-03 4.431307980246800698e-02 4.533823959745952314e-01
8.198932425715449446e-02 1.600918721297618294e-02 4.825816842348596980e-01
4.985849726404541216e-02 7.763448564404411278e-05 4.540528633011645110e-01
7.141246227869781082e-02 2.928163228848743721e-02 4.648412578893844627e-01
8.444541908489995585e-02 2.685634324479567805e-02 5.040052273353670120e-01
6.972469008022029457e-02 4.701372424251974019e-02 4.669397228849030412e-01
-3.071652519081925249e-03 1.481918092959834746e-02 4.441360721786430932e-01
-2.614821418464981576e-02 1.030735281330499679e-02 4.468379462369562738e-01
-1.740178635916964089e-02 2.878067813971408456e-02 4.503789170665615793e-01
5.263781124581004556e-02 4.005648030893758232e-02 4.606784519357335350e-01
1.987851232052387576e-02 3.002638000171740842e-03 4.435187975099045832e-01
5.754386520447993952e-02 3.010066130328786088e-02 4.611618391326952615e-01
2.099498195062301717e-02 2.666271313863585388e-02 4.501629201134988434e-01
1.287322844842958558e-02 3.024799800704426958e-02 4.500583974213290261e-01
4.508422822402369939e-03 4.501938802852995664e-02 4.537230068559295892e-01
-3.852926208848692080e-02 3.116205041181376815e-03 4.457899264276256601e-01
4.996895240825313667e-02 1.937910949222788892e-02 4.563992344870049234e-01
8.362234064992390969e-02 2.096001073385147032e-02 4.966084716050621628e-01
5.840365025729291754e-02 3.012114829929047818e-02 4.613610623480728368e-01
9.630070743806359856e-02 4.208464677615100097e-02 4.760215514513844726e-01
6.780518466576791747e-02 1.348166606189458300e-02 4.654402208223356596e-01
6.352787245978369982e-03 4.891076256895981328e-02 4.604138748271303649e-01
6.618271029338675115e-02 4.471600956546100541e-02 4.644532951079868299e-01
-2.853083895639628442e-02 6.377491126474055944e-03 4.452799358224865389e-01
6.760108438258977115e-02 7.461982593869245263e-03 5.127224564044505772e-01
1.616163637474639370e-02 2.557998151439843000e-03 4.426397979326415211e-01
-6.093422348436200280e-03 2.887979409581458226e-02 4.485899562587710721e-01
6.776095657664218952e-02 5.257319415829422860e-03 4.679212335458798333e-01
2.397106408085099977e-02 3.717953207101807461e-03 4.445732602889135854e-01
4.831809346930703714e-02 -1.101220450347207246e-02 5.308730641059510313e-01
1.200528479307412695e-02 4.167511139745822685e-02 4.530161597330011336e-01
-1.555260099099710878e-02 3.590233380413783426e-02 4.520971748839877069e-01
8.440225118765948276e-02 4.926215619557407915e-02 4.726377723973154699e-01
8.284085376006333767e-03 2.067666690876991328e-02 4.468427707678827021e-01
8.024061437051180357e-02 2.566286101142054715e-02 5.122531095902977949e-01
-5.626832173860084330e-03 4.870275072599589833e-04 4.403974091115142597e-01
6.404620823396876828e-02 6.652878906587217714e-04 5.099565995986016231e-01
8.705498216336195194e-02 3.674938078093326760e-02 4.715001384827440800e-01
1.801626377307411972e-02 4.539671845406508151e-03 4.436998687523822094e-01
-4.215405194646183740e-02 2.591845576402561704e-03 4.421440155675467332e-01
8.005563819241974521e-02 2.394099289392217708e-02 5.119917581215774893e-01
7.591816536457439424e-02 8.990860861853099129e-03 4.806288842092342750e-01
1.659472416948093443e-02 1.003834314988130000e-02 4.453683045877876445e-01
2.932067152355654488e-02 3.713361296410758877e-02 4.550385846637688414e-01
3.627988776762221951e-02 5.514375089643912264e-02 4.663813366352699830e-01
3.293309788337907273e-02 1.165113399387729398e-02 4.491739943527317536e-01
7.099534556591260981e-02 -2.535953690564684507e-04 4.887070521419722424e-01
1.020167205613660699e-01 3.425456435039909292e-02 4.830788974867616381e-01
5.658340929816270404e-02 2.840159552766741147e-02 4.607726447077556409e-01
6.875864867150872917e-02 1.663374440346100745e-03 5.002790463652816433e-01
7.958328752355758873e-02 1.634552175959528425e-02 4.759360645806267609e-01
3.687862446230836394e-02 1.953406055307757572e-02 4.519669108523805545e-01
-2.636851153659284380e-02 5.102935142281368394e-04 4.404444758214228761e-01
3.683159517257693361e-02 5.482304123164211118e-02 4.653078113746747513e-01
4.976284285157298731e-02 4.893256939715401321e-02 4.618180254495856674e-01
5.544582129522813985e-02 5.122595947147901702e-02 4.684501948419328432e-01
4.229038547303209244e-02 9.482658297453983032e-03 4.513401727360740745e-01
5.071817072651359920e-02 -1.063562965515040676e-02 5.283858355096071602e-01
8.541592300033200302e-02 2.740214514713021701e-02 5.017016681226624808e-01
7.867802618107339052e-02 3.579488351826834447e-02 4.696068022930174335e-01
8.041406880260214274e-02 1.324920960303190356e-02 4.851573556463613102e-01
7.496325834287308199e-02 2.078669136774000462e-02 5.184117723132053435e-01
-2.612789245639450531e-02 2.550264435385220935e-04 4.403142568559744174e-01
5.461607221048490890e-02 4.206706288067269678e-02 4.613593683857956651e-01
-7.196528305301454903e-03 1.980282213115945947e-02 4.457663240850064934e-01
-1.306375584927578840e-02 9.728352990599573730e-04 4.403831870201990739e-01
4.023967000956680390e-02 3.020539771544955131e-03 4.493959316595605435e-01
5.236889796680525844e-02 5.569295816559185000e-03 4.556588293428718850e-01
9.620272237935574566e-02 3.010115905153340141e-02 4.783541369504064056e-01
-2.096800854932454397e-02 1.797237254108853197e-02 4.478435823702066054e-01
4.794619603542540562e-05 1.910045033397383962e-02 4.455524229660495217e-01
5.983230530892436061e-02 4.406338646274056935e-03 4.603305105383529994e-01
1.204908180431069585e-02 3.038795709459479050e-02 4.499834656459357762e-01
9.186206080362994963e-02 3.416194085320410634e-02 4.905547172315630200e-01
9.400500370395950545e-02 4.373250213251046736e-02 4.902972668792197064e-01
9.306045884283949132e-02 4.626154664329305138e-02 4.902668822964335038e-01
7.084820853136553076e-02 1.367497362707301503e-02 4.674144720565283073e-01
-2.062797464339366504e-02 2.036768380242828802e-02 4.485430146542210839e-01
9.451592530658797786e-02 4.540827807198865446e-02 4.784866316162909028e-01
4.612993726325065325e-02 4.614729179307587581e-02 4.604272280952075302e-01
6.319237480609357638e-02 1.161658910192243932e-02 4.619279717707128197e-01
-2.771289111501903588e-02 2.931226927724360758e-03 4.416585907908802677e-01
6.259701465013177424e-02 -3.681387160056311461e-03 4.666963385634663730e-01
-1.799652902890840761e-02 1.917077986804311199e-02 4.474479821678556402e-01
7.143359944600222167e-02 6.320474920449391590e-03 4.729347626423862638e-01
8.400919327496413069e-02 2.691933407330565631e-02 4.711604715642255248e-01
4.633319340222162575e-02 -5.593743830396825933e-03 4.522252830150147451e-01
7.483218677488764903e-02 1.011373633218594706e-02 5.042706827128945468e-01
4.459461045383836253e-02 1.888156828909958937e-02 4.542609416749385232e-01
3.462655718409414496e-02 1.811822675079013956e-02 4.510805596741878087e-01
2.598396113693364137e-02 5.190758704231314413e-02 4.606092905625222556e-01
8.182063815547320484e-02 1.502812546596088775e-02 4.917461654565867257e-01
6.397411831001632854e-02 5.656141422383144249e-04 5.099674001099314680e-01
1.317796481292945847e-02 7.953083299672918105e-03 4.441884180152209094e-01
4.782895061201521136e-02 5.118872365134682911e-02 4.631376001827637312e-01
8.601564023013184151e-03 3.435711209235638164e-02 4.506130222024944953e-01
6.587213385325621506e-02 1.102346452291842575e-02 5.210544611880331134e-01
8.997956542083068721e-02 3.491245054035227446e-02 4.943074817222055661e-01
5.751174095786391188e-02 1.344922341984047462e-02 4.589547325390002652e-01
4.514663992803863435e-02 2.717289778824020369e-02 4.563745124536224829e-01
-8.306035532370862479e-03 -1.161066137100441121e-03 4.395189914632906536e-01
2.610160957921383446e-02 4.097668182195458864e-03 4.451721358691439479e-01
7.703266305871121766e-02 2.916934905279368329e-02 5.188995397571952717e-01
8.185313812871582162e-02 1.535208528134537724e-02 4.923513909334800709e-01
1.250137100410102925e-02 4.041010752967585246e-02 4.527248281274043329e-01
5.364464727172738034e-02 -4.604450833478744738e-03 4.573580329993677807e-01
1.054708218878214546e-02 9.004927117325128155e-03 4.441906695935216587e-01
7.110307586567859994e-02 3.352812400445932817e-02 5.178659334157876826e-01
8.244486014353293035e-02 1.751602070066597683e-02 4.779726891262380262e-01
7.381792149353584576e-02 7.103207713232608661e-03 4.774230572422002439e-01
2.002436280980095587e-02 7.466708463048738961e-04 4.427962575761206221e-01
8.347266525776431828e-03 4.878958500619124533e-02 4.594302947897443423e-01
8.641961937982876873e-02 2.257216447634950371e-02 4.887707775178998237e-01
1.003625693377539624e-01 4.099505347658166654e-02 4.790483759286137122e-01
2.537989037338623383e-02 3.983048214881773630e-02 4.548387910678929336e-01
8.281806748642100979e-02 2.228627310821899160e-02 5.042448038407298938e-01
4.812320306023783190e-02 2.453541425602130677e-02 4.567938772734762010e-01
9.095300186389368435e-02 3.251908095460753767e-02 4.731691569504326011e-01
8.008095471391327158e-02 2.273850482150090169e-02 5.115963830874451501e-01
7.908155932429399015e-02 4.413448450823390101e-02 4.688668163807750977e-01
7.889268349255972035e-02 1.367677299363176738e-02 5.006831547485098843e-01
6.935699213223606163e-02 2.190068665414181270e-02 5.259684604682762776e-01
7.336345450319704808e-02 4.872129241617640522e-02 4.688273017860943859e-01
3.422963406825606930e-02 -4.951682628978637188e-03 4.446597854918941661e-01
7.132765542499922007e-02 3.244268492247368019e-02 4.653288509490214886e-01
-1.649087115189432767e-02 2.514148136526906524e-02 4.486416334865104827e-01
8.824881376979651360e-02 5.370860163496642137e-02 4.854068678946258375e-01
2.809547340373345567e-02 1.688228701564497419e-02 4.491043854668753665e-01
9.382517297759869479e-02 4.705769718171340377e-02 4.862307171274995454e-01
2.781819591733415697e-02 3.294723739646569088e-02 4.536471524623336138e-01
-1.329880450917444654e-02 2.988487500156064569e-02 4.493413375440526991e-01
-1.817311377571172865e-02 -1.549993179815243802e-03 4.398146209047065769e-01
9.480138430389790580e-03 1.703287280047796962e-02 4.461573608501100408e-01
9.891939090216103625e-02 3.374212706655386335e-02 4.842577666498834588e-01
8.232273203745827522e-03 4.411264799416377003e-02 4.532133662498163962e-01
8.238793443661796001e-02 1.777816550078972421e-02 4.776331944155189912e-01
7.681817609426690174e-02 3.352888199140077741e-02 5.150746962767003279e-01
-6.997568752283682414e-04 8.431687172138586581e-04 4.408258262430161945e-01
2.940658898510583458e-02 5.075546109844536469e-02 4.590953602226838792e-01
4.964740555820079670e-02 2.072164676865344626e-02 4.564761536306800593e-01
3.446227483717800161e-02 7.831997426278405200e-03 4.483558449512246025e-01
3.668754877875602532e-02 3.041845292012549176e-02 4.544505877575432673e-01
6.725205961023837664e-02 6.048529105822713844e-03 5.110181789398696717e-01
5.202515952144897565e-02 1.218074331952643218e-02 4.563754667052331571e-01
8.384472790996556901e-02 4.243252582158155151e-02 4.697131569528716355e-01
5.597519512119972229e-02 -9.393196342878183669e-03 5.228889727672857424e-01
6.065643519509909820e-02 4.675529635724470778e-03 4.608771570565499687e-01
8.696487026351228111e-02 3.762739497607769934e-02 4.715027937766669286e-01
6.236983759072606270e-02 1.084278702479934270e-02 4.613090991317269629e-01
6.858760844823064140e-02 5.092191989653845063e-02 4.682759910712497864e-01
6.445937486076092071e-02 6.464545023147303662e-05 5.083871614890703716e-01
6.815982042282657527e-02 1.061635483763820678e-02 4.658302141763576154e-01
5.467120111705217611e-02 -7.136765443693062969e-03 4.589325826325421076e-01
2.898871450932584762e-02 1.816677410073394214e-02 4.496732842250830697e-01
-9.852255590620476872e-03 2.523066939133897235e-02 4.477023267705066423e-01
3.250573158258510814e-02 4.916646351073050702e-02 4.586068615531778692e-01
4.532878824462614059e-02 1.698887234190847584e-02 4.543306413396934751e-01
3.566785631401699075e-02 7.415177107964573272e-03 4.485849443354529842e-01
6.724309915129095261e-02 4.203107706132021976e-02 4.642162070462755863e-01
9.297694567009823219e-02 4.857651327593470042e-02 4.816710671620187401e-01
6.999677030292976443e-02 6.956840125849648136e-03 5.072379357699156044e-01
7.726996982926102875e-02 3.285625164020933298e-02 5.151483214913608055e-01
-1.513730399710361101e-02 3.619583468314647307e-02 4.520235197417146189e-01
1.048612829191561055e-02 2.295922537220826051e-02 4.476537255135368265e-01
-1.161179620741178108e-02 2.653068206828858300e-02 4.480541880405443655e-01
7.740731101226365485e-02 1.713696574076375295e-02 4.724349996969547383e-01
8.071373388057087594e-02 1.780851400335090734e-02 4.757910790268446433e-01
9.733074304218980455e-02 3.527187380888312240e-02 4.778992945758969713e-01
4.614209873075742971e-03 1.617049153608343670e-02 4.453167805379354416e-01
4.173856762609140514e-02 3.540654786514336322e-02 4.572088299648152665e-01
7.104282668258864175e-02 3.800500674893186187e-02 4.655194287086475424e-01
8.267566717650540187e-02 4.266971737028895512e-02 5.051834579376831558e-01
-8.286572553774879113e-03 4.383890640599220900e-02 4.541983195208138535e-01
1.864934023569387103e-02 2.122899038658779963e-02 4.484651537879611460e-01
3.583504484678642216e-02 -5.242261429930640364e-04 4.466901511344474329e-01
8.798151161868239534e-02 2.551206492520992700e-02 4.901300826691208923e-01
-3.947726841368772582e-02 -5.793806710133640129e-04 4.406254487484211335e-01
1.452891996502222310e-02 -4.320330412489179796e-04 4.414212440495863810e-01
7.235723782613966149e-02 1.908025196875173541e-03 4.885430120204661275e-01
6.337941081089822071e-02 2.033741154901316447e-02 4.625972118199073724e-01
7.647123679485007264e-02 7.800747727208042284e-03 4.898352980802863077e-01
7.307385429713104952e-02 2.472147296429565849e-02 4.661038112602863825e-01
3.665179319105067723e-02 1.725785090056448923e-03 4.477541959773798097e-01
8.736574400860577794e-02 3.005065472746035540e-02 4.718657429555772054e-01
4.303576543754090294e-02 -2.185753909583755018e-03 4.501233141062900289e-01
6.317415721499962389e-02 2.571291957099149095e-02 4.624593675218255373e-01
-8.525260643087194390e-03 1.667850958404282560e-02 4.448145340840150008e-01
-6.637097066084847452e-03 6.841345299899020960e-03 4.422000512672126238e-01
3.439622105888989756e-02 7.463788669041111420e-03 4.482123171546785190e-01
6.363920292288219316e-02 3.778230842067666767e-02 4.630736251540772952e-01
5.433171407964883931e-02 3.968348205806740414e-02 4.609713301955949971e-01
6.839391331867919477e-02 1.500764123740338206e-02 4.657397465223702127e-01
-8.711503227679932848e-03 1.197207463949446701e-02 4.434300234789531059e-01
2.330025303941516551e-02 -6.264257580656867278e-04 4.429432018646668467e-01
8.178185021518653841e-02 1.576006760091964651e-02 4.937211208998144030e-01
7.231544162683979649e-02 3.918633494968368734e-03 4.953531377665828517e-01
8.469958726948224881e-02 2.552242968696154593e-02 4.728308012792433734e-01
6.922792047148808303e-02 -3.734050174367707165e-04 4.770874503879086181e-01
5.106626893771465392e-02 3.345372651278857856e-02 4.593344736086726332e-01
6.841776780233269073e-02 -4.031192215640386906e-03 4.804540435554467415e-01
4.637512073307546029e-02 8.020479645075587194e-03 4.529417618220424324e-01
7.285812585133980002e-02 4.222863099168068513e-02 4.662725187450201814e-01
9.561186110914321468e-02 3.397713785148224336e-02 4.771558508113933894e-01
8.597658588372197874e-02 3.161314083249429363e-02 5.026160508526368309e-01
-9.507748423358188677e-03 2.787765975214091980e-03 4.408526179316341054e-01
3.174021631290454420e-02 5.548684213257060183e-02 4.645798606886436533e-01
-4.041448406409182958e-02 -6.138427605857951601e-04 4.407725096818143062e-01
5.175469640157668444e-02 5.145446296946191295e-02 4.661705652227427499e-01
1.230395677515193700e-03 3.469899933416664001e-02 4.500478777246750273e-01
6.166965436745032447e-03 2.587667729634358232e-02 4.478898877644690857e-01
5.452239797993129605e-02 2.565777218260902742e-02 4.594802785233237374e-01
9.128862606921643585e-02 3.043086950918079056e-02 4.857979103240807062e-01
-1.375046611526146642e-02 1.181933330602179776e-02 4.437823859142912553e-01
5.720316880962007106e-02 -1.436679238994995403e-04 4.589593269750215643e-01
8.893302046496408264e-02 5.348548791994028884e-02 4.843543426873346824e-01
2.188565271486914154e-02 1.488519572578640877e-02 4.474148705753430155e-01
1.423040515039796124e-02 1.582442964105144900e-02 4.465354099529590948e-01
8.430603641377543145e-02 1.845765010427017142e-02 4.876998463109188386e-01
7.710561161665835384e-02 1.035490037158811119e-02 4.989972504178595281e-01
2.934537906904871596e-02 3.489299391066474215e-02 4.546250032031058930e-01
7.792545314413060198e-02 1.634958608044121200e-02 4.738005302235950289e-01
7.701379603607702573e-02 9.299216784940115416e-03 4.840807106902625945e-01
4.937347569178653084e-02 5.185732030468968856e-02 4.644660575544466985e-01
3.620069276662357671e-02 3.602093442888417568e-02 4.562243906328884990e-01
9.654772845717117524e-02 4.065484862484654988e-02 4.855754781798032327e-01
8.710877556590461424e-02 2.261762637515221316e-02 4.838647054018604399e-01
-1.950616237911647829e-02 2.150335400363343613e-02 4.484657568702655750e-01
7.219857592139297675e-02 4.532278760686744151e-02 4.669172579071466100e-01
2.641828989154661189e-02 1.573936887834611817e-02 4.484681616970625506e-01
5.462254962248897644e-02 7.097978018664910342e-04 4.570801811896708644e-01
6.339706467143818580e-02 5.131316919665986770e-02 4.695723793389644518e-01
7.926739294917665990e-02 4.785290425215921878e-02 4.703077277941036805e-01
1.593060555468859760e-02 -3.040369814173715657e-04 4.417189824983242530e-01
-1.397330434162578905e-02 3.911978441201410805e-02 4.525219895265666925e-01
-1.456464908817781123e-02 1.196999272873256262e-02 4.440170551939937593e-01
8.108444114320689788e-02 1.447591522704584285e-02 4.838749433505675768e-01
8.125555264326586591e-02 1.835544823276680226e-02 4.757969081270378431e-01
5.456580823297480648e-02 4.331076654592153768e-02 4.616129195302616228e-01
7.165489315446735286e-02 2.523242542231733665e-03 4.796314191149211870e-01
7.226493588974196303e-02 1.452942181031808069e-02 5.157315455992059761e-01
6.776643686011409040e-02 -4.775304213619726255e-03 4.786484919902098678e-01
4.882018715985064761e-02 1.302483598019905930e-02 4.551597085803716913e-01
2.807755792325602323e-02 2.276481203417663260e-02 4.506464181252486378e-01
4.894477495848067322e-02 -2.141021659977640143e-04 4.534831305335114138e-01
9.331936416471608986e-02 3.998432899913235972e-02 4.737985479075812467e-01
-1.043685036831314833e-02 2.692225012211843863e-02 4.481681366539688738e-01
8.489708911318870344e-02 2.377663325066734640e-02 4.743192748050727436e-01
5.355213040193129020e-02 -5.483650104908277881e-03 4.575198383025262383e-01
5.712583286571346064e-02 4.946008894521040922e-02 4.643927452356574337e-01
6.351857827194896944e-02 -3.446387442476230543e-03 5.086095703327493389e-01
4.174759838687882446e-02 1.260780862428170085e-02 4.519476601366642643e-01
6.391604322205762800e-02 3.251033850430728837e-03 4.645878583090929381e-01
-2.659839534166228564e-02 -3.169147543071234446e-04 4.401077118227777474e-01
8.024492334747540534e-02 2.042281521860835752e-02 5.089540998882655654e-01
3.347730583574042018e-02 5.276806789777149787e-02 4.609262082778713965e-01
3.333574914536797940e-02 -1.753163153029734141e-04 4.457365138335887544e-01
3.090385232211451203e-03 4.352466719279575458e-02 4.525908421312079821e-01
-4.789319401399842399e-04 1.567021905757716091e-02 4.445556793212380731e-01
-4.851619079573519372e-03 2.040224294439233962e-02 4.459164995638937867e-01
8.753407328666272524e-02 5.495499575007942866e-02 4.801627384905141627e-01
8.851657168511062324e-02 3.570601876122857232e-02 4.716644065079210746e-01
8.354956605392580005e-02 5.228815557833794980e-02 4.885912195911846778e-01
8.698810572507356675e-02 2.828150450798178409e-02 4.728911169888732058e-01
8.429213417982017731e-02 1.989649940127864725e-02 4.912150112993891038e-01
2.422301209741858571e-02 7.581401233779991658e-03 4.459701959735024035e-01
-1.000955848159916853e-02 4.029998256132554663e-02 4.523608136963728210e-01
2.760180774970828754e-02 5.260356734983465815e-02 4.617230053840388759e-01
6.588181927550883221e-02 5.235071127464806934e-02 4.709684655556800048e-01
6.719038928714451964e-02 -3.013756826705273496e-03 4.746431285628870400e-01
5.035558366869533758e-02 1.263633558595629244e-02 4.557445183416736212e-01
-3.767415126696194855e-02 6.003253258541800877e-04 4.410364720334803978e-01
-1.143465076709932957e-02 9.166369682996890547e-03 4.427741343147907904e-01
-8.581495844714504689e-03 3.280974767780494433e-02 4.498139233671022419e-01
4.876475345169557774e-02 2.447271068507534536e-02 4.570148608666450007e-01
-1.717254168978632478e-02 4.739900280657126028e-03 4.415478239635366453e-01
5.295663024176808231e-02 3.045801446031961429e-02 4.596926108133739253e-01
6.944792549074815802e-02 4.895182106720403353e-02 4.677131303863099610e-01
8.747158066107822705e-02 2.405458008025285546e-02 4.879834458215190907e-01
8.534217279408040646e-02 2.048118673727281416e-02 4.880151103627877185e-01
7.371627494039140194e-02 4.297254209056276808e-02 4.668662225463198756e-01
2.785480346075179872e-02 4.919765664962277851e-02 4.582387895278568490e-01
4.135765758512981172e-02 8.736882515433964241e-03 4.508446839169252818e-01
3.376839625650126381e-02 9.230495678971708737e-03 4.486522588134554956e-01
3.890635674950088108e-02 6.379970346926956346e-03 4.495064535887488000e-01
7.363668668575072684e-02 2.348839175755577588e-02 5.220323319123333361e-01
8.600567420877312796e-02 4.872907049830714488e-02 4.959308473727289113e-01
