-1.989560737438580279e-02 1.984292659905157602e-02 4.480302115249494843e-01
7.523651178604853773e-02 8.027525988921053318e-03 4.824490493928298429e-01
-1.303457792276304684e-02 2.771387479396237100e-02 4.485085562083446775e-01
5.737955962959960347e-03 3.199080648660467679e-02 4.498548916032161782e-01
7.268840521011553368e-02 4.290987702175028812e-02 4.670361473700150312e-01
-1.319652586165471521e-02 -1.072705735018482029e-03 4.394566579502394710e-01
7.635584714545465279e-02 1.169318623812933347e-02 5.031310426780022382e-01
6.654029495588002774e-02 3.495177124562549864e-02 4.641821598088872181e-01
6.837511805212656557e-02 1.300901826310902135e-02 4.663054510849839462e-01
6.624435824722355037e-02 5.266357737412946660e-02 4.731689075159344893e-01
1.497756934512895453e-02 3.850572814562472357e-02 4.528876006278672040e-01
-1.413153016041262741e-02 2.070550951085535843e-02 4.469285600374356959e-01
6.064279295838379685e-02 2.684576121346207017e-02 4.621152572098624622e-01
-1.189874163815430458e-04 1.075294997873420949e-02 4.435692805803258532e-01
5.357170289451762546e-02 4.290168967862279664e-02 4.617825069033422714e-01
1.011555748255980741e-01 3.865828358821758043e-02 4.829391298344109518e-01
5.949963544486870648e-02 -3.829440636668679510e-03 4.629864855475470664e-01
8.939620503300008125e-02 2.783585859144925567e-02 4.768272511351694942e-01
5.981460604919550117e-02 -8.397355842435406600e-03 4.665044104107467504e-01
6.821261759025726290e-02 -4.338360438783907952e-03 4.931138518109037805e-01
8.111865255838628108e-02 1.640967446488855036e-02 4.805298471878250433e-01
6.881983949175859983e-02 3.201699261699979954e-02 4.645901412062674596e-01
2.469355462014991009e-02 4.809603885281924125e-03 4.452186708743906540e-01
2.356604830650614255e-02 3.859909653283104605e-04 4.434063494823766161e-01
2.360758914973108691e-02 1.687086917201709863e-02 4.483667464873752895e-01
7.531967956424905075e-02 2.635616897404628386e-02 4.673866415665402507e-01
-2.574149908863104796e-02 2.590733868464407605e-03 4.413160205621884380e-01
3.843246980160652110e-02 2.170806527331565344e-02 4.530304895697820911e-01
4.369717279441284047e-02 3.633679099281364455e-02 4.582671809810742181e-01
-1.712287670566624981e-02 2.385115071059574349e-02 4.483628263144208703e-01
3.839255528655323435e-02 2.955971039119248064e-02 4.550241861316022263e-01
6.362747704764000478e-02 -4.139908347247687505e-03 5.077602651972872305e-01
3.110748882915669034e-02 3.574731483035291715e-03 4.462238389498216495e-01
5.585354934821077505e-02 -1.011273898220658475e-02 5.232231116382852765e-01
5.745890379877294923e-02 3.263792653715074515e-02 4.617056974427848348e-01
8.507221687646616959e-02 5.052589831493842915e-02 4.928534021151551592e-01
7.852795214365584919e-02 1.207611096878036597e-02 4.842172283436435021e-01
7.804187364328929455e-02 2.593348035272399765e-02 4.687786519855967060e-01
5.443220229248305064e-02 3.486731345358044798e-02 4.608137588528014583e-01
1.179897143671255685e-02 1.204717208059909866e-02 4.453416490577421505e-01
7.333033248111708868e-02 4.666617154783102642e-03 4.913462479623674772e-01
4.945988574405425081e-02 -1.622492444607894239e-03 4.541749901627251673e-01
-1.377493521236805053e-03 2.660994905586496623e-02 4.481435473844279094e-01
6.353808813483460827e-02 2.544483386670957220e-02 4.631248493965279822e-01
4.414275511171814742e-02 1.911541377755092766e-02 4.544274484888616850e-01
5.210460742909221211e-03 6.441125158834890355e-03 4.430137926151767047e-01
2.361218830100679858e-02 -2.071574640426467571e-03 4.426607845576438494e-01
6.683255886420651215e-02 5.260933741753275050e-02 4.737382626557531951e-01
5.343920290627279107e-02 1.198609682738015214e-03 4.565780318838952856e-01
4.641283684354922945e-03 2.814342294900416125e-02 4.487236424623314290e-01
1.010105577310468905e-01 3.447708234816510009e-02 4.833616864741733798e-01
6.875104460416744945e-02 -1.673851808482429947e-03 4.943729924446791379e-01
2.479435339141232778e-03 3.551663714283479628e-02 4.504858039255735247e-01
8.166600805918061701e-02 1.704016370725820739e-02 4.950520127953966787e-01
4.687950664860317598e-03 7.751959029512974636e-03 4.432889942678938655e-01
9.114091434917512280e-02 4.684120729928317045e-02 4.760076151772409947e-01
-8.789512360554821435e-03 1.323070508495433756e-02 4.438712903331880621e-01
4.325258606412726858e-02 2.788432256713847812e-02 4.561997627456290672e-01
-1.062273652439264457e-02 2.974791947375976520e-02 4.491497865332375050e-01
7.138725322265691842e-02 1.600130767620264877e-02 4.678980478939978038e-01
5.329077007693185097e-02 4.092804387669479738e-02 4.613975103764337282e-01
2.638244957511487812e-02 3.884319278812493198e-02 4.551314071872003542e-01
6.695230225974387051e-02 4.992321513234427265e-03 4.676903710769474976e-01
6.424934157967919501e-02 4.985495887922667194e-03 4.644202613998132390e-01
-2.783196601872323442e-02 -6.777069156570832836e-04 4.400818248741703020e-01
7.778382594782240478e-02 1.289741445683442039e-02 4.795923143717258919e-01
6.772262526954020423e-02 1.174371572098851547e-02 5.187669329956166031e-01
3.537488373400422131e-02 6.312712441253055633e-03 4.484088425142100931e-01
4.458409443970705321e-02 2.041917636536389868e-03 4.517579846420637368e-01
-3.290757309469440582e-03 4.457450994706188552e-02 4.533167232145459136e-01
-1.108079868306057272e-02 3.585309380355188036e-02 4.509326591705956067e-01
7.174015477772364979e-02 3.541013025990803753e-02 4.668321088292276544e-01
9.492620290648223769e-02 4.542889367635549736e-02 4.772803301663530173e-01
4.054293755464458138e-02 3.627904831332955798e-02 4.574780561037726234e-01
8.726879652472725735e-02 4.391463640856671513e-02 4.994949965133440029e-01
-8.241230106881528364e-03 3.136615651959649004e-02 4.495049203655361869e-01
3.011832998830340016e-02 6.943087807754638047e-03 4.471896564401045548e-01
4.102429508460873550e-03 4.463376335584647026e-02 4.536402363666067750e-01
7.621791237489114468e-02 3.050193903066911877e-02 5.187549614491894223e-01
7.313758552883155295e-02 5.213809603668019890e-03 4.953292529458353521e-01
6.113122030247817446e-02 3.224362976051803331e-02 4.626260697446077930e-01
6.618743678251431950e-02 3.158107422632434186e-02 4.637644192453075909e-01
7.802020530077780069e-03 4.864111471535119413e-02 4.575444590420730817e-01
4.093758384412992529e-02 4.511674532992715481e-02 4.594554654359152557e-01
5.469097233822957371e-02 3.083678269137528349e-02 4.607704380494566654e-01
8.087734009259489598e-02 5.122554957223433847e-02 4.746243547345679326e-01
6.116089051745242540e-03 3.135528937028946028e-02 4.497115332267571097e-01
2.407708343855547578e-02 3.286260737819783617e-02 4.530817440949290731e-01
4.731982331217247928e-02 -6.303811463147252631e-03 4.532107510666855688e-01
9.137832089772456035e-02 5.022870769566995658e-02 4.826895829400114080e-01
3.593502894151453381e-02 4.139129809602180854e-02 4.576112661376554591e-01
1.850569313713553571e-02 1.684555675498220287e-02 4.475727753505528983e-01
8.207948369063983868e-03 1.322966706901509450e-02 4.451679478227967834e-01
5.018233212487195616e-02 1.237759632770094390e-02 4.558921989672222175e-01
1.332340637588735541e-02 7.232091787833726595e-03 4.440671353508312547e-01
2.985009545413415052e-02 3.058163975960776285e-02 4.533918864088580247e-01
9.454289948813859347e-04 4.515930946529338186e-02 4.539022975782918690e-01
6.621796217128068929e-02 5.228408436540891990e-02 4.689028108870252898e-01
1.436998396625097964e-02 1.503174407088530423e-02 4.464860321574857793e-01
8.000147731748770419e-02 2.490628963472178714e-02 5.120088888615834666e-01
6.927642090206273529e-02 1.138226052347666648e-02 5.157608352101124005e-01
7.501531984396497821e-02 2.193005423045453137e-02 5.190569903193082979e-01
7.158190148799804808e-02 1.627296976430188391e-02 5.182991095633791012e-01
9.733394206179902391e-05 1.535435514612035028e-02 4.446762886603835563e-01
7.542914787583974122e-03 3.825309823103007628e-02 4.516698938787624962e-01
6.959199350260483752e-02 1.417346162673326082e-02 5.185688958991199193e-01
6.465713606874352870e-02 7.606713452393057233e-03 5.183718420110968728e-01
6.926425643765954376e-02 1.801355903647717735e-02 5.232285446995735834e-01
7.694249063864205818e-03 1.743736448551590212e-02 4.461474860662865138e-01
8.313466710051349573e-02 4.541790848498217931e-02 5.026255652812892105e-01
4.987775820620519995e-02 2.044157950496039086e-02 4.568563647840714892e-01
7.804120295666773510e-02 1.662282945811442356e-02 5.075707504791930891e-01
8.850061577123027878e-02 2.610283456922854461e-02 4.803702948542966089e-01
9.629041546791061723e-02 4.353632474132224095e-02 4.828203166924292522e-01
-5.787910145865678320e-03 7.946191703640304027e-03 4.425232636563078970e-01
8.262129229990111678e-02 4.033408754602865048e-02 4.704887271273965887e-01
7.362853985498002407e-02 4.449446633928671839e-03 4.868211728693742080e-01
6.575666070106464534e-02 4.642017758822628015e-02 4.656569996792486177e-01
3.341344466639817323e-02 4.611205254059509706e-02 4.583480669602064128e-01
7.333686402721921460e-02 2.242948231625626135e-02 5.214835117681861920e-01
2.967973688533996623e-02 4.980652985343309719e-02 4.589063343094836322e-01
4.903371860253100123e-02 -4.928287150366998312e-03 4.541890677633257933e-01
5.903069377886879104e-02 2.018310058658797854e-02 4.609317140031617410e-01
5.297100907331839942e-02 -5.892675686862022116e-03 4.574115609067229693e-01
4.962311710058459752e-02 -1.500595478671972946e-02 5.302981925969867394e-01
2.975111796556843130e-02 1.733695109530337952e-02 4.498608702065358678e-01
6.446322685644813311e-02 1.135195667150720907e-02 5.230745930778628594e-01
4.547994579478348981e-02 2.680287162272497817e-02 4.567496153074589449e-01
5.971809343219347532e-02 -5.614598353758533042e-03 4.644421874503050218e-01
8.567644294884123324e-02 3.071802783931429012e-02 5.021124135312706738e-01
7.899495215583338115e-02 2.769393952270433196e-02 4.686627620504770220e-01
9.818619352051678739e-02 4.349619396304316848e-02 4.804849120007853025e-01
8.968741540162017412e-02 3.166354653361670018e-02 4.916520836082822754e-01
5.275999165362161430e-03 -1.331898438645897145e-03 4.405466487465701242e-01
7.730052905100300020e-02 1.925376953075475656e-02 4.718181787803636951e-01
6.817701988481555953e-02 1.032992307203339441e-02 5.160819357946636599e-01
3.699308124634631827e-04 4.250743950552732936e-02 4.519519216784532167e-01
7.000208982410083269e-02 4.217320076970831888e-02 4.656433315965819442e-01
4.428646517426373073e-03 2.415459305908437826e-02 4.474117992573221070e-01
3.999247120007787260e-02 2.379506135488911739e-02 4.540519804266485160e-01
2.884141871049913583e-02 5.231505243530856775e-02 4.609273368101342028e-01
7.240126554469888953e-02 5.271352136735614480e-02 4.752795776565279517e-01
7.787193497679875676e-02 1.005011737950636981e-02 4.899563768408191078e-01
4.315045465426534804e-02 5.415048546201178814e-02 4.664963906522806569e-01
6.662794896230395114e-02 1.759442420732471035e-02 4.649726968826586315e-01
8.240974016618698994e-02 3.674840692794277552e-02 4.713023656325334709e-01
6.182953401867794657e-02 -1.705739364942550091e-03 5.130612559938503292e-01
7.531449650218736969e-02 7.894701431986662216e-03 4.966595671621552577e-01
8.291028787374796205e-02 2.507471792029161706e-02 5.056878579020940290e-01
9.500538425263645170e-02 3.958694700909912850e-02 4.759138879509789422e-01
4.964930599391472604e-02 5.244923019215096821e-02 4.674388501954311326e-01
7.656905433173609443e-02 2.019245350048702592e-02 5.149934851263565649e-01
-7.826337205674360406e-03 4.306505252241547843e-02 4.532721353914310192e-01
8.607461606025060274e-02 4.429112962287737321e-02 4.715766617882961032e-01
5.670189692126143682e-02 3.163381997352534419e-02 4.614863758965800922e-01
3.457827309425125922e-02 2.513963902634843914e-02 4.528245224854300366e-01
6.397670674290618920e-02 4.717359816325579491e-02 4.654770635837702786e-01
8.204920452793465491e-02 4.883492098075271209e-02 4.995870495886077789e-01
7.769390191433024617e-02 1.005064561698201450e-02 4.948903237786521636e-01
9.146401386442071235e-02 3.406407603160779840e-02 4.896506922400665762e-01
3.503700931734046037e-02 1.867753685908880509e-02 4.515488128523976741e-01
4.484113074631422211e-03 1.929047639735976399e-02 4.461773810317047895e-01
9.060475674208817720e-02 4.255312275566854041e-02 4.739806447209150009e-01
7.897800848893715697e-02 1.342597781976473913e-02 4.979227546090236878e-01
3.927264876586279707e-02 1.668034929459273619e-02 4.524423454329793426e-01
4.216373160591657676e-02 3.251333025739251703e-02 4.570142440774874193e-01
9.466227818199698940e-02 2.998517481373628307e-02 4.800317921279323441e-01
1.840946575595342125e-02 7.668801532943103974e-03 4.449490930133439548e-01
7.232541156386425307e-02 1.218607890954948904e-02 5.115413343628893994e-01
4.643595667869526711e-02 4.735883656568286304e-02 4.612154751167147904e-01
6.788090824358708475e-02 2.755019869072307219e-03 5.038106151688976908e-01
3.814692172245654628e-02 1.901139414396209662e-02 4.525527123570203258e-01
4.809349252620202797e-02 6.222056851262398360e-03 4.538353503551776358e-01
2.588065118046410651e-02 2.572464054849865275e-02 4.510524228022420590e-01
2.630874254550917210e-02 3.140387189729831798e-03 4.449602910105850961e-01
8.696366154278087346e-02 2.875984848720485737e-02 4.739363716645860203e-01
-1.951268388649243096e-02 1.442401640450048303e-02 4.462865433013412653e-01
5.812163529318010308e-02 5.218957939171788712e-02 4.709491730047396518e-01
3.620964196387284340e-02 2.929264332793695552e-02 4.543032528436735107e-01
6.471188052620015230e-02 1.312158360660571621e-04 4.682520796310133959e-01
6.863530943566502340e-02 9.729027564529871969e-03 4.667990523103314193e-01
9.426102315759191108e-02 4.475998937429999380e-02 4.869731430144054185e-01
4.582367555999801445e-02 3.659109334627046184e-02 4.588378878427086249e-01
4.219372753665226461e-03 2.027446431131827917e-02 4.463754781367689772e-01
1.965394610396341279e-02 3.595651664750137283e-02 4.531809658943860564e-01
7.826929804776611155e-02 1.324844944321541644e-02 4.801626625557962602e-01
6.944776973559767252e-02 -1.258683596435591044e-03 4.808740542470870682e-01
8.474354127946975845e-03 4.236267656687466715e-02 4.529259788924183128e-01
7.186999796185430944e-02 6.877070519255909856e-03 5.022974561331143839e-01
2.139891939245962965e-02 4.282477820507876037e-02 4.550519593105654126e-01
-1.288212658367969554e-02 5.864367696568267146e-03 4.419570200747598432e-01
8.609233756171054408e-02 3.909901898657031777e-02 5.021115506432283215e-01
8.345937040011959518e-02 5.082227815384687819e-02 4.933447869634203231e-01
-1.389761186008546187e-02 2.469108075620476614e-02 4.478227761496865189e-01
7.124126696540999948e-02 8.614760264825686506e-03 5.071809110916249974e-01
3.677308753046944906e-02 2.907148532392992216e-02 4.544306846432071278e-01
6.694028460343626197e-02 6.124518622749545310e-04 5.024004171752505243e-01
1.470521078528615926e-03 3.548349748231349049e-02 4.504316928345237225e-01
4.396567893705816826e-02 3.506810494581448501e-02 4.581263916247626522e-01
4.190577352796172328e-02 1.644916055785157830e-02 4.532276954098923838e-01
7.520135842271327697e-02 2.560962263498885172e-02 4.675385066001156442e-01
1.384211533567523966e-02 4.695818474591932634e-02 4.559651673239968894e-01
1.751307236717792627e-03 1.875340854058817237e-03 4.413994666858073734e-01
3.376426813087039791e-02 3.737649083010088219e-02 4.562800961193556604e-01
5.887168134015683535e-02 -5.514971173941852697e-03 4.631896956708509427e-01
-3.928455791444959017e-03 1.493966389829685763e-02 4.442699433998997249e-01
9.607998001812754346e-03 4.957849249288101730e-03 4.429475812460348938e-01
8.179714954450070796e-02 3.853933087191958179e-02 5.078609364346758914e-01
8.694653020720007064e-02 2.361570598227134832e-02 4.849121653959760359e-01
4.376793206274733061e-02 2.762287038896250879e-02 4.563307963824943525e-01
9.277461364262433452e-02 4.748393747034361512e-02 4.795590960013468296e-01
8.090780076577074043e-02 2.806903357979827207e-02 4.693955359450042719e-01
6.610221335847350776e-02 4.710859007400485660e-02 4.661816818337871648e-01
4.998017559458156622e-02 3.502985112618760971e-02 4.596600747911089857e-01
1.018982569306920057e-03 2.113268648972613933e-02 4.463614250577215281e-01
6.064989125204253012e-02 -5.677100044171662016e-04 4.630805805803460684e-01
8.516557745241445931e-02 3.399696495761866943e-02 5.040626506726025857e-01
5.890072167600513692e-02 -5.187630997973003213e-03 5.175784934498297574e-01
6.668751699156726109e-02 6.875696448112277037e-04 5.031723273311261568e-01
9.421501791332953513e-02 4.364218907752624721e-02 4.898251467675330817e-01
5.799591581179128208e-02 3.228282827271829192e-02 4.618644106311465825e-01
5.809187896078384789e-02 -4.832576320161287124e-03 4.618581243710392359e-01
8.106098711437470516e-02 3.461309478584569804e-02 5.103768378917628024e-01
6.387022692648458566e-02 4.439274310121570088e-02 4.643616572590510971e-01
3.171784486931879254e-02 3.028223775564331186e-02 4.536022072423161466e-01
7.119841252257652631e-02 1.171447464642216829e-02 5.128558901213211563e-01
6.981447359882084203e-02 1.153807248652675976e-02 5.150328167985979144e-01
7.097777780694218552e-02 1.117108194218757386e-02 5.123523648823974375e-01
5.394713543156702540e-02 4.876622408641044515e-02 4.633036379721815479e-01
5.955527976364219378e-02 -8.377713228496426814e-03 4.661206431960814855e-01
6.837083849460107166e-02 5.217751565902446070e-02 4.694509106659863207e-01
-2.882377063457097419e-03 4.567217371142594240e-02 4.545441435665435459e-01
8.934182295322516676e-02 3.616493386801362259e-02 4.954701996044537093e-01
7.802391563029212329e-02 1.290605882854846051e-02 5.002348823658513410e-01
5.535603630022074839e-02 2.681564480236199588e-02 4.604691583926439624e-01
2.489408115920338158e-02 4.798322508888416132e-02 4.578727621874482123e-01
-4.009801821180954302e-03 3.200108085275137071e-02 4.494645063754783565e-01
5.685014723234815825e-02 1.885929179650184737e-02 4.596951107262444158e-01
7.554324099931142289e-02 1.622646426966454711e-02 4.718915283843782005e-01
9.538730468265378681e-02 4.289518354639024894e-02 4.766121618043076547e-01
9.420401171384493177e-02 3.674822349602020755e-02 4.755689960896635760e-01
6.141912801557670304e-02 -6.294582478331579162e-03 4.672984900762426341e-01
3.815689577291540846e-02 9.178141113944951468e-03 4.500351942350266365e-01
8.339476953038413298e-02 1.977460476855624760e-02 4.925670939953225580e-01
6.794591732283467023e-02 -2.098231632569890880e-03 4.966986370576930709e-01
1.144237185485955360e-03 6.126333041454712358e-03 4.426450422781300631e-01
-5.338475825748976653e-03 2.590240291555423631e-03 4.411831412996815027e-01
6.968429037729695352e-02 5.275644141181682484e-02 4.732379344791390885e-01
9.020409053199081317e-02 4.682348799770143927e-02 4.945609451026828363e-01
3.421259564894636729e-02 1.018907103457808959e-02 4.492356490875643038e-01
2.155135976919797178e-02 1.279483980615195651e-02 4.469703372676497866e-01
9.858627644813974800e-02 4.260985252476708063e-02 4.820825040865432398e-01
9.561846284589797795e-02 4.505800383844169033e-02 4.777591503756770108e-01
-5.256427355706763671e-03 1.168572814612234972e-02 4.433391694168457575e-01
9.179770983874170620e-02 4.417431511332158001e-02 4.748415109309010451e-01
3.598436781811258089e-02 4.399501954587707597e-03 4.482362694168643968e-01
8.152051814336072622e-02 1.534112902049621432e-02 4.860303969333160667e-01
9.331878816595828852e-02 4.781265125577499608e-02 4.826744773655256004e-01
8.212335080156389633e-02 2.530785780200402527e-02 5.077851603608100062e-01
6.466072516672079218e-02 2.243137536588310499e-02 4.635584307728380926e-01
2.567522905995225577e-02 1.307859649685429171e-02 4.479673963672740067e-01
8.003842716164252802e-02 5.249088312173067622e-02 4.876425935340348850e-01
8.212371638980291155e-02 3.062989777506220854e-02 4.696881264172423909e-01
8.566780315499698817e-02 2.481714430983435887e-02 4.754392523945855098e-01
8.829216656902050264e-02 5.532467234641542941e-02 4.833076991197618466e-01
6.620539197481303817e-02 1.070889321397579252e-02 5.199625365068828442e-01
7.223767068382198897e-02 7.819967764529693610e-03 5.035137689620048373e-01
3.773018319595107528e-02 -1.293882504204523290e-03 4.475321336059442934e-01
-6.345094881352089308e-03 9.285588847339101663e-04 4.405368284202845763e-01
7.393198037844470050e-02 6.465842740628755664e-03 4.966757156281444985e-01
5.381409265065163761e-02 1.091363483000944330e-02 4.571150980880684944e-01
9.067231057840104136e-02 5.100246639052902209e-02 4.820677713570747369e-01
7.744595386055934394e-02 1.625305881219061069e-02 4.744091298350749386e-01
4.565239731144001001e-02 -5.640791810650988211e-03 4.519847549915699259e-01
3.738099632279261869e-02 4.257265261126135132e-03 4.487831108595105034e-01
5.218309838676302853e-02 2.342929578621708725e-02 4.583790509673059677e-01
7.512672021998846594e-02 2.079069551970753188e-02 4.692946655838340364e-01
8.996932125838562333e-02 4.201402138247867235e-02 4.956570345438024439e-01
5.970597102580520697e-03 3.209955919741072639e-02 4.499144717300937457e-01
7.073501049726654832e-02 3.002028218627416159e-02 5.257394871179430496e-01
5.442255223447119150e-02 5.188791637757778075e-02 4.701059886739167859e-01
9.470982461585926437e-02 3.653203594095724704e-02 4.890995588933905736e-01
6.045365515779946297e-02 4.368813089708325353e-02 4.633553379682816553e-01
-2.111585836439122416e-03 2.120123617700519873e-03 4.412229566068381348e-01
3.616306948267629037e-03 4.836419714239174883e-02 4.565244769611911946e-01
6.857350350274084294e-02 3.568929796028382645e-02 4.653525189600675183e-01
6.125055424184688152e-02 -3.252358961403137554e-03 5.133118595366725767e-01
8.325592373211351815e-02 4.580610703230531683e-02 4.712245418995267277e-01
2.914300443782191427e-02 -3.952379327078698983e-03 4.433700587221978684e-01
7.965442781632700586e-02 1.391057107796150535e-02 4.829361045807668562e-01
1.730638615200722624e-02 2.917338274504314641e-02 4.504862875569567437e-01
7.592234288439536627e-02 2.653487393641669467e-02 5.202337271330915724e-01
8.788918423835265226e-02 4.992487382909711890e-02 4.922057396671948859e-01
7.721971444588904276e-02 1.857535767047838529e-02 5.119218265720575367e-01
1.638569847611775349e-02 -2.523840023089544450e-03 4.412192151038675791e-01
4.889607572776213246e-02 5.239168268955235463e-02 4.658914940481817535e-01
6.911822799401098893e-02 -2.678386152171314660e-03 4.828484295549363980e-01
-2.758431152917753537e-03 1.077473887034214456e-02 4.433140898135682906e-01
6.875619574337386852e-02 2.446705446402658302e-02 4.650008991860056229e-01
6.914498560059346988e-02 -2.477627205697070095e-03 4.901226278909241452e-01
1.825212895772660923e-02 4.058220764774560230e-02 4.539634729113745104e-01
6.985484610994822929e-02 1.960894437167178678e-04 4.790978989758466478e-01
7.710858724146422982e-02 1.268237708990721177e-02 5.030217435927778480e-01
8.556322661224868842e-02 5.272030654964024454e-02 4.777034406928655774e-01
6.901647037407912522e-02 -2.516288789291745882e-03 4.906658640762888712e-01
7.863933756022123411e-03 1.847706280526874648e-02 4.464272099019290785e-01
7.822261529976380634e-02 2.637178136677837542e-02 5.160298212277945051e-01
8.008497680233316041e-02 1.405117473864340473e-02 4.945613374555263286e-01
4.499283176540506968e-02 1.165136459171566864e-03 4.517921538142588012e-01
5.605902576191389847e-02 3.357523453010194392e-02 4.612919312204418198e-01
1.068197341119310820e-02 2.129114103749566583e-02 4.474615209662446969e-01
8.497814950589489824e-02 2.118605913646583877e-02 4.891587130624348023e-01
7.473359591358394449e-02 4.671678008089498457e-02 4.689141669512386090e-01
8.246674376224057135e-02 5.010582047166207975e-02 4.967574073293411496e-01
7.599746338729782003e-02 1.483093929165525855e-02 4.734236063605185008e-01
8.671732143432160644e-02 3.105573898528955074e-02 4.997916437339855467e-01
6.317565861794376125e-02 4.289636934519868924e-04 4.659573695205704302e-01
5.041492968210798710e-03 9.998916248803866452e-03 4.438682176237074839e-01
6.933050289344497297e-02 5.219629118026929138e-02 4.705112598237889410e-01
7.779908855756177688e-02 3.273013601806091383e-02 5.150826819926597189e-01
7.112150946377991667e-02 1.731431543124920674e-02 5.199909796040400600e-01
-1.826655930940037503e-02 2.461024036225619230e-02 4.491695570437363449e-01
3.574259601352233751e-02 1.329959931178858329e-02 4.505076306044726309e-01
5.015832991153173354e-02 -3.742576531434747833e-03 5.262740235188339000e-01
7.788183464533969536e-02 1.995219341336864488e-02 5.123303065129227729e-01
8.709664472084946429e-02 2.716740198770089057e-02 4.943576463505903740e-01
6.572774050772522969e-02 -5.460600623567716909e-03 5.011863665295956949e-01
6.786470970116015300e-02 9.750390377541849618e-03 4.661080266912172587e-01
-8.747093293073635728e-03 4.102518757778290254e-02 4.521637222684718460e-01
3.627105735056457281e-02 1.104250023699457524e-02 4.500182186518623673e-01
-1.407863824355065283e-02 1.551650014990932011e-02 4.452559914293091614e-01
1.124801661616277489e-02 4.049416924291599634e-02 4.528189530785073913e-01
-1.551920741817180982e-02 3.311707336990878103e-02 4.512803485056903208e-01
5.609574968250272131e-02 1.781169101279040518e-02 4.592402820853722090e-01
7.505893050139750278e-02 6.419357618744660210e-03 4.868388695121204091e-01
5.717477979594010745e-02 1.968818714891801963e-02 4.599784783252759968e-01
7.820420711396579294e-02 1.963567640561856772e-02 4.726083890310734947e-01
2.043131136811841483e-02 1.462110862962377744e-02 4.472810014853640936e-01
6.352812582428255146e-03 4.013399941883564331e-02 4.519993108170331508e-01
9.394802433761439975e-02 4.494839096178648852e-02 4.883268897607296322e-01
7.134792981894667874e-02 6.322339949069002811e-03 5.020986400579349196e-01
7.427433419700636696e-02 1.010901508106355415e-02 5.045329352993275229e-01
6.907343425077046295e-02 -1.593898553542559722e-03 4.794816652900783516e-01
2.861243132031692296e-02 1.618425249414510297e-02 4.492670287986244571e-01
3.979990971774580166e-02 1.837983979256917373e-03 4.493341574841425712e-01
3.999609232890680155e-02 1.879221857679526722e-02 4.530646930002094064e-01
4.780433841540351891e-02 2.447497184039585869e-02 4.569934747631448912e-01
9.733103933609252301e-03 4.104183833835149675e-02 4.527356318010898883e-01
9.257277660841516098e-02 3.117805684933944860e-02 4.773391917165822895e-01
9.375364132077726453e-02 4.646293154673381692e-02 4.862909054305694645e-01
5.822665751198975032e-02 2.889264637610543252e-03 4.597880287315569414e-01
1.601912454683697071e-02 4.613215859697299831e-02 4.556380687987180989e-01
9.071692110049425772e-02 5.079626467156309055e-02 4.866724242042687054e-01
1.123380799914987065e-02 7.603736801206625179e-03 4.439126537855613841e-01
5.450957789308168155e-02 -9.998758556578566173e-03 5.246323389487431710e-01
8.557248869746889031e-02 5.135573039097565684e-02 4.757217593638122244e-01
8.365819255803712273e-02 2.542741246178795850e-02 5.038078473675547952e-01
6.863836015747920571e-02 2.954006303077960638e-02 4.644523651481991533e-01
8.836936881310950009e-02 2.777914295145854015e-02 4.759026350816137896e-01
-3.950324566056090739e-03 3.579875405764890856e-02 4.502920377977599475e-01
6.586864589245913781e-02 6.469964917277738932e-03 5.139157662122108006e-01
7.067121810676445237e-02 5.075699942606272386e-02 4.694276174769105303e-01
7.824092068798728372e-02 2.836568573528005371e-02 5.165343218663078773e-01
3.243662155632987681e-02 4.358647805036693079e-02 4.573954529661855006e-01
6.493206555748155806e-02 -7.046829970839729902e-04 5.062543839816755487e-01
8.173204127570425637e-02 2.605377305206332816e-02 4.710630948147216945e-01
7.394591113004966854e-02 7.487651982655868683e-03 4.788654101363621352e-01
7.635930368323003148e-02 1.286413070753641974e-02 5.051918167346916011e-01
2.791137965351088088e-02 1.435494205704392762e-02 4.487417123770284233e-01
8.840933476173383487e-02 2.614178716795443128e-02 4.859884162344679237e-01
-4.362357849831813295e-02 -1.118592613641573603e-03 4.411477568640000402e-01
7.625461842163719361e-02 4.947471459981973851e-02 4.706438993468536891e-01
-3.681486917897100475e-02 3.317624156223508008e-03 4.451403513397627631e-01
8.205841421232239197e-02 1.949878224198301271e-02 4.767145051993102456e-01
6.042837600095521400e-02 1.641651002303939205e-02 4.614396452629474510e-01
7.069657696343867315e-02 4.239065342016306442e-02 4.660121146954135374e-01
6.128962740047085023e-02 2.407030939667161723e-02 4.622359385237749252e-01
8.110034410892567880e-02 1.543370877225210339e-02 4.837976598449263976e-01
7.086260383077491731e-02 8.864836396357839848e-03 5.086365121400524547e-01
6.044100606931440689e-02 1.689118787015380166e-02 4.615368186294911967e-01
8.184349518390139633e-02 5.245998424825524392e-02 4.760906902822973907e-01
7.800165794976815503e-02 1.942726539627081389e-02 5.115120505864710898e-01
1.507403314088984203e-02 8.925274937887150289e-03 4.448951597543799874e-01
3.280586980440448192e-02 3.755912844549414917e-03 4.467687271985870678e-01
-4.682579553642192936e-03 3.212476134919971943e-02 4.494869017675375833e-01
7.653421258513064263e-02 8.482884944675063432e-03 4.901552343172627113e-01
7.402366303799404190e-02 6.764117274582284040e-03 4.808533244110409499e-01
7.372321817171729845e-03 3.624191193093359575e-02 4.511619742574310421e-01
5.050353035670188118e-02 4.996383673719594770e-02 4.632135051926484226e-01
6.979580842985387557e-02 3.191872524262194533e-02 4.650432150660222530e-01
3.796529924339315382e-02 2.819271458527013857e-02 4.545800753567084129e-01
8.244485836273768298e-02 3.737666710126513747e-02 5.072607308580449059e-01
8.364667397481125033e-02 5.022011692548356693e-02 4.740409954471128673e-01
6.327389326553216342e-02 1.401911342295798736e-03 5.122291240921110766e-01
7.672620108093705649e-02 2.360557850272402419e-02 5.180917324587875905e-01
-1.558099960267914953e-02 2.055068728639974224e-02 4.472665317373798466e-01
-3.828817409608412103e-02 2.758854077643293958e-03 4.444456784699925556e-01
-2.095768350438389268e-03 4.226705468633345369e-02 4.518807412958645853e-01
5.746770538967004016e-02 4.043108801885608033e-02 4.622563224646973334e-01
6.799010214298147059e-02 2.976283523607424486e-03 4.710068056066127329e-01
7.647713443125919719e-02 1.517011651472137748e-02 5.088012360778423337e-01
4.858469957999851652e-02 3.614657462528771126e-02 4.594684845094648140e-01
8.811567905968281655e-02 3.609845988723615895e-02 4.969524868725562761e-01
3.114101521520805035e-03 4.798982507882636195e-02 4.561845429505517191e-01
2.077243587075733311e-02 3.612689190413836959e-02 4.534118754402376439e-01
4.805403343278804446e-02 -7.317431092668739111e-03 5.291802093328603629e-01
7.153975630827127952e-02 2.577756505079666777e-02 5.257137406090353071e-01
3.407906059017373063e-02 2.699687089047795446e-02 4.531390745511349460e-01
-1.061774131412739249e-02 1.387872867116401489e-02 4.441025429458743679e-01
3.076207528231477556e-02 4.341850870641477539e-02 4.570192765117520040e-01
6.928102394471853664e-02 1.293550550037820407e-02 5.176820512354505244e-01
6.736375902312972952e-02 4.582122826844371027e-02 4.658719627410252140e-01
7.439650999341200499e-02 2.271002432781031935e-02 5.203698325433185889e-01
4.724170717728536778e-02 2.466996403788189809e-02 4.568359175315140353e-01
6.228182663712105577e-02 -4.960629786479422640e-03 5.102365039908345334e-01
8.662620049669257638e-02 5.108243181240527259e-02 4.764517242733471436e-01
2.148377471682036410e-02 5.086307840565060245e-02 4.588927848709358215e-01
7.944900082924517826e-02 3.503440780902165180e-02 5.119456814693217339e-01
8.871419899065235981e-02 2.855911698860026660e-02 4.894749775232754563e-01
8.200632798620272057e-02 4.317020185310962294e-02 4.700259942978580741e-01
5.932742299506125333e-02 2.949057665854478913e-03 4.605926962881776721e-01
6.901257888376756411e-02 4.853233605956750601e-02 4.679439748671949117e-01
8.665345043313334161e-02 4.790740578196012872e-02 4.977388840476330567e-01
9.503054699116503246e-02 4.545454432640311931e-02 4.799289801509191711e-01
7.129193231338253056e-02 3.389896001375933277e-02 5.175317456383055070e-01
-1.647198023426034094e-02 1.794915790422821171e-03 4.408877542323584864e-01
1.464718146255906961e-02 -4.444251298741826173e-04 4.415334737893594208e-01
1.004545796606925029e-01 3.560677373962188585e-02 4.851963479674971103e-01
5.285962587336351381e-02 5.231645238628825773e-02 4.711144556062782929e-01
7.770944997345574645e-02 3.362556298398532845e-02 4.685134585533425322e-01
8.332954252015140062e-02 1.892178242911465857e-02 4.807279114825629418e-01
-1.232402430069232981e-02 4.162065871523040750e-02 4.551163695221387973e-01
7.819154174341576280e-02 3.451470121174819022e-02 5.132261766567440819e-01
1.040096230153794710e-02 7.468708491624942263e-03 4.437691165424981210e-01
7.154812379612514317e-02 3.270034089774617736e-02 5.202411077717505883e-01
8.449148211605382597e-02 2.140444676029258642e-02 4.915740420879911032e-01
5.424807946405579145e-02 1.868884655118862800e-02 4.584752404956026761e-01
7.134072780658587409e-02 1.406617678505383152e-03 4.834779064322325959e-01
9.030019022080981728e-02 4.691223918960499284e-02 4.755008621307964534e-01
6.526811292209283577e-02 -2.266249585173430239e-03 4.704422003689534559e-01
6.781267334036465699e-02 3.451936682009605108e-03 4.702755393537291217e-01
4.768220810920308084e-02 2.352036658886326459e-02 4.566939716691175710e-01
6.039963523832482528e-02 -4.717574618404729754e-03 4.647918801890358886e-01
2.794600573760823957e-03 2.724611824295722438e-03 4.417513201153812075e-01
9.345734487677541391e-02 3.609816258211390183e-02 4.898530934644712009e-01
7.839863701512507499e-02 3.504228410562057472e-02 5.126109938990548454e-01
-1.698284869236003219e-02 3.654655221046348990e-02 4.529162361858991570e-01
2.095958546530484259e-03 4.512041955422158718e-02 4.539177937984094080e-01
3.932797436684910136e-02 1.217768181565168084e-02 4.512471848493607163e-01
-3.880762940194200979e-03 -1.471118814392871274e-03 4.398816589911644925e-01
-1.776377731430374071e-02 1.489005013870310298e-02 4.458776219838793131e-01
4.185374142178137358e-02 3.569801273409783232e-02 4.576821212739012323e-01
-1.349140544510291778e-02 2.068415918229254968e-02 4.467197335608785735e-01
8.436241776383301971e-02 3.579824432659602790e-02 5.052724039323678307e-01
3.990977961503507088e-02 3.199311673655795898e-04 4.491321084851967460e-01
9.120222848392532666e-02 4.591282620449965712e-02 4.753647281712626294e-01
5.790218254060800623e-02 -5.271386462381222153e-03 4.619017273042862470e-01
7.735321309782773602e-02 9.403584803224378924e-03 4.897162307153145600e-01
6.179400114202585753e-02 2.390131468481548893e-03 5.168118451417842429e-01
3.739557155476661704e-02 5.087667913925597585e-02 4.606131219235463647e-01
7.784769098980033608e-02 2.796220337312864401e-02 5.172155497413480907e-01
-8.445674200944398510e-03 4.156942044652889995e-02 4.524267614375743207e-01
4.750811345630823884e-02 1.534772061951337335e-02 4.552078302199968896e-01
1.031862037671258184e-02 4.931312830830428262e-02 4.604231438789858077e-01
4.694779777121137893e-03 4.787097554612899236e-02 4.561841243954268266e-01
4.287041529800184048e-02 1.166141434642502597e-02 4.523019007435471472e-01
7.273586125658711155e-02 3.513382461491965959e-03 4.905422234005228921e-01
8.964727304226965954e-02 4.832929014556597985e-02 4.758600212540950447e-01
8.836740904864019697e-02 5.266029078025150079e-02 4.801663092600581551e-01
2.815443813156863831e-02 8.318406183665076614e-03 4.471697601807045896e-01
4.611692385889996221e-02 3.012302469049697035e-02 4.575717949678048124e-01
3.709564059150390058e-02 4.503573077930419361e-02 4.586207465020255558e-01
5.903120339926051785e-02 4.318786346459646541e-02 4.629397002364061264e-01
4.240024299435934604e-04 2.913805225350361849e-02 4.488414398736979560e-01
9.074012354297935831e-03 2.121213595638467633e-02 4.472324467036857265e-01
8.138457498157386505e-02 2.152778934511113268e-02 5.065632579083931830e-01
3.733894289870097472e-02 5.216921242511904366e-02 4.613019381134297325e-01
6.720145481901254603e-02 2.769154772443691709e-02 4.641284901107435856e-01
1.374136734540144962e-02 1.167188803714084427e-02 4.455195800951528007e-01
2.841662318796940936e-02 1.298210456433935081e-02 4.485248747576649486e-01
8.051265452529282607e-02 1.429446121863040160e-02 4.928122638229913699e-01
3.598055547290260336e-02 5.500730929316385853e-02 4.651456974932012822e-01
6.822747135269266461e-02 -4.715791856016983419e-03 4.914972676628825421e-01
5.167417968225773706e-02 -1.175495316700608632e-02 5.277427871728588293e-01
7.203847449603094366e-02 3.181677229348098962e-02 4.657462784625543417e-01
6.486646035706428171e-02 6.734411740472869695e-03 5.163829467545691942e-01
7.807521229667180318e-02 1.042945863451251454e-02 4.905739502899219562e-01
8.695892623442384728e-02 3.589205288362420226e-02 4.719698084152086914e-01
8.982863199586239855e-02 4.225288344198014495e-02 4.729865309970978093e-01
-1.484264241359528613e-02 1.905991787860931985e-04 4.402531827937622988e-01
1.287516559034411999e-02 5.018827806115074008e-02 4.614403704707155662e-01
-5.127116861530622155e-04 7.713073691151547430e-03 4.428985076436888768e-01
-9.517483609259747013e-03 4.136300461940070616e-02 4.528882006265276261e-01
-1.127421073931158049e-02 2.855636205645917247e-02 4.487033573036658396e-01
-5.406883945498320611e-03 4.255405418844163123e-02 4.520921563987519987e-01
7.043595761310353365e-02 4.688109325560929543e-04 4.813152208371894725e-01
8.569930519947366321e-02 2.484907026911270522e-02 4.754440531004655579e-01
9.083330151749430259e-02 5.070185225631387849e-02 4.864232044341904593e-01
1.123034995351405649e-02 4.838363162988720129e-02 4.567823704761572179e-01
6.989842989775234272e-02 3.266420396904175932e-02 5.209438206686651807e-01
