6.655734250405009877e-02 3.035262996186997853e-02 4.640659727094425535e-01
3.649481629081373357e-02 4.761066514920713616e-02 4.594166999913172900e-01
1.962405335550619287e-02 4.429626790182979168e-02 4.554876461031138746e-01
7.385485916676354234e-02 2.604958015970859284e-02 5.229332275308314903e-01
3.077616084557083243e-02 4.135461463267592341e-02 4.567691841280011600e-01
2.360346753394168898e-02 3.989390319696744375e-02 4.550432721152359306e-01
7.839072467466018379e-02 2.095950126734234462e-02 4.724994434347162819e-01
-2.976687142593095747e-03 1.117110351191169179e-02 4.434383400957904175e-01
9.164759632749655549e-02 3.537235361528377753e-02 4.911180750967552022e-01
6.660210287906002946e-02 -5.585451565022141011e-03 4.978295289116169697e-01
5.226884249035117919e-02 -3.852396978464253750e-03 4.564440233597583663e-01
1.317758278628892131e-02 -6.611832638673208716e-04 4.412799022362988155e-01
6.879783851802452610e-02 -3.120129549673313508e-03 4.832568408519319347e-01
6.138010175168537308e-02 4.997408848911526202e-02 4.665133599304205347e-01
5.265315562515195114e-02 5.187652297203557139e-02 4.681756816667047016e-01
7.369343282139251272e-02 5.116184716613740753e-03 4.882656701555365131e-01
-3.486220779134575811e-03 4.197006516910808949e-02 4.519798464785870218e-01
-5.984101650217592359e-04 3.031307094652388109e-02 4.492278440895192126e-01
2.831104325584821516e-02 1.432930019981151423e-02 4.489489633523576773e-01
3.496617302630482954e-02 2.200459177417648030e-02 4.523423691277633774e-01
1.412788909142785945e-02 4.823162609973762754e-02 4.570406063871648161e-01
2.054070072595422583e-03 3.117215907651251297e-02 4.495478725921436269e-01
2.110794874238784355e-02 5.139816695622823756e-02 4.602933276851175481e-01
6.422904966649078951e-02 2.191308973677518965e-02 4.636892249391443288e-01
8.449301439211999443e-02 5.374006362245799251e-02 4.881923038828100969e-01
8.612689263450622190e-02 2.942583592347013804e-02 4.992734741487422356e-01
6.872505711711972276e-02 -2.088692318513531154e-03 4.927453377796451872e-01
7.181531683839538494e-02 2.876609582226929019e-03 4.829445142664579582e-01
2.801623261288380823e-02 1.054768168403920001e-02 4.478796568576197679e-01
7.524332869606081831e-02 7.215267911451637289e-03 4.895297912788437733e-01
9.800138959478027489e-02 4.362578385745194409e-02 4.816023962757760568e-01
6.459002363719672235e-02 5.259308865365820707e-02 4.701802379699586143e-01
4.206464928303363382e-02 -4.966874815364862028e-03 4.496063712638288523e-01
2.411294291703077255e-02 9.928590944086252909e-03 4.469094837756106275e-01
6.812119396730140219e-02 3.315056348239945379e-03 5.038105690566149208e-01
6.752730992287955814e-02 -4.120351335394328157e-03 4.785673831822823132e-01
9.079167888749092863e-02 3.032691769236898344e-02 4.773642120559226654e-01
1.954765382025444934e-03 4.104029917239242209e-02 4.518812045916253961e-01
4.077004671061956742e-02 1.737117850458030563e-02 4.531792968850698600e-01
9.522722592693662336e-02 4.171507849559651093e-02 4.887317430352106640e-01
5.876125465612640209e-02 4.725224665294335338e-03 4.601307954970775826e-01
7.046324020753698403e-02 6.704308082781343815e-04 4.915670069978440582e-01
4.188175144810052375e-02 5.326249560085791201e-02 4.637235583838081321e-01
-1.063838876092632578e-04 4.483934961077501447e-02 4.537619611389599461e-01
7.943960302731763179e-02 2.172548149734965239e-02 4.728767899230764682e-01
6.813644486885275797e-02 3.918018279710276663e-02 4.654469954987331959e-01
8.769849174503378808e-02 3.124936029515945971e-02 4.963162527474512808e-01
-1.045541756037294753e-02 4.369874794974532711e-02 4.553309930821560214e-01
6.775663907351497928e-02 -5.293680171490318734e-03 4.824871814303179351e-01
3.580824475535721724e-02 3.998083614494015586e-02 4.575224808230194951e-01
4.514313053375923479e-02 4.051660544124999902e-02 4.598899410376669494e-01
9.515158209749217944e-02 3.851094393426521961e-02 4.770820675788503551e-01
7.772299282749169091e-02 1.058117553435413034e-02 4.950102067771636194e-01
8.070051701160514679e-02 1.837167239052408044e-02 4.771268077295179877e-01
6.259776081613857568e-02 -2.557074804146054758e-03 5.106298883657248711e-01
7.768082096529245473e-02 2.144803608675217854e-02 4.713427709881399252e-01
6.989462005572118219e-02 4.246057431714941877e-02 4.660615988284064759e-01
8.597251113941085932e-02 4.659654064763642939e-02 4.728650418602418637e-01
4.153567363242858038e-04 2.388450734006694609e-02 4.473593585368662584e-01
3.501087063619437445e-02 1.132590857062294558e-02 4.499144106527936393e-01
7.009337538755525121e-02 4.761728806666142531e-03 5.014043212112713199e-01
7.936130472995961416e-02 4.662850155653455037e-02 4.706934790651211009e-01
5.447293423622349973e-02 3.597441234363266127e-02 4.612553458015797303e-01
9.090766908336279928e-02 3.786613760956246411e-02 4.739203739271024562e-01
-1.968658548109318909e-02 3.121188202085344726e-02 4.523536167051853130e-01
1.009283435318855116e-01 3.768764319404342700e-02 4.839433713159168038e-01
-4.558809648009646415e-03 4.062691112094270890e-02 4.516682328669471835e-01
8.768467805165838791e-02 3.628460576501629786e-02 4.975320158818780647e-01
3.170703780401989968e-02 2.449958610266993880e-02 4.522247811010917107e-01
6.278746050904338016e-02 2.427848708246228143e-02 4.631505261324049827e-01
5.621213303270910372e-02 1.952824195123229953e-02 4.597270869931896486e-01
7.675980933030329689e-02 1.218963752368153880e-02 5.022709893963162031e-01
6.849237889775024180e-02 -2.747622962470292612e-03 4.935123170216959565e-01
8.652669392606500420e-02 5.195980722823738407e-02 4.780640391316064997e-01
5.752268833743062748e-02 3.677702262871834771e-02 4.621814249217023884e-01
3.200592823461173575e-02 1.572159645824363836e-02 4.501315597457218876e-01
7.765423936692367191e-02 1.229523928172694333e-02 4.820296201960129201e-01
9.253957088255089503e-02 4.674169261004607751e-02 4.905568986045994451e-01
5.184931162492913831e-02 2.319428386002554687e-02 4.583973014202657459e-01
6.775739698197888461e-02 5.271303468267629633e-02 4.761328804763667044e-01
-1.757079550469207302e-02 3.359158737535478112e-02 4.522668978323898803e-01
-3.134663382069625970e-02 4.627312699207571794e-03 4.430054776439649733e-01
7.628230154867476909e-02 8.386847333612871061e-03 4.874088046722903078e-01
5.461630647080840950e-02 3.789872455975727694e-02 4.615422528530682134e-01
4.167856883845223737e-02 4.537810782476357774e-02 4.599500782955314726e-01
6.502754303054306129e-02 4.969694270630817257e-02 4.675801014306650849e-01
5.079801638940958236e-02 3.768460134385559490e-02 4.605224694525651419e-01
9.985236431571058169e-02 3.386099280144908019e-02 4.826572544826982503e-01
4.807267341542337258e-02 2.887003389042150023e-02 4.583931467105064606e-01
8.005710556644421438e-02 1.456813871243613917e-02 4.952081791696856250e-01
6.803942262577675204e-02 4.204446282588669703e-02 4.653396678500029138e-01
8.446380895812514999e-02 3.793498779589956488e-02 5.045708585133996671e-01
7.457275112623908131e-02 2.724036432077652642e-02 4.673266769706238555e-01
-5.989695236609922369e-03 1.476449158179928868e-02 4.443167019563198372e-01
8.018990322406728197e-04 1.187578527803195144e-02 4.439939075653349665e-01
5.811563793034738717e-02 2.288512308279404273e-02 4.610099518400517238e-01
8.396231996013304999e-02 2.017317161414829488e-02 4.819910032952267054e-01
8.312538803194229053e-02 3.787961902846056356e-02 4.719868100501117825e-01
8.707762859362835894e-02 4.179894927109537028e-02 4.998715850275931016e-01
1.443469161100356495e-02 2.537132766535555098e-02 4.490766055881040830e-01
5.466559548828534010e-02 -6.212778577650094822e-03 4.590634893771828873e-01
6.936710722995635681e-02 2.876913223262406519e-02 4.651794759607518204e-01
3.479576184239854125e-02 5.410569698082250828e-02 4.628940152826013787e-01
8.153500762455961892e-02 2.158642792778422276e-02 4.748621367422882766e-01
1.850814186918663118e-02 1.320867214810020340e-02 4.466990748409714329e-01
6.585127276053606704e-02 -8.341811406894338726e-04 4.708773127220989840e-01
7.439959382015576272e-02 1.785470031655324308e-02 5.160367536625841689e-01
6.891419344701348038e-02 -3.030964860307291259e-03 4.837203754614822770e-01
8.262395082212939390e-02 3.628651545692254676e-02 5.072965210395585789e-01
9.955364147027538635e-02 3.558119678740317288e-02 4.816038896048662754e-01
3.881817298989111847e-02 -2.515855120079011839e-03 4.480850570556654255e-01
2.011831983878948835e-02 4.966925845926031119e-03 4.444435982296057186e-01
1.005130017916996271e-02 2.369009700791682368e-02 4.480687119933206009e-01
7.181349264345190941e-02 2.607663333982987615e-03 4.837033596014572723e-01
4.760845761380451402e-02 5.007215736373032966e-02 4.626014215125769380e-01
1.247887699609060222e-02 3.596863293305851972e-02 4.519550855615545593e-01
7.040725876085091040e-02 2.733115623860824656e-02 4.656946359853570971e-01
-3.892808492626748627e-03 2.657563775329182740e-02 4.482314101683064766e-01
7.192378280978813099e-02 3.163571440920875336e-03 4.827055935067044445e-01
9.683434417814572315e-02 4.330977712838017524e-02 4.782241337598202580e-01
2.633714561780644420e-02 1.137976494777153888e-02 4.477633243693519560e-01
-2.601351439628906640e-03 2.437616539350177802e-02 4.474839813600657856e-01
2.377058305493550197e-02 3.954114463567078713e-02 4.549993229844472853e-01
8.438145427543002064e-02 2.088116011177385684e-02 4.807130761689050180e-01
4.346317766475109312e-02 4.617147951808495132e-02 4.605404556415134687e-01
-1.408523302323660964e-02 2.548386818919091967e-02 4.480990862166973066e-01
6.766126413475698209e-02 4.709180529802765337e-03 5.074240626815298416e-01
9.468209145977124486e-02 3.438984530208157031e-02 4.871523614092500565e-01
8.873487251533337949e-02 4.825003376244069164e-02 4.755464518226002468e-01
-3.379936567263300620e-03 1.807024529886622558e-02 4.453452915918949540e-01
1.279392309287092494e-02 1.259185893580428393e-02 4.457001345018826721e-01
5.108728577061266013e-02 5.054169883541171499e-04 4.552668128284184657e-01
6.491659821638165462e-02 6.765378489701076407e-03 5.160541091084454024e-01
4.366919579595789080e-02 3.208821557146916865e-03 4.516819134425205662e-01
8.445631902292100035e-02 4.066368845830915790e-02 4.713255090345875864e-01
5.488287093070808725e-02 -4.523866906216113086e-03 4.587017742375439355e-01
8.126643831837025711e-02 1.650934349945371374e-02 4.828890070560821757e-01
6.387814637142202878e-02 4.762909980836671497e-02 4.659828259148928731e-01
5.646844571685979280e-02 8.229039547107384195e-03 4.581952955354194890e-01
4.033945675776806628e-02 4.646032625366124102e-02 4.598280039661675200e-01
9.464401037470250577e-02 4.581902479098251546e-02 4.790831180426247671e-01
-1.415019921544541197e-02 3.119224364851252984e-02 4.501769563188628975e-01
6.983502957277952505e-02 3.895255681513297430e-03 5.004315726284712662e-01
8.032239785238541596e-02 4.269831800165722197e-02 4.697393939035018895e-01
5.006908637627914549e-02 2.255093532434404233e-02 4.575471078362792210e-01
5.881344666124662529e-02 8.096809362210268673e-03 4.595667758959428029e-01
-1.129770693446056039e-02 3.013206960112224664e-02 4.494486620421028755e-01
5.143921665453052988e-02 -6.902008108605601350e-03 5.264911358949181386e-01
8.672738070660516996e-02 2.784069910131641706e-02 4.956019923828364759e-01
6.158705300730731719e-02 1.578689240907749439e-02 4.622905723541104739e-01
8.213869203474492842e-02 1.950942195766895357e-02 4.971255125642140560e-01
7.177920045841863772e-02 2.347043275070560125e-03 4.911869272485235860e-01
8.939131847278805609e-02 3.215366059410533495e-02 4.748241784328413595e-01
8.234417093539710131e-02 1.838632986579086942e-02 4.797062619622860513e-01
7.378071300896957285e-02 5.313550046315056175e-02 4.754774321563388084e-01
7.397436257257059000e-02 1.403266578313698554e-02 5.111256870400141539e-01
7.739481768307111820e-02 1.494905262297467792e-02 4.764259506694846213e-01
7.880443656010591158e-02 3.681635838126880861e-02 4.708894552597709393e-01
6.136864974101750858e-02 -3.958766345968017970e-03 5.125654490710157551e-01
7.510639368672446248e-02 3.384930966280808029e-02 5.166636905647166156e-01
7.225881865264942305e-02 1.751594243326994385e-02 5.186669937154438914e-01
1.619809239854600250e-02 6.662924003543682465e-03 4.443214568818303345e-01
7.396960730754759128e-02 1.214287669713141719e-02 5.081661105741599460e-01
2.090063784308906353e-02 1.627440067376654045e-02 4.478923893744918283e-01
7.264048564945600750e-02 6.349453503531440196e-03 4.987963499657814825e-01
3.478762987536947182e-02 2.782335468687564817e-02 4.536549580901569345e-01
8.588118767990075841e-02 2.843022003028591871e-02 4.990982917761916382e-01
5.827936351776243085e-02 3.720909850650344630e-02 4.624412441571600918e-01
7.425614900822080644e-02 6.335289745656135819e-03 4.945063222539243797e-01
4.484374625192882012e-03 1.170271477264282073e-02 4.443172984830037753e-01
7.515424744810517144e-02 8.046139512983196615e-03 4.967387146011055243e-01
5.045282698769154583e-02 2.042669081121655395e-03 4.548878780298914459e-01
8.047443921497317298e-02 1.927603886712841649e-02 5.047537646104397480e-01
4.796416771244964294e-02 2.199329265585320964e-05 4.532878772326588424e-01
1.270612491490274477e-02 1.995156197305365288e-03 4.422322827111949128e-01
2.635861645245002674e-02 8.587217651414881525e-03 4.469436750152210314e-01
8.057142458379940031e-02 1.492086240716457811e-02 4.933924991427017792e-01
7.897289016667735639e-02 1.487649784736158089e-02 4.798757146697139042e-01
9.553484877351205162e-02 4.530767613441204905e-02 4.786051368056067346e-01
6.108111665190590900e-02 5.240111892855621456e-02 4.712445816821146938e-01
3.867207501410433595e-02 4.161613947092756421e-04 4.486052869704247326e-01
1.863027788891949074e-02 9.362521007228384942e-03 4.456140252280226255e-01
4.793501355214887377e-02 2.284005342255492066e-02 4.568104326595026632e-01
1.133900239061258301e-02 2.227526531078934113e-02 4.478894815870199109e-01
-3.070795431525773223e-02 1.898228529429192395e-03 4.415494413631344539e-01
-2.087471431125857355e-02 9.722917254770698653e-03 4.443762848280973787e-01
6.138725231256499104e-02 2.785889208697317834e-03 5.180889550829023138e-01
8.429033381073124109e-02 2.884247988055007803e-02 4.721858701649052636e-01
2.506998408478679913e-02 3.717942539493444831e-02 4.547599355442880631e-01
6.690597542694565192e-02 -2.093971867295488926e-03 4.996035630615635603e-01
8.082649743144930399e-02 1.555914464689881621e-02 4.946900458440646187e-01
-2.576705652277255093e-02 9.766104148499458668e-03 4.462837904995179406e-01
5.777325285353442086e-03 4.879702676236877951e-02 4.587944831045601135e-01
5.782288170444592479e-02 3.023010432776789685e-02 4.619354950240710522e-01
6.317726223465260083e-02 8.859549767190205011e-03 4.627079084066996750e-01
6.710462659484608960e-02 3.561009718906844868e-02 4.649792201256317536e-01
1.812326874253756409e-02 7.772872886617902474e-03 4.449994882951475716e-01
7.678010375897123541e-02 1.077834958596418820e-02 4.830611729689683331e-01
8.650673843381913308e-02 5.609426079317367253e-02 4.839227419112222539e-01
8.452477177319980828e-02 2.323812039285121783e-02 4.764315046690885680e-01
7.898321196141847023e-02 3.333084300456647109e-02 5.140183811370275802e-01
1.615882060347721347e-02 1.155042932089279592e-02 4.459184464883201859e-01
3.448339147445605296e-02 3.814379293380001229e-02 4.567598588877900267e-01
2.002789073375034826e-02 5.126987230847313698e-02 4.599401226508669782e-01
6.366618516988271914e-02 4.879212340178329388e-02 4.665929751064036290e-01
8.669100951683481049e-03 4.749928543832307795e-03 4.428653684924158118e-01
1.996577832473030514e-02 3.006127249717278210e-02 4.514488521218286698e-01
6.076404940987287229e-02 4.486922277733224051e-02 4.640036173669556674e-01
3.694826803479081545e-02 3.703203457088396176e-03 4.485901107576825697e-01
5.913086956567757679e-02 5.218709714560539753e-02 4.707597288988275008e-01
7.764434140956794073e-02 2.580958289522306687e-02 4.691563369998702493e-01
4.114285395232432363e-02 1.262392340409991022e-02 4.520920418960892584e-01
8.775486410557319095e-02 5.118792454678015164e-02 4.905210153592887701e-01
-1.502630084474755948e-02 1.029642376410694338e-02 4.434989754122807271e-01
7.017528979449090543e-02 1.325430170387463871e-02 5.166291606010907644e-01
8.562904122662561013e-02 2.221832662303525191e-02 4.823676662668903159e-01
4.066818297136944038e-02 3.902806434217111903e-02 4.584423547860499992e-01
2.498398583468179612e-02 1.635409156361532917e-02 4.485767508472796039e-01
8.898514961757299224e-02 2.990557942697859989e-02 4.896367880320369737e-01
5.070134873677582810e-02 3.329070878910755232e-02 4.600069619302322721e-01
2.500911686028531311e-02 1.500558419075198775e-02 4.483108517548738403e-01
8.744644854505570497e-02 2.612222445347702968e-02 4.890487720490807044e-01
3.466274377035735710e-02 1.054526637377396422e-02 4.495620469495698601e-01
8.991922403447209777e-02 3.647359471438486878e-02 4.942428494519923166e-01
8.439879008684926520e-02 4.964083203710742409e-02 4.970373593205709151e-01
1.411380224665054889e-02 3.262281725396409815e-02 4.512744305057418970e-01
5.684493737143935660e-02 -7.991986361295845206e-03 4.624060699371750349e-01
-2.307896788360996876e-02 1.548018275368755539e-02 4.479080865559417757e-01
5.210641841816262415e-02 -2.720418458008443726e-03 4.561569817641937252e-01
4.519129713612456134e-02 2.685437515564923286e-02 4.568691405241846470e-01
8.155963778173518086e-02 1.759879421311388165e-02 4.789084788001083948e-01
-7.631156068230240952e-03 3.022465522539038996e-02 4.491568485608363748e-01
8.080237581934207602e-02 5.272856333813050189e-02 4.902354067101540314e-01
2.345900173872804417e-02 3.356671229877199181e-02 4.533512820968246815e-01
6.716038705466201297e-02 2.445255495066631091e-02 4.647577350800911056e-01
7.919929805120079491e-02 2.787103478008406271e-02 5.142672119437681211e-01
9.405340587692655185e-02 3.115832068417251355e-02 4.787382215579913947e-01
4.275209563426955045e-02 2.961998359713887904e-02 4.565907206771788185e-01
-1.580513397477332702e-03 4.236972529692994982e-02 4.520090994416991470e-01
3.351437315500233050e-02 2.946588979741989953e-02 4.537617924310992645e-01
7.367519927916710287e-02 2.381178253211047036e-02 4.680070865762893662e-01
9.640122360659701684e-02 3.428396231765125368e-02 4.856058069140974931e-01
8.499786384917704107e-02 4.252052598029876229e-02 4.710445428629237985e-01
-2.058375316493497170e-02 2.520394247660865880e-02 4.506879573138229955e-01
6.866096447266938074e-02 5.306198098755843945e-02 4.733717949244316547e-01
1.318143773880173404e-02 3.741174048988062106e-02 4.524468533410809790e-01
-4.153710304957196342e-02 -1.142335295450185983e-03 4.407870347237612951e-01
5.472004820493393817e-02 3.444488984968439860e-02 4.612182090639880272e-01
-3.976864118554129107e-02 2.071093447916024996e-03 4.418648040125286447e-01
1.173543166321266464e-02 3.918525040198846121e-02 4.526949786267538411e-01
3.110702938367821552e-02 1.357304598479156833e-02 4.493935898454486932e-01
4.914109291736815099e-02 -7.162921052298487634e-03 5.281794074703319852e-01
9.655290264008448142e-02 3.687519925024029116e-02 4.789648030883177365e-01
-2.685542802652962288e-02 2.892359338042266650e-03 4.415842329722619586e-01
8.984021074634045145e-02 4.289077750397909949e-02 4.739922453182772166e-01
8.678724690233127759e-02 2.377565948656372094e-02 4.834674746681089652e-01
8.386578792464217946e-02 5.009163128971048234e-02 4.738236877079752274e-01
7.943236582504675791e-02 3.341415375667265708e-02 5.136209961399293977e-01
6.739291788857379450e-02 -2.046990754097999590e-03 4.981318054358027658e-01
4.612957603860854544e-02 3.799727578277380807e-02 4.594534769730038160e-01
4.262663671727762171e-02 3.428429066836673894e-02 4.578297675691326285e-01
2.672314406040119522e-02 -3.356076220884446522e-03 4.430477224952411031e-01
7.740497367907803183e-02 1.033340784482039351e-02 4.865070291642795142e-01
7.118250941315332203e-02 4.317312741224457046e-03 4.976596358058263392e-01
4.885283967783373565e-02 5.243839935894607091e-02 4.657874546870918731e-01
7.954078301384706617e-02 2.372746721360459443e-02 5.122192507345348922e-01
7.517890377410342551e-02 2.550554281802471304e-02 5.208269165902118525e-01
7.874298640493126999e-02 1.258812304090505853e-02 4.961871532535555018e-01
4.249307028659618513e-02 4.597320133454068508e-02 4.602621281407221487e-01
9.682312662218880983e-02 3.858022588809421893e-02 4.784150949400895469e-01
5.236013852512420158e-02 -1.399525435463643865e-02 5.277084820913342522e-01
-8.476867478555527580e-03 8.526783062866385293e-03 4.426506463110296274e-01
6.597262349316809771e-02 -5.229358130603095969e-04 4.708631413081812433e-01
6.684641676525109044e-02 3.693274314284164094e-03 4.690373348547500765e-01
8.986135605780909419e-02 3.030828477580747859e-02 4.765463861743280960e-01
9.068150132361937898e-02 4.746727218511182650e-02 4.936247931492223073e-01
1.597919500303958797e-03 1.632806638286324677e-02 4.451795254230593302e-01
8.263250508010670792e-02 2.004805272908420297e-02 4.775626272881726142e-01
4.356742923377378285e-02 5.289936336853798271e-02 4.638617266582198417e-01
6.006227659881634845e-03 7.910447517598673262e-03 4.434929655604878951e-01
8.513329037302795610e-02 3.476909192101543256e-02 5.037537074979986373e-01
8.868202473820398224e-02 4.970433156080092396e-02 4.930817694127667683e-01
5.966982663038711276e-02 4.347381851177452294e-02 4.634733517973924077e-01
5.747769077639292012e-02 2.870036108852661721e-02 4.616893715095554129e-01
8.286227753155235576e-02 2.154583540849450835e-02 4.983116759138374596e-01
1.746464224335158438e-02 3.485445275396727854e-02 4.525967767940692332e-01
2.240660634995264230e-02 3.715362816569397347e-02 4.542228193143567072e-01
7.228924281233137239e-02 2.105375794838139358e-02 4.680061657688972532e-01
-1.430881390579008539e-03 8.020778217780053648e-03 4.429482043521024703e-01
1.309696856456134262e-02 2.285091912435430195e-02 4.482893361481762873e-01
-7.205564308334222977e-03 -2.136911157296639274e-05 4.401234620739508108e-01
3.210389085882077442e-02 5.233385837612930525e-02 4.606707087284200308e-01
7.076707930396579360e-02 1.589692450417044475e-02 4.678868999022849362e-01
7.129670621186677548e-02 1.501806545056383682e-02 5.171506198346629279e-01
8.145820513011906017e-02 2.064437582776080388e-02 5.042034489449344070e-01
-4.236740585602956008e-03 4.383036140663854052e-02 4.528680887036892755e-01
7.130483781733040760e-02 2.614828862307819538e-02 5.260534348556809014e-01
6.976333622622274411e-02 9.762430530702663999e-04 4.782159771983157115e-01
5.746958528281612133e-02 4.010881036160272861e-02 4.625499178775522302e-01
1.199806985728598188e-02 2.000763621889628530e-02 4.474812681452873253e-01
3.786059988759102324e-02 3.473857406243666124e-02 4.566735882320486217e-01
8.164051490233725783e-02 3.336607244613470219e-02 4.701918956098896651e-01
8.455940222971966569e-02 2.716327883664328494e-02 4.735813274814295037e-01
3.959711869580866822e-02 3.512980569140405213e-02 4.571751271288472807e-01
1.790017576908496666e-02 4.975241102816036626e-02 4.583099256077508010e-01
6.100821715146833440e-02 4.816646015594165664e-02 4.653136337124905708e-01
8.077584394994674621e-02 2.574013634987137866e-02 5.105205103998582405e-01
8.389055110329274312e-02 2.555033462038305142e-02 4.741096252990409377e-01
6.877887019408740477e-02 -3.681785113478539852e-03 4.844523979443465800e-01
4.969017819816287651e-02 5.276876093295710529e-02 4.690362625407811237e-01
7.915537779177458932e-02 2.152825249975369795e-02 4.727669109308650919e-01
4.350363898183676192e-02 3.941759561938819323e-02 4.592111580027035678e-01
-3.184421338367135479e-02 -4.315133837472320301e-04 4.404082018534175025e-01
3.642479226155886235e-02 1.120019441761792821e-02 4.502098343208618680e-01
5.291674975653345991e-03 2.701401267858017860e-02 4.484788153685041467e-01
7.042853477489692537e-02 4.368070718968799365e-02 4.666929563281981275e-01
-1.603461299673953483e-02 -1.537039829754231063e-03 4.395903052170103686e-01
1.649100107312898369e-02 3.470394837883037514e-02 4.523934657530419567e-01
6.254246632440893516e-02 -4.984572134613915115e-03 4.682484524554388350e-01
7.726882711775515111e-02 4.809879944698158133e-02 4.706923505740864822e-01
-2.146479141178668764e-03 9.276061028068830622e-03 4.430999403802289849e-01
5.679717859059053853e-02 -3.192999963488804549e-04 4.591433334092362983e-01
6.253518687886705507e-02 4.257051020493480588e-03 4.633984009576922469e-01
1.378014079007184624e-02 2.640470277553999545e-02 4.492286897553175451e-01
9.223422588457992621e-02 4.713194050229835286e-02 4.781591889536629947e-01
9.891535834409818928e-02 4.077435440917710069e-02 4.840715927551770270e-01
2.609081281525365420e-02 2.126280783809175387e-02 4.502041236978480687e-01
7.547345558439827462e-02 8.258187655247477971e-03 4.963827681607685394e-01
-9.532191751209688826e-03 8.208300945985156499e-03 4.426022909705685793e-01
6.278955559969148781e-02 5.920782575167106952e-03 5.195889660316604930e-01
8.876707886851405160e-02 3.742904298485058567e-02 4.963080933046872256e-01
9.052446739844170753e-02 3.431154338182432900e-02 4.920135723713263132e-01
6.554481449954546735e-02 2.855221808668530203e-02 4.638633505993797757e-01
7.687466501045432665e-02 9.310313304925156921e-03 4.926942724379412275e-01
4.251022650624292076e-02 4.112216868079299203e-02 4.593914329691024534e-01
6.753071152123250875e-02 -9.855279337328904168e-04 4.984206011816995074e-01
2.590451047598434781e-02 3.416362267149719578e-02 4.540881998011600529e-01
8.507765350138250804e-02 5.022162508012441295e-02 4.944734331874455213e-01
8.828122596233231589e-02 5.063129574228100033e-02 4.910701382815726435e-01
8.919761387847215117e-02 2.837351305494818787e-02 4.859684920497315264e-01
2.367614941234231704e-03 2.154796693745530956e-02 4.465917267489715736e-01
4.315431636845788732e-02 4.912128212727923104e-02 4.611367812119677723e-01
2.592407297037356562e-02 -1.812987802467776969e-03 4.432489875500018051e-01
7.821586710117188479e-02 1.735222268120931513e-02 4.752576653812149443e-01
3.662067322282717280e-02 1.027111226547315018e-03 4.477815370515852988e-01
8.337448267865915641e-02 5.362486312622329748e-02 4.779108246537821514e-01
-4.555430590486631882e-04 3.986948798853470061e-02 4.514084848256200710e-01
-2.950976658023815244e-02 2.766982786314845563e-03 4.418107201845803411e-01
3.339444791043609528e-02 3.655767008082191211e-02 4.563052923260132454e-01
1.396620159995794197e-02 1.010967421652357416e-02 4.452023551759238806e-01
6.296905012233659782e-02 1.692975083103800613e-02 4.633707436381380718e-01
6.643112605017388594e-02 8.056928965178461119e-03 5.152406581232124028e-01
1.707085866060215062e-02 1.136857916977857506e-02 4.460039966031889569e-01
8.620632174219590438e-02 5.066793912111892256e-02 4.925219569870546432e-01
7.236159840184895609e-02 5.704400376469245630e-03 4.977793096862641042e-01
2.154294809772829694e-02 5.247508928527629124e-02 4.623119945126540897e-01
7.852679804111277473e-02 2.668476261014108772e-02 5.151600921720943527e-01
7.408339700066485234e-02 1.115136257068691759e-02 5.063488752303627605e-01
2.187301848836144258e-02 2.904358409487676693e-02 4.515213404056497848e-01
9.033660787566566430e-02 4.222864566205827841e-02 4.739515494781773586e-01
8.119319340837256871e-02 2.143481258629076347e-02 5.062373048334919412e-01
6.309210014617445961e-02 7.110287402026476203e-03 4.629696486400563527e-01
3.989834871784174453e-02 2.485057687793032488e-02 4.544794317429562969e-01
7.048128796449668054e-02 7.729374595188498107e-03 5.065964378235220389e-01
7.129173194558180437e-02 9.180181150368732154e-03 4.716758726880065922e-01
8.362027994740882375e-02 2.189376333217238693e-02 4.949347086244925698e-01
6.155875530434669340e-02 3.378232745281559840e-02 4.631483077025539408e-01
7.048099889641888660e-02 3.752680699177867070e-03 4.756418463772001948e-01
8.998172723383159044e-02 4.538530957889998912e-02 4.746103491872968316e-01
1.775765510463859359e-02 4.228498261050935014e-02 4.544192741512943501e-01
7.009110571403127932e-02 3.182913610635994955e-02 4.653570113121953677e-01
7.195818052148944544e-02 2.221811768959343000e-02 4.677215588702086091e-01
-1.872879919120762349e-02 1.716593958319281767e-03 4.408412287847627842e-01
1.028963199207206386e-02 1.334245552210502200e-02 4.455581972467629326e-01
3.342663820421895582e-02 5.570593310787779612e-02 4.664847923369374039e-01
7.004572164502316511e-02 1.352544928833844355e-02 5.170845158158984267e-01
6.995483162533609744e-02 5.294253937207981514e-02 4.750056228725781371e-01
7.850711601040900878e-02 4.055575293509326024e-02 4.696345338433470795e-01
9.480109532744769585e-02 3.061507889596956980e-02 4.792702016459927661e-01
5.443140416186392772e-02 -3.627509806872494282e-03 4.581691480853227749e-01
2.514854619306128650e-02 2.693142554173525577e-02 4.513655113348061798e-01
7.986676755832215757e-02 2.031190773013654208e-02 5.081539695469147189e-01
8.010315630213260540e-02 1.395757365139945264e-02 4.916227068035974868e-01
5.808929406087295910e-02 1.774545035178341432e-02 4.603693973232175218e-01
-3.099938471534531559e-02 4.859405199208320647e-03 4.433123740131021395e-01
7.917691109185258369e-02 2.691788547565331785e-02 5.139820753723736146e-01
-4.149437105546581635e-03 3.268900787612546294e-02 4.497124023483100586e-01
8.899434544205789277e-02 3.222045693371564101e-02 4.938591987499273972e-01
8.715589683915916930e-02 4.916726708772706234e-02 4.955549615446664946e-01
5.630025526976524530e-02 5.130302595420955375e-02 4.675690392321979472e-01
7.910224195634896205e-02 1.286395682787166983e-02 4.938821689706233142e-01
2.317070195474719985e-02 6.890751356114914981e-03 4.457223976775422369e-01
9.003634893065860789e-02 5.098722683360348840e-02 4.897038578507263429e-01
9.201183824990663562e-02 4.957082578303888265e-02 4.843021373384484574e-01
7.224365251843234588e-03 2.418718060289490671e-02 4.478462011893217798e-01
6.642385800899631987e-02 5.304346694449361965e-02 4.726408477796112395e-01
7.764177261353880088e-02 1.266020703517755155e-02 4.809785551965319872e-01
1.695792517900822360e-02 6.250633091102290873e-03 4.442871926876610367e-01
7.829770483856916818e-02 1.175106323524798511e-02 4.959576196434534179e-01
5.037359143093302766e-02 1.494551658790197780e-02 4.565640659320701622e-01
3.686467658082777377e-02 -4.489266253482507123e-03 4.464150073408451602e-01
7.593147677515740823e-02 1.703248830298369210e-02 4.724122475515386554e-01
9.461108466392882665e-02 3.008703935440065064e-02 4.793319933718607206e-01
6.581449049784306171e-02 3.734327572497563030e-02 4.647603439555196836e-01
7.069003664287192013e-02 1.663291733897265950e-02 4.677094289013272732e-01
4.726022030131958596e-02 4.295226827127828634e-02 4.608432283674547825e-01
3.782097285755946225e-02 2.564912854837305897e-02 4.540277310949678014e-01
5.020550609134371428e-02 3.143725196665711485e-02 4.595980419003722339e-01
-2.242784226294223648e-03 1.934926304227306895e-02 4.457809800736074468e-01
2.367410177148330033e-02 -1.213850955302788522e-03 4.429783431351279610e-01
1.935093043992537273e-02 -1.491141975932002827e-03 4.421485662160224983e-01
6.470010435735114307e-02 4.781951947051738677e-02 4.663831050271440293e-01
7.596232596466465092e-02 3.537266646971731765e-02 5.143114579858176771e-01
3.616746040447375160e-02 1.730516318408188009e-02 4.517699822446754054e-01
-2.010598180665315333e-03 2.662241532422312054e-02 4.482282411129096533e-01
8.565019372207439974e-02 2.289214569545626118e-02 4.885819281781752510e-01
1.903533060958274847e-02 1.199125002301544909e-02 4.464556645704600979e-01
6.668677566807779122e-02 -1.012401912556365122e-03 5.010015549497313092e-01
1.246177268035977836e-02 2.621316142289228587e-02 4.490162437584920285e-01
-1.253284543078197338e-04 8.031044819197877271e-03 4.430465244981127149e-01
-8.208879723366414166e-03 3.864475803732277809e-02 4.514575285062469301e-01
-4.203248117895608260e-02 2.491841564344599545e-03 4.460471686150067616e-01
-2.100826485216458067e-02 2.811328454142991706e-02 4.521483410768185607e-01
7.570433035982160330e-02 1.991693394298212419e-02 5.159706472807993327e-01
-9.904691835746251907e-03 2.949524075230881143e-02 4.490472468977048104e-01
8.744560976034138067e-02 2.480557217116914279e-02 4.825355982180625225e-01
-1.984865421163507435e-03 1.724670485630019900e-03 4.411304451210006361e-01
9.566689104358055973e-02 4.272217079937575684e-02 4.851740892123831972e-01
3.094619751078373296e-02 1.462399663491713471e-02 4.495976431129738993e-01
7.469151511798396981e-02 4.117156729085244549e-02 4.679726299097257125e-01
4.060215652728071251e-02 3.649425884372146239e-02 4.577565566987128465e-01
7.157643279195266550e-02 4.134234060104738373e-02 4.666517086184515106e-01
7.860366096004436920e-02 2.041565170184884981e-02 5.112381042621099159e-01
5.193950104393561112e-02 3.759281620361264176e-02 4.607993645549359196e-01
7.507071749105223568e-02 2.160515069274223862e-02 5.185549719664622748e-01
6.704647737626119597e-02 4.843332041862713488e-02 4.675792129369013561e-01
7.627641400675284726e-03 1.119638212007573359e-02 4.446132351155835383e-01
1.318777522907181241e-02 2.616605720868823634e-02 4.490940625985144208e-01
9.680101613657947357e-02 3.493483457941197468e-02 4.799659544947877388e-01
4.464321204143189420e-02 1.716469667941963179e-02 4.545632016689826194e-01
6.573297950001456835e-02 1.532552673875576220e-02 5.251118914567689533e-01
-1.350887767253609179e-02 2.677551421810339671e-02 4.483019897416430921e-01
4.359752170291054940e-02 5.426059191251464409e-02 4.671182357049759037e-01
-1.353430873083616556e-03 4.304577348999030079e-02 4.524033981455611864e-01
6.679770837028811692e-02 1.512198940866890315e-02 4.654393909354273551e-01
7.144027618743443997e-02 1.013597561250106048e-03 4.867349516316838987e-01
4.863987116808818345e-02 5.334375717496447206e-02 4.704650755179188848e-01
-1.541961514605741379e-02 -6.635043021713752515e-04 4.399310656299598166e-01
6.793609873725087178e-02 -5.536339122574534220e-03 4.908106100171521491e-01
3.993590002543793982e-02 5.270665463030070608e-02 4.626873582354312231e-01
-4.845463566886158181e-03 3.987775527319310787e-02 4.514825542478996812e-01
7.111538124037526665e-02 1.003217038095185684e-03 4.848797127961854692e-01
3.411118034429920509e-02 4.978367661126866656e-02 4.597504613121778383e-01
7.438630674344003102e-02 1.109771836997892371e-02 5.056986081875309846e-01
7.187652052332545172e-02 1.309247970940940510e-02 5.134441015946273890e-01
7.900065224270873959e-03 6.149044732848553754e-03 4.432039428076601228e-01
4.892538998275013790e-02 -1.188914906024722898e-02 5.305221112833001795e-01
6.456646633065887819e-02 3.803079178337290950e-02 4.642073311177010164e-01
1.953151293739953127e-03 2.627768194391661219e-02 4.481571811973288355e-01
-8.255873909898975987e-03 3.585224084448068727e-02 4.507787945323081802e-01
1.288716529852117036e-02 5.050402782084627284e-02 4.621905923135946059e-01
7.190212611049431879e-02 3.351884395318303206e-02 5.185784185381409062e-01
-3.653577339614486053e-02 1.168130605387951004e-03 4.413771109943796511e-01
1.799678285636282377e-02 3.562767534572314904e-02 4.529589496130426163e-01
3.825975994467749330e-02 1.371477263328559418e-02 4.514677366897162369e-01
8.123902364853111124e-02 1.703839600247930228e-02 4.803817788877500772e-01
5.865251079669352163e-02 2.623077131328379122e-02 4.616468588595183387e-01
8.129714147623297305e-02 1.654911429332095799e-02 4.944259887114320628e-01
7.453879605619864734e-02 3.223359185076390965e-02 4.671697247795636443e-01
-2.804612952798895761e-02 8.798077794877066579e-03 4.471782748277443598e-01
8.257837958404193324e-02 2.656672611956558197e-02 5.069125165814292178e-01
-1.087743373223277153e-02 4.354930988496582417e-02 4.554687813204247870e-01
6.838112588195169317e-02 2.605788691534821622e-02 4.650623330705110359e-01
2.533295411354623272e-02 4.663259778609291951e-03 4.453908168467159978e-01
2.010672132137002882e-02 2.101765089676511239e-02 4.489840613161180105e-01
8.892113663219444741e-02 4.885239745619793933e-02 4.940503140954651817e-01
6.130402103278774495e-02 1.981346512536632382e-02 4.624682967533667033e-01
8.689937119592043568e-02 2.739202514843775554e-02 4.943181683758566258e-01
5.336673477955838213e-02 2.222164086052326459e-02 4.587749282331236023e-01
5.212023663860026329e-02 3.220114324314551912e-02 4.603500943050842231e-01
6.349838764070814268e-02 4.689869631145740514e-02 4.654202634538227579e-01
7.221071993247303589e-02 3.427261081175856858e-03 4.834732794892783736e-01
7.554127360546644687e-02 2.346357389417255690e-02 4.690553197724144918e-01
6.874550751418827439e-04 3.213131603706312345e-02 4.497082909297183684e-01
8.254685221686487717e-02 4.986925389207104431e-02 4.991979130612467785e-01
4.657331106668687742e-02 -5.805955222430783658e-03 5.295591348909861606e-01
7.156396159057168416e-02 8.946380876861611403e-03 5.066524225154580563e-01
8.251577361279305300e-02 2.442190375668240251e-02 5.055140752223957756e-01
-1.303620099860514515e-03 4.134759611557214942e-02 4.517282345500794882e-01
6.854765115379400642e-02 6.248148290692616055e-03 5.080196573336496213e-01
7.009905783511076460e-02 -1.459770976227087874e-03 4.866722303516582415e-01
-1.370789159950972814e-02 4.009696095024638252e-02 4.535738746878874017e-01
6.892999161701968136e-02 1.403745998013191179e-02 4.669229751738288581e-01
4.448459066765263203e-02 9.855192295563496019e-03 4.528178384399168532e-01
8.556294221759214169e-02 4.809032674200689611e-02 4.990370152763428657e-01
7.424034812554329565e-02 1.519477102630436595e-02 5.124375595492521862e-01
8.329792735981549068e-02 1.836021983066119662e-02 4.885778252458946036e-01
1.921230473424234003e-02 3.244848802517628222e-02 4.520342591669171961e-01
8.115668754039861987e-02 5.351712876280128456e-02 4.776432007947474245e-01
7.516874329800501964e-02 1.172382232133310428e-02 5.052571801715436406e-01
