3.572759666991379146e-02 1.282970534380544793e-02 4.508983986395169730e-01
1.330602281277007415e-02 2.523344647886310854e-03 4.426185004521785427e-01
6.149055578206098771e-02 3.450800541088400869e-02 4.641162823375756807e-01
7.008202581656085284e-02 3.193220023975539522e-03 4.778186335471610313e-01
8.629320224474734680e-02 2.584006470677004813e-02 4.880769104392629343e-01
-1.982352923767788377e-02 3.273433553210856883e-02 4.529726692234846697e-01
9.345454355544868807e-02 4.485366720932722207e-02 4.873068847985823071e-01
8.616874288427853190e-02 3.042772303967585315e-02 4.755500297662996756e-01
7.638921506651581705e-02 4.745559214607727311e-02 4.711468905719632394e-01
6.691926847152364355e-02 5.247857496930728727e-02 4.703850528524186614e-01
7.268252847307364595e-02 1.514394911831215378e-02 4.714943581761830704e-01
-8.578976432842010807e-03 4.515330856040152691e-02 4.560927645322496171e-01
7.694551642150726511e-02 1.066313215789053449e-02 4.946673021602685516e-01
6.749012815852153957e-02 4.881582892007862995e-02 4.688347338936005304e-01
7.073742032275433245e-02 2.601693934145894380e-02 5.265065625302172148e-01
7.353361645077578779e-02 2.035378242128018864e-02 5.190733502093487495e-01
-1.270862648732401165e-02 8.669364353547474866e-03 4.428740685069455507e-01
4.925903827679647962e-02 -4.444268124943400594e-03 5.272266934674448846e-01
-7.695185000491824683e-03 3.973117666765462255e-03 4.416365436333299366e-01
1.980191040213676382e-02 2.005378772358958755e-02 4.490774846093809058e-01
-6.133047227246796011e-03 2.432053973739669792e-02 4.476829098039731836e-01
5.196744245979688370e-02 3.974769655652174438e-02 4.620622187651768908e-01
8.358202164913050569e-02 2.214839071083685162e-02 4.796005063006655300e-01
5.566071437117806747e-02 2.058977506013916561e-02 4.603248320555471396e-01
1.456823681396961917e-02 2.191813913851307222e-02 4.486468478124439052e-01
8.331847704134481836e-02 3.054316908303283604e-02 5.055417814662269693e-01
-1.747113457956083957e-02 1.979092466223762291e-03 4.409978480463027095e-01
-2.592808394633262792e-02 5.587021985724147446e-03 4.428307332722672962e-01
7.063065953826869192e-02 5.070153916196247328e-03 4.763860067528824516e-01
4.546904015872986482e-02 4.879230691614144799e-02 4.624876631909159430e-01
1.032220744140569663e-02 6.165858725813629440e-03 4.436283942515551471e-01
7.194351484759070603e-02 7.871588952836645198e-03 4.756429041986978690e-01
5.756628321688924549e-02 2.311619013916745013e-02 4.615851574833114701e-01
4.556941289495699404e-02 2.215288907078373157e-02 4.562877726172977488e-01
-3.958126218669656693e-02 1.797687259897160069e-03 4.417137566246199798e-01
-1.445363076176589198e-02 3.146005161695849400e-02 4.504848188995321800e-01
-9.528970272573919487e-03 1.871295983770178070e-02 4.458640145311366654e-01
4.683502039918215065e-02 -5.248110258361925878e-04 4.530146258917048807e-01
8.217118744714102530e-02 2.598591340588029749e-02 5.059609844283394775e-01
8.421558885670948902e-03 3.444943906613796413e-03 4.425628323604011705e-01
6.300551760892914022e-02 1.785380860085373708e-02 4.642398871253138326e-01
9.174281249151094997e-02 3.168044784423124788e-02 4.840000585580816472e-01
5.245873142414060608e-02 -5.886991424363142988e-04 4.567164047777692026e-01
6.234810971302518628e-02 1.176261991739443145e-02 4.626384020689849330e-01
6.341985250244162875e-02 3.338950134693207533e-02 4.644876138151647904e-01
4.374597126427486049e-02 5.439477226095839474e-02 4.675169262400238335e-01
3.938881803623475730e-02 5.142892807890001028e-02 4.621540877194078578e-01
3.349482610602873278e-02 4.691618836579966589e-02 4.595039885661790779e-01
7.997999981724804308e-02 2.177112140405804142e-02 4.753141583774316836e-01
7.063281476881452803e-02 5.313652551478435793e-02 4.729760400312426061e-01
-1.490037025545460324e-03 6.032274640426129458e-04 4.408846687014711940e-01
6.669738531982473406e-02 7.833581489046300902e-03 4.670852284609738336e-01
8.382156306407487212e-02 2.625945451989160698e-02 4.991890441924086708e-01
7.124541651915819451e-02 2.438551696356264491e-03 4.908640299713459276e-01
7.243397391770832472e-02 4.495315258929542465e-03 4.901161515934216450e-01
7.986884013175522823e-02 2.268332859845233543e-02 5.098661816607695796e-01
8.684022111769683361e-02 2.649475188560740727e-02 4.818389398907202970e-01
5.827579291792447935e-02 4.675367773518072229e-02 4.647936336990275974e-01
4.098503555249596864e-02 3.252970472277157826e-02 4.575066775823211640e-01
2.094731846458889116e-02 -2.330977345872515226e-04 4.430194691398883777e-01
-2.076656765538932928e-02 1.187861235906258021e-02 4.454536083112291545e-01
7.256330565523887166e-02 4.168281799209509753e-02 4.685877025191857448e-01
5.279431962396524680e-02 -1.222417972814053913e-02 5.268661562040583002e-01
8.199993913484446284e-02 2.187987731616432285e-02 4.991402951246916575e-01
6.064571381126689781e-02 3.829543750899254417e-02 4.641859032823047460e-01
9.073074146491492964e-02 3.880001269936478314e-02 4.929147586106802925e-01
4.790015373433842427e-02 5.325413400645983425e-02 4.677121570724770971e-01
1.525206437349344718e-02 9.106270480581187335e-03 4.452654890116816699e-01
3.433773721527089845e-02 4.415567493202209731e-02 4.588897089893819170e-01
3.401338520646159796e-02 1.383651654730889101e-02 4.506455110220377036e-01
-1.575787508567872905e-02 3.819469524429747274e-03 4.414958825305747014e-01
4.602259753341009230e-02 2.044373084459339199e-02 4.561324304119107054e-01
-1.228314556658773732e-02 3.866001832068775845e-02 4.522952155460192025e-01
2.852580043730155307e-02 3.249866775279385694e-02 4.544916665355858143e-01
6.671676927899176934e-02 -1.534924501697948604e-04 5.005765431402294796e-01
3.839352077613166631e-02 3.204098456259072553e-02 4.565742486832274905e-01
5.419369259651071746e-02 -8.788328338325808106e-03 5.246061790244935796e-01
1.826841885150669656e-02 2.287440439783724327e-02 4.494557078543130468e-01
1.731202072066735306e-02 3.395191607020176666e-02 4.526701962552198144e-01
7.369136097403750085e-02 1.225615181605523019e-02 5.077304792344411455e-01
8.321014861752837333e-02 2.184532821353250831e-02 4.788176608238933207e-01
2.177450235510711846e-02 4.175734361698911490e-02 4.556989899667520660e-01
6.891675303947621123e-02 1.383667203543771131e-02 5.185042013442964226e-01
3.153317761730902585e-02 4.748804303688983902e-02 4.593273484216394142e-01
5.051691658955864001e-02 -8.988216252639341999e-03 5.280426369727228009e-01
9.181175940635462329e-02 3.696972986240373155e-02 4.769018092308361378e-01
7.964499420053024192e-02 2.276023987107944277e-02 5.106384573997104770e-01
-2.171692476603508809e-02 2.171682020236593083e-03 4.408916935680746163e-01
8.245479557239944468e-02 2.042847540223869524e-02 4.798894504118716986e-01
8.224181258348212120e-02 3.866018528425143458e-02 5.070722623710315347e-01
7.318892279509904564e-02 4.455072113983096771e-02 4.693062499933137732e-01
8.322906506290107809e-02 2.914423396127431218e-02 4.734495013261014185e-01
-1.477145364324615419e-03 4.341658176303039157e-02 4.530493435877899766e-01
8.558668668036736871e-02 5.712682861366835674e-02 4.844111127403838424e-01
6.439855021951144953e-02 5.036178902041544420e-02 4.686466932867464075e-01
5.150314572202441959e-02 -1.123136690450838443e-02 5.277963787894841552e-01
1.567668624593006668e-02 3.893652250423462746e-02 4.538413424757371528e-01
8.893010450317563598e-02 3.480006054102460777e-02 4.940615433345103003e-01
2.029765864126351765e-02 1.908074564728982209e-02 4.489293354341100106e-01
4.439868307182466556e-03 -1.582793229885929610e-03 4.405632013332747565e-01
4.050938929116642412e-02 -3.733921598898390370e-03 4.492216206578413251e-01
5.100047550737116936e-02 2.207997380631210663e-02 4.584444814108041832e-01
8.900261497586568760e-02 3.045693000954927121e-02 4.863426065539436238e-01
8.311992832023926137e-02 4.256500900902705775e-02 5.054092951201465400e-01
1.782683694481032241e-02 4.251676249297253740e-02 4.550774436985634552e-01
1.405134789038472998e-02 1.675321235636345954e-02 4.472617881402260465e-01
6.702342132233385374e-02 1.504107671663689090e-02 5.228585576938237223e-01
7.587761638155943178e-02 1.142893020032148717e-02 5.009317611126052894e-01
7.432845158229615945e-02 1.698354674303729703e-02 5.140391846840871581e-01
-4.162514541784208266e-02 1.642334197394674242e-03 4.417257096618195100e-01
7.734485447673633551e-02 2.014710610934578386e-02 5.121786331337017106e-01
-1.981350727354942720e-02 8.901062917861822521e-03 4.438251712811394634e-01
7.237271170470110926e-02 3.007419459765215894e-02 5.241921653677816817e-01
6.835145001591132197e-02 1.156841914815345297e-02 5.167140420272264834e-01
9.323902590936433699e-02 4.584629663224813745e-02 4.857695740289829089e-01
8.315619200956561596e-02 5.026257336981705681e-02 4.992714634960825903e-01
8.101843787809033526e-02 1.911255276021481958e-02 4.979100637354130776e-01
8.013011011985153587e-02 2.194085939398618401e-02 5.079515346470948600e-01
7.808876140208595440e-02 1.726946784485164019e-02 4.771920416697372769e-01
5.701266371764097257e-02 4.372157124116337473e-02 4.638345322552737127e-01
4.375134198425388588e-02 3.981020597246082843e-02 4.600897265655033985e-01
2.469695351606460490e-02 4.129750178138984901e-02 4.561843932771419419e-01
4.421344900477966466e-02 2.672325179614363014e-02 4.570939468345661116e-01
6.539920312386202084e-02 4.859448315844826227e-02 4.679430019008442576e-01
5.907853801974823765e-02 3.104074263768009587e-02 4.631472929090432178e-01
-5.654827698223896526e-03 3.419162008286939086e-02 4.503669367322327699e-01
4.073361684757510412e-03 1.643707732386706991e-02 4.457607056684667057e-01
8.241549258825979496e-02 4.490123803161485960e-02 4.722259166583399614e-01
6.938653828726540351e-02 1.331670178775838133e-02 5.172503910478959410e-01
7.083816891050226383e-02 1.838362197933082059e-02 4.685759161166547782e-01
8.336284961514366099e-02 2.036500185458349835e-02 4.867196778357856246e-01
-1.512197409555556156e-02 8.481173054158686053e-03 4.428457102668741374e-01
2.536454456501670285e-02 2.827872980914959353e-02 4.523107086651240727e-01
4.810516072203864513e-02 -3.983009295763840531e-03 4.540260214027052599e-01
-3.028829398491562040e-03 3.529442403386657406e-02 4.506298494197625293e-01
3.777428487936886070e-02 5.194054811877591576e-02 4.621043907573129661e-01
4.685984029856149480e-02 2.873673187119058989e-02 4.586291004123586035e-01
3.164330312972478410e-02 3.114894322760870457e-02 4.545342304162531821e-01
8.290814738953787566e-02 2.713606954349245814e-02 4.744346278516244353e-01
4.278809266027140679e-02 3.677863769546904638e-02 4.591092069409904441e-01
2.440136095217463469e-02 4.140464145306768651e-02 4.561496173179197533e-01
8.679825164514326508e-02 3.223165554290303991e-02 4.973260549823615428e-01
7.367869888690543878e-02 4.237669915070781806e-02 4.690779420348396567e-01
2.106292893521540671e-02 1.339164622976071403e-02 4.474269262346760034e-01
4.864403094540333677e-03 3.903341492588029843e-02 4.521710873141498443e-01
8.148212536870891309e-02 2.187082543334693471e-02 5.035918830158763182e-01
-1.492938718727019297e-02 1.831539194077670685e-04 4.403158253911888531e-01
-4.251222096236369902e-02 1.815108685820706171e-03 4.419330400009234272e-01
1.921054549030105918e-02 1.552452241023096272e-02 4.477167987572976404e-01
7.391476755873369053e-02 1.879839913284100592e-02 5.171459361679451305e-01
7.719008446496529452e-02 2.310672929847251700e-02 5.158853985951437071e-01
8.375219137062113461e-02 2.549790039742450345e-02 4.980661965682796621e-01
7.718036411072116965e-02 2.512463575134108243e-02 4.708388878759148799e-01
8.015623162747317898e-02 5.363876364558924775e-02 4.923332718387753437e-01
7.454529144122147566e-02 1.860896583084587289e-02 5.157106045244993497e-01
2.230043238242167269e-02 3.818253065820364969e-03 4.446588870248347480e-01
6.307178893633090533e-02 -6.105279799701203609e-03 4.711257299860847070e-01
7.202300070124206810e-02 2.441223971651006186e-02 4.683521788098541916e-01
2.053581606840915869e-02 4.909967194094359139e-02 4.584691730784412056e-01
3.386804931929499052e-02 -1.228897345298848170e-03 4.460818820838298726e-01
9.378451912939486657e-02 3.580844830169517545e-02 4.886485415821276157e-01
3.240333599620828092e-02 2.027968928202223894e-02 4.518171792864502656e-01
1.522552478824456754e-02 1.157937012289465481e-02 4.460268690054222107e-01
7.584320796741232662e-02 1.277245219263269116e-02 4.789310632546309732e-01
3.351531921009751058e-02 3.557658086357714383e-03 4.474324998618668392e-01
8.922074554390334311e-02 4.230394375891034092e-02 4.962743877319001906e-01
6.651571915991956463e-02 9.269746100544361614e-03 5.163819041134505294e-01
6.434738002957342273e-02 1.390306522477396771e-02 5.253272401449951001e-01
8.786058992945605661e-02 2.867221636555794193e-02 4.873845042765470592e-01
7.878500867307697275e-02 1.532953960266262433e-02 4.821633210656076640e-01
5.662540741224761365e-02 4.677661048894744128e-02 4.644162182440164099e-01
5.555270648442537512e-02 8.635601193986144550e-03 4.583319495082933126e-01
8.067263318409027828e-02 4.407443716469750666e-02 5.070502549542029724e-01
7.590825707811096890e-02 1.214386174771944771e-02 5.025611326726949768e-01
1.511946517081282776e-02 4.190985688001789417e-02 4.544307130187392740e-01
8.161441576790159913e-02 5.471762348310520163e-02 4.792267088399864705e-01
-3.675216484089771120e-03 3.260620884770184386e-02 4.500091611681572012e-01
6.243715966067994727e-02 -5.377097066246547263e-03 4.692766712439888632e-01
-3.008298248356644500e-02 4.544279109788295669e-03 4.427885258240237265e-01
8.860525822778358984e-02 4.798960587375572517e-02 4.963905595608867904e-01
5.195124726176044393e-03 1.418697916296915787e-02 4.452857754881220931e-01
-2.200886182177808764e-02 2.594824618696220386e-02 4.519792244714510576e-01
7.039063409231845203e-02 4.522834366113975130e-02 4.683491400884746136e-01
5.186263197700027860e-02 5.265393976713247937e-02 4.698414367166675598e-01
8.417211309454125656e-02 2.741348288098522865e-02 5.000573675201538393e-01
1.101293986673666792e-02 1.510913849463857081e-02 4.463801308784933752e-01
5.371424884098505853e-02 3.122175024236459318e-02 4.616180046208567811e-01
8.165097437349216891e-02 2.391284641628828311e-02 4.753768810937483158e-01
8.749620625122812856e-02 2.811921742864204043e-02 4.877473403547578634e-01
6.822867430894519192e-02 -4.430625781720968007e-03 4.877237109196091436e-01
7.880902745654158603e-02 1.341385553405776906e-02 4.908557442226269552e-01
6.027622534275232924e-02 1.106503125132283528e-02 4.612313618659406589e-01
5.857439347169982741e-02 5.150194010930378430e-02 4.675359475715730184e-01
8.425366587556963605e-02 4.969539960913822024e-02 4.748652924900718664e-01
5.861332222374063261e-02 1.684853485155052635e-02 4.612651255844429921e-01
6.141671755522120149e-03 1.404566501835761289e-02 4.453911769737032844e-01
8.642184633174360142e-02 3.860720014880174994e-02 4.738380903230334229e-01
8.420747163133607271e-02 5.472177746586660146e-02 4.897965578089361616e-01
8.174462697100327857e-02 3.422060166798601699e-02 5.095037686328927062e-01
4.847767354976006970e-02 1.375737933676526858e-03 4.541288453308062745e-01
3.575996189784955842e-02 4.670224018413989681e-02 4.597871712496498509e-01
-2.079538971173597664e-02 1.858988559313534683e-02 4.481166751923054692e-01
2.948766532806806895e-02 4.683210223289118596e-02 4.586762096118434107e-01
8.317471862209183109e-02 3.532792618203944857e-02 5.068316038523720257e-01
7.543503382061023110e-02 1.156540610560046964e-02 4.801242745512644960e-01
7.932859474304787550e-02 3.311452083770922983e-02 5.136431976850786008e-01
6.380572804821671440e-02 6.105380372364147858e-03 4.647854340808695306e-01
1.305943162310070800e-02 2.739442264076568517e-02 4.497595004075987668e-01
7.992806829872523000e-03 1.868959461139144476e-02 4.468570274212997351e-01
7.956765580611518951e-02 3.692971731932004342e-02 5.109182578340203396e-01
5.843293410718173458e-02 1.825970968985691015e-02 4.614401612698671440e-01
7.487210149460335473e-02 2.550327628839256511e-02 5.208404346413483266e-01
8.870678560361860976e-02 3.681073674071323742e-02 4.953779983739401427e-01
8.285007303889289909e-02 3.618141332367491581e-02 4.725951035602618533e-01
6.135665171247728020e-03 2.488273400581033148e-02 4.482118265181094241e-01
8.689019184986597477e-02 4.743457965142523769e-02 4.994117002262239979e-01
5.383496865376203623e-03 3.866658553009444388e-02 4.521361714258594899e-01
8.132496496548775877e-02 1.823338580135585099e-02 4.837013922018372769e-01
1.990341693430084172e-02 5.343807529328270349e-03 4.447446542527704327e-01
6.068626093342916611e-02 3.985669162944691091e-02 4.643877392085268285e-01
7.518337085674565989e-02 4.399164557232108919e-02 4.698335644267449540e-01
6.673111136556147960e-02 2.556018317809366502e-02 4.655253685763846572e-01
5.980922377048738386e-02 3.776241449397512578e-02 4.638773763465600108e-01
2.996321330810551922e-02 2.157424982651823600e-02 4.515828184988451843e-01
4.846660801404504421e-02 1.983876592596756430e-02 4.570112648594261140e-01
5.533632112038565365e-02 1.352852808473435642e-03 4.586021721691214137e-01
9.726060889234486306e-03 2.384864881554760174e-02 4.483950406957906143e-01
8.525758935975577546e-02 5.615291224669897302e-02 4.822389877974478378e-01
2.226442650684735264e-02 3.447210141688960422e-02 4.538663478805272100e-01
6.293031817620678425e-02 1.636057031989825855e-02 4.639083482568536199e-01
5.898371416252050359e-02 -2.374887519362223372e-03 5.178459701828784789e-01
7.751479821943201010e-02 2.468179996016920535e-02 5.158639467289370950e-01
9.576153728312232494e-02 3.689579554846499077e-02 4.810816247185458194e-01
4.054977273676192012e-02 5.143434354193868185e-02 4.623628065567694234e-01
3.656113380758176795e-02 3.983433555658185896e-03 4.488135187118420522e-01
6.720662371809345281e-02 9.279634022896374179e-03 4.669042528378731793e-01
3.079608249056976776e-02 3.009103619649920389e-02 4.539726859061321007e-01
3.715801104172537783e-02 2.254305859557648867e-02 4.534831833298237913e-01
9.253760625486764924e-02 4.565186218021070191e-02 4.778648969585086448e-01
-8.701707107895076052e-03 1.781488982268694676e-02 4.454955402928147956e-01
6.826866343418852567e-02 8.797564369300998324e-05 4.959684786845742765e-01
6.561027581086883997e-02 3.468833188606822854e-02 4.651595047467193544e-01
7.114710308678250106e-02 2.515099600748825059e-03 4.915770490310956142e-01
7.287758415163771153e-02 2.520435769192335904e-02 5.235546901751993998e-01
2.481389997466083852e-02 4.005123707937232463e-02 4.558988834421014436e-01
-1.309374147797475255e-02 3.246834783155414655e-02 4.506063774580860160e-01
-8.513018373375914188e-03 2.082245696065019788e-02 4.465239422219372534e-01
6.200904210074991568e-02 3.545916290066401973e-03 4.643346766565110695e-01
-1.155608272045596102e-02 5.775428850666139077e-03 4.420822344154747841e-01
6.235253313965120892e-02 5.638817519321884068e-03 5.194835501811145839e-01
7.794680788093945323e-02 2.256211967646878230e-02 5.138620400271134425e-01
6.915649933871938215e-02 1.049504383724516460e-02 5.133154787297911081e-01
8.123130927849733784e-02 1.838308179282631058e-02 4.820854155368504146e-01
7.819015598613807128e-02 1.267218838953699037e-02 4.912712616828717738e-01
5.241411685818461730e-02 -1.081503464877873674e-02 5.268452621612227382e-01
6.409566398700831946e-02 2.906098099390424898e-03 5.116441420290807063e-01
7.448945818795030260e-02 2.198113525915765948e-02 4.703557853174992198e-01
1.613043051991845320e-02 5.145907378511361402e-02 4.611187094896384009e-01
8.703970333631186329e-02 5.511236863192590929e-02 4.829858978445709106e-01
5.661645381851321962e-02 5.172890827058172075e-02 4.675719501619669538e-01
3.127000558749763043e-03 1.388429596569977151e-02 4.449445854616218554e-01
2.850416512379482306e-02 -3.495049517704702097e-03 4.436158301823949213e-01
6.164335623324062458e-02 5.351930177546539852e-02 4.727940275325965835e-01
8.128221765017776268e-02 4.526982457285282785e-02 4.720115771411951267e-01
1.632886024546267509e-02 3.843580863659305791e-02 4.538478203335825079e-01
1.644397701184274405e-02 -1.054020329712031245e-04 4.422083009088344507e-01
3.285606666693120098e-02 2.205502376944063272e-02 4.523402227547142496e-01
5.135781794307109349e-02 -1.047271262131947711e-02 5.277371101779947393e-01
5.595826066043544690e-03 2.733743512233601652e-02 4.489131947787637911e-01
8.982495832267066438e-02 4.566302692131368052e-02 4.957521062773860288e-01
8.239727207957278643e-02 5.193960189466299143e-02 4.946999572239628717e-01
5.140170809370796234e-02 1.617025496466854492e-02 4.577652044816383214e-01
-3.203980759542870808e-04 3.493043670772980058e-02 4.506986471238889069e-01
2.603184611839448603e-02 4.783727559468308604e-02 4.586233159211554056e-01
-1.885253419100776928e-02 9.544727690380725924e-03 4.440227656380221211e-01
9.410912895118470067e-02 3.342255435806461283e-02 4.848365333583445347e-01
6.508150268775142640e-03 3.011270017644228879e-03 4.422721886453122586e-01
-3.070062474093129129e-02 3.700233582452090719e-03 4.423886726520075974e-01
2.223772644676173110e-02 4.048452285135253903e-02 4.554998226873120393e-01
6.146596349606954501e-02 2.704216767749200931e-02 4.635945500406736808e-01
8.108158768862319676e-02 1.921152623480792618e-02 4.977112278365353748e-01
9.358728829761163437e-02 4.382150986941116960e-02 4.898834238079439740e-01
5.200518093036052281e-02 6.575174096636332219e-03 4.564606439207830602e-01
8.577687456611024497e-02 4.149728523765555677e-02 5.015107848505274690e-01
4.770708992447018210e-02 1.720414601449387140e-02 4.562854387222932684e-01
7.666172900828377434e-02 1.161137340179145896e-02 4.845961997770035778e-01
8.457374695425451394e-02 3.691742211949362862e-02 4.731206747092724374e-01
4.251184547675708469e-02 2.697558628516865883e-02 4.565205943493645391e-01
8.651611904586585522e-02 2.584995465285226668e-02 4.822701625514052570e-01
6.629763673836915408e-03 4.888115254413763489e-02 4.587210125304055364e-01
3.915722860298607305e-02 4.161038588552162104e-02 4.594286253395646336e-01
6.877439102326261822e-02 2.887594780049979049e-02 4.660882566645873082e-01
2.978636020652393468e-02 1.847648885004038802e-02 4.507073016865399961e-01
5.804583329537132963e-02 -5.201205904632094472e-03 4.630862485504079751e-01
7.875719849538119488e-02 1.643490337678934349e-02 5.026608630688932378e-01
9.815080971619806471e-02 4.404754405535318829e-02 4.829709643722209234e-01
3.368557810718628143e-02 4.612330336958140459e-02 4.593210090391545708e-01
5.478258686229253022e-02 2.348857681731844269e-02 4.602612617996900135e-01
4.576275193998136093e-02 8.638521907679797343e-03 4.535808123691898452e-01
4.241751925718769550e-02 5.355050098557691263e-02 4.647160689666144928e-01
7.061488245606235836e-02 1.617290869617970042e-02 5.188315409000795464e-01
7.152172127331640761e-02 4.813428252048890937e-02 4.698416845888475635e-01
3.872480841954050595e-02 6.751211705183827148e-03 4.501668330359783199e-01
6.689568503664708454e-02 -5.079986436605947453e-03 4.800158231918995599e-01
4.255539052774023195e-02 3.410229875286568263e-02 4.584480139146918098e-01
7.752002378332827071e-02 1.144931878476644800e-02 4.902627728988900868e-01
8.705775849288523160e-02 4.817275656719804955e-02 4.983395633329188446e-01
6.309594806973008174e-02 1.354926318012810403e-02 4.634359430612796649e-01
5.431139484682745433e-02 9.718086633320579051e-03 4.579048018574613521e-01
3.595666307961400271e-03 4.196857479498260213e-02 4.527973803517812978e-01
5.874775246380843641e-02 1.595617341406133094e-02 4.611765180337875636e-01
7.136489596688118386e-02 2.352002528774461455e-03 4.861418875463714984e-01
3.045826754457142682e-02 5.505329796469385362e-02 4.640210318068830886e-01
7.999470493772495305e-02 3.741712575000829405e-02 4.723768365350126675e-01
3.876366160194902322e-02 3.061087135258865749e-02 4.562201129297500102e-01
4.903797173240663498e-02 -3.635743688604714356e-03 4.546216682301147394e-01
6.423092557423751292e-02 5.537154844786160157e-03 4.655922090604968644e-01
1.692659977303451885e-02 -2.173524955092689427e-03 4.416535551930825809e-01
7.729078474171809099e-02 1.873707012608877287e-02 4.749622253930778082e-01
1.867526697768447791e-02 6.444482819454856910e-03 4.449041949435112997e-01
7.824694251080807628e-02 1.372179961166358764e-02 4.975698572514515861e-01
5.636718018735119989e-02 8.832775566825407966e-04 4.593667102774999234e-01
4.477968054245722723e-02 4.938842903828595532e-02 4.624515672793592103e-01
-1.517780263414925286e-02 3.134613189486663842e-02 4.507094877029645952e-01
4.890740096062842768e-02 1.672578529152847840e-02 4.566694411844020030e-01
6.232210274653988968e-02 -6.533533396098493637e-03 4.700468808626026562e-01
7.661448984360173797e-02 5.210498885426995824e-02 4.734892801796088957e-01
4.758675568388238963e-02 1.586873967296753909e-04 4.535009013488231489e-01
6.245960752044877468e-02 6.311395322013044727e-03 5.202523999052287573e-01
2.933541045611757006e-02 4.032704922802862052e-02 4.568503906703850759e-01
-4.201258459871292511e-02 2.483545813099094328e-03 4.464347332627195408e-01
7.108756168299726341e-02 6.790199224531835200e-03 4.751221699707465218e-01
5.209117567831629547e-02 -3.651090250495636451e-03 4.568188928661420789e-01
8.413577043923968490e-02 4.280878082155600145e-02 4.722529736115545496e-01
2.964468595032494075e-02 4.308791841897213759e-02 4.576269625275751207e-01
8.030886119652710931e-02 4.312000951634997054e-02 5.080384136315062582e-01
7.430729520532849963e-02 8.954279327370757990e-03 4.816836851064076885e-01
7.059459265085295254e-02 7.081072107298564886e-03 5.034348843956214514e-01
7.966942865885880132e-02 2.162526356635638414e-02 4.751299083970700332e-01
7.260244127192207186e-02 1.179228944086763327e-02 5.090715340310353332e-01
1.154135716928179900e-02 1.196318020347789633e-02 4.455803719375601712e-01
1.089674678910672670e-02 5.303275524617732592e-03 4.433790039031717534e-01
6.412986722513332183e-02 1.646325629101267826e-02 4.646535883710613546e-01
7.857928505577446709e-02 1.828083798655318060e-02 4.768950870937838649e-01
-1.380331620792467177e-02 4.373001104127603733e-03 4.416707542125524188e-01
7.553619701967870248e-02 1.022744557144457042e-02 4.834890539171718959e-01
6.389154575990785290e-02 5.298094691421085037e-03 5.154417484978260910e-01
7.421724851594845018e-02 7.304992672936000062e-03 4.925836041824181999e-01
8.179719833968059073e-02 1.907700802908240609e-02 4.826536308138967279e-01
6.393421616429330323e-02 2.546098804007127913e-03 5.114896143649769744e-01
-1.283829131293988401e-02 4.295033375624937588e-02 4.564288847141801941e-01
-2.666413825762350715e-03 3.908288248194813873e-03 4.419493599574864096e-01
1.742806966008677086e-02 4.316049971001788277e-02 4.551512685122402480e-01
6.897078245988914891e-02 3.361320887178021691e-03 5.003875751875387357e-01
8.783653077823369570e-02 4.676347332223790287e-02 4.754365660664529591e-01
7.021192322837203903e-02 7.621928504413314973e-03 5.055919966238059393e-01
6.567907881353891864e-02 3.058344814474287313e-02 4.648471394633891807e-01
8.925820124780040055e-02 3.303302103555877389e-02 4.900915406785693040e-01
7.439532527083596303e-02 1.840920299330429596e-02 5.157686756410434503e-01
8.226755169731740647e-02 2.966352652807622073e-02 5.075190091780985568e-01
4.563274049631459856e-02 2.781718273726744087e-02 4.579505930614882203e-01
1.749531074162424815e-02 3.483133604357256663e-02 4.530265152640767234e-01
-1.156116729923610878e-02 4.307174489297681784e-03 4.416930751410139688e-01
-3.892197403893873919e-02 2.488055070271740117e-03 4.421201433462496055e-01
9.338645810028743666e-02 3.660899314787465636e-02 4.902513853671686128e-01
-2.777505823876192520e-02 -1.109462470993454603e-03 4.399148312377944015e-01
6.966952932496328632e-02 1.237181217678400870e-02 5.155149885780969665e-01
7.403151479999081630e-02 1.784427869179663548e-02 5.158166158245998112e-01
5.766916665983549267e-02 2.017609009221802557e-02 4.612063487871190803e-01
6.151478207120120861e-02 6.118023026168829467e-03 4.626982825354797324e-01
1.821798853926035605e-02 4.486199036491246572e-02 4.560537192954309260e-01
6.405281472202040138e-02 7.930412252294665593e-03 4.644095395322070385e-01
6.631466907810810996e-02 -4.544931341318722735e-03 4.988706173543682176e-01
1.076899288662622883e-02 3.808978704984777863e-02 4.527274737295640672e-01
-4.697467069452537086e-02 -1.956035402349086405e-03 4.435621596033215708e-01
9.365538413674959206e-02 3.345195783910984155e-02 4.800334691413921107e-01
1.679051044150463995e-02 4.420488886647755411e-03 4.437925826452249201e-01
3.604424537715346377e-03 1.915631040868114032e-02 4.463821133875229275e-01
6.371441962191373709e-02 -3.437069964572866954e-03 5.070715231846649740e-01
5.158993783105284003e-02 5.211075728907096222e-02 4.665494962672159796e-01
6.606056618211798848e-02 4.329913768945137286e-04 4.716621180666998314e-01
8.000390968888280996e-02 5.124753848540539169e-02 4.992633929776118529e-01
5.426085348888684545e-02 -8.917940522206502935e-03 5.245798861317048090e-01
8.281608097819337377e-02 4.819620671511598564e-02 5.020665361834523166e-01
8.056939404481426592e-02 1.603143345218033949e-02 4.922325198001676894e-01
8.561745411907441261e-02 2.777220920587864308e-02 4.958771705045508793e-01
4.998302954073888249e-02 -3.933211202274942281e-03 4.553320662164161980e-01
5.138455089421353761e-02 1.450018961153220522e-02 4.574591179901132398e-01
4.450324000197347640e-02 1.176382825167317930e-02 4.537343156695940460e-01
8.506681083549297306e-02 4.813521383449798768e-02 4.745033732539194471e-01
7.129808233020062946e-02 2.975860178790111499e-03 4.923887903084496753e-01
6.026700769361000715e-02 -1.120386492592403407e-03 5.158401597842238173e-01
1.991793355853648667e-02 1.910887265967552151e-02 4.488772247219651734e-01
1.667094118296568762e-04 1.892294414311282771e-02 4.458848918883908663e-01
-1.269161681650795258e-02 3.081537698125991209e-02 4.500911251605062557e-01
5.180422657560269928e-02 7.717213611109764032e-03 4.564281936597830991e-01
6.849194168330342836e-02 3.947631877800463623e-02 4.670038236298337253e-01
-1.475445850198478862e-02 2.252146640116998999e-02 4.476506681342251603e-01
-1.573150578825738277e-02 3.100488441107113191e-02 4.507799652733681661e-01
-2.088060479359224106e-02 6.799423790357666218e-03 4.428656488593024076e-01
4.929649512762473290e-02 3.987258660045312625e-02 4.614547905969127450e-01
3.452975985746357945e-02 4.452321863889819459e-03 4.480698537396973213e-01
1.364406445950038828e-02 1.196394297710088282e-02 4.458930119603083386e-01
9.085876098120637678e-02 3.033229876515194934e-02 4.816721982647048650e-01
-5.516613153722539110e-03 4.232236756292412361e-02 4.525092026006027890e-01
8.654141382141580796e-02 2.603270565929487537e-02 4.868303952126663559e-01
7.098162908597425991e-02 9.508828774563955061e-03 5.078491613260897042e-01
7.555367186426281689e-02 5.287030792296578546e-02 4.751829630069068777e-01
5.092572233271824844e-02 1.925672913479373194e-02 4.578863564810602971e-01
-1.542881257439663104e-02 5.971515477325529953e-03 4.420633087671465566e-01
4.470979669258458300e-02 -3.474085928493036383e-03 4.517082954706659881e-01
6.542990859086318667e-02 1.225909142915239738e-02 4.652514092364959386e-01
8.754136260999224872e-02 3.062874769960645394e-02 4.924177222064598514e-01
9.125739023830321817e-02 4.756618731600865263e-02 4.922162512449129723e-01
-4.413457199726548985e-02 1.014484469360814930e-03 4.444357791681361469e-01
3.117448391906432748e-02 5.534721278601817396e-02 4.644088226783035789e-01
6.052826458462665093e-02 1.067002483599955448e-02 4.613143470446752215e-01
6.886857428683314242e-02 5.025290080365013221e-03 5.037127831093646257e-01
7.848138284447277180e-02 2.077842837505038814e-02 5.107210670298449884e-01
6.398926295314695534e-02 -2.423084245045610367e-03 5.069036948289342703e-01
-6.466548411436348447e-03 2.824621803130975342e-02 4.489270022597972587e-01
7.602587079418057781e-02 1.089694356649164447e-02 4.838445418394338171e-01
4.865325800114176508e-02 1.274180053747902761e-02 4.559250332131236649e-01
7.681243192386333352e-02 4.828670217341982096e-02 4.716619844685742136e-01
2.860394408545969408e-02 5.322013784974367195e-02 4.624965387658892535e-01
2.505434241000153300e-02 5.220686054754500316e-02 4.611143923491055063e-01
5.684980295548642398e-02 -8.595553585473375210e-03 5.215052441325738197e-01
4.276972359617109420e-02 5.194734030967449595e-02 4.633561889199536710e-01
3.031770559856596797e-02 5.301915932023007483e-02 4.618162250790421863e-01
-2.415313329005687112e-02 5.531314113590310617e-03 4.425373427108669766e-01
5.065023436810295321e-02 -5.043063636464254970e-03 5.264766986671994831e-01
7.784076466880501810e-02 5.262357357680358394e-02 4.758518571950761111e-01
-1.965216368646409070e-02 9.138345324935870720e-03 4.439453953956891130e-01
2.857047665245000811e-02 3.361133674627449913e-02 4.549313226646363173e-01
7.879458311491219225e-02 1.384152613896054429e-02 4.860830617782302965e-01
2.623456104029566610e-02 2.453671008914531937e-02 4.514560425982537817e-01
7.128011697112551781e-02 4.061649402230002592e-02 4.681211416142603277e-01
2.145105799845089048e-03 3.188363568922027158e-02 4.500699349968647067e-01
6.742455984279541181e-02 4.598155963723041251e-02 4.672871462229838402e-01
4.218007787730688324e-02 1.003360513740974951e-02 4.521485145678019180e-01
8.611994050372327736e-02 4.046914642975389664e-02 5.005997631442959950e-01
8.012383429294346604e-02 1.730932425508907233e-02 4.987547999217403771e-01
6.559628971210629267e-02 3.348245779466816480e-02 4.650385204118281934e-01
7.200009084399695836e-02 4.882500159862728645e-03 4.824023077623875166e-01
8.505764958963923927e-02 5.030072929296357936e-02 4.968353418937848653e-01
5.261706674958131769e-02 1.199857845636467801e-02 4.574724277866076827e-01
4.451557261537923693e-02 5.390733590406443509e-02 4.660712167424411190e-01
6.727679436403696811e-02 -1.204013496654617477e-03 4.981340225698313584e-01
3.835942965586080361e-02 4.709725140545903410e-02 4.603190614277931636e-01
8.436766182726106178e-02 2.272938312389480298e-02 4.817315472148960831e-01
9.279317069745192728e-03 9.593689029301319046e-03 4.445886878179842183e-01
-1.068603022845801206e-02 2.818563600210404960e-02 4.489229888011791458e-01
3.662784012303853948e-02 9.565767048235643971e-03 4.500704181750412314e-01
8.107516076198660604e-02 1.639275486564746934e-02 4.906597434285929760e-01
5.784239591675319203e-02 4.408372503416406463e-03 4.602142400369207409e-01
-9.794830793721249346e-03 3.618678298935761040e-02 4.512665589004649092e-01
2.316666663998129955e-02 3.407751270501109542e-02 4.539513400725313508e-01
6.690494849330956562e-02 3.637435846431369933e-03 4.705496605120244036e-01
-1.242326814688015854e-02 2.477660110358021264e-02 4.480175776932226461e-01
7.519667462257496882e-02 2.027412916248295255e-02 4.712663862617721966e-01
5.083631817657493362e-02 -5.155146955792539940e-03 4.561023936235457099e-01
4.667127587737871647e-02 -8.922155669217994578e-03 5.313501019320161500e-01
6.086858226456258805e-03 1.251785147179266047e-02 4.449713328725447004e-01
9.463768676678990799e-02 3.230977787305962939e-02 4.818518524478874743e-01
-5.307383889976051775e-03 4.110956258433415278e-02 4.521714170207024597e-01
-1.422171397526982364e-02 2.270327325434207122e-02 4.475961740061651928e-01
6.982342426693217974e-02 5.309765542788531800e-02 4.722710695017961480e-01
5.155270097085787318e-02 3.333846636118417001e-02 4.611587685885291665e-01
8.295954946189050550e-02 2.827145262832771178e-02 4.737691531719239735e-01
4.529446034078866284e-02 1.705774451949852027e-02 4.553246807369902838e-01
4.011072901924680328e-02 3.469609467636841638e-02 4.579103268660758008e-01
7.582651329738741841e-02 1.532738816659930635e-02 5.086595598462848589e-01
9.032238528102659592e-02 3.181325852298470813e-02 4.786024042797241140e-01
4.295661098629902086e-02 1.171511606926233309e-02 4.529405150074680142e-01
3.718792814436255173e-02 2.622969654838303369e-02 4.545372534683433385e-01
3.115942979405744717e-02 3.787340084692299158e-02 4.566915374950969442e-01
4.031409676615021337e-02 4.682151509734280154e-02 4.607349084531032202e-01
6.961391350632703534e-02 -1.070745669197634489e-03 4.876837268507316914e-01
1.244381444805232537e-02 3.814006446917395793e-02 4.530089938764305102e-01
-7.161510643491446164e-03 8.469461977296748045e-03 4.427264971808838601e-01
7.981194717242710845e-02 2.615264984290777833e-02 5.117083609660907362e-01
1.128412086801793696e-02 4.986584527891234353e-02 4.609597515453655592e-01
-7.193531760035870581e-03 4.387100289484232446e-02 4.537365495549277594e-01
6.457506066309778858e-02 -4.278719739601993637e-03 5.041745473206492578e-01
8.424941145811205845e-02 3.286245716762019320e-02 4.727533318963588194e-01
4.658237829846305356e-02 2.221141554889136463e-02 4.566954894683590283e-01
9.457929693148223182e-02 4.333918712300897924e-02 4.870491917599125697e-01
5.184872464856901675e-02 2.662133591358370466e-02 4.599831393551589986e-01
4.518040626875538535e-02 -7.894411308745914735e-03 5.319382004750569104e-01
5.080033817815787778e-02 3.236360525027135587e-02 4.607527243201081091e-01
6.889087931122934993e-02 -2.689854124573687940e-03 4.857438057529337438e-01
2.133600377658820269e-02 2.404198094364991267e-02 4.502654043183587085e-01
6.746455207530288600e-02 -3.430930769515143450e-03 4.956732065899925321e-01
9.078213582829247619e-02 4.488711974892763829e-02 4.767674951256603566e-01
1.736360550278420734e-02 1.721635097458009550e-02 4.478859062117898082e-01
5.691835991727435540e-02 4.219472571047825499e-02 4.636207329814434064e-01
6.675280833234334410e-02 1.531060477313813707e-02 5.235655035417255965e-01
5.636400619966600717e-02 4.224100429761666609e-02 4.634725223253087778e-01
7.917450384265276031e-02 1.922490901192614940e-02 5.063107545026049872e-01
7.114341864027522166e-02 3.320125539591642361e-02 5.206780612902457417e-01
