5.415291962984150609e-02 1.555190657800427541e-02 4.595675196398725793e-01
-3.383858825001325073e-04 3.212879821819882020e-02 4.504346507583579240e-01
4.452651363913374266e-02 3.940047109818728410e-02 4.611174444574308584e-01
1.472988346443881470e-02 7.039190120546063439e-03 4.447145326903191864e-01
-4.373005341183300310e-02 -1.104212336107534415e-03 4.411705334446707205e-01
9.812999509287591293e-02 3.840436562851510388e-02 4.855263146949602704e-01
2.211347409887310170e-02 3.695710348998606370e-02 4.553283306003456099e-01
5.679838523755216528e-02 3.694406747098519933e-02 4.642241770992573957e-01
6.506733417349147564e-02 -5.413487057900655437e-03 5.012236840606035804e-01
5.453175455727330562e-02 2.245286156332716720e-02 4.610116092114348585e-01
2.690154227240166770e-02 4.052001656820033298e-02 4.572248726179393707e-01
-2.133058135257319410e-03 1.910564018388069291e-03 4.414279394453353711e-01
6.665570922788044417e-02 -1.977919383383775973e-03 4.774357404405076832e-01
6.149896932842435077e-02 -7.265004579062115352e-03 4.705474320277174827e-01
7.508301404475349605e-02 1.032398644147712596e-02 4.864365722991040308e-01
-3.694692856766853065e-04 7.628786555267168430e-03 4.432868401818555459e-01
6.597026898329695632e-02 1.280722362096549036e-02 4.668845435514294984e-01
3.826859157067918210e-02 5.564328271714192448e-02 4.676991698735321057e-01
5.947565568162195559e-02 -1.386166951352105908e-03 5.168083393249804924e-01
1.405755581353769837e-02 1.785622683304201319e-02 4.479264463041814914e-01
2.961262781971422606e-02 5.229008532404645637e-02 4.617687967431291507e-01
7.995402076897137333e-02 3.008228180070411650e-02 5.113140592626016501e-01
3.586033745739211631e-02 1.150164824813357071e-02 4.508736760046285763e-01
-2.904518021786494514e-02 1.160591337752198485e-03 4.411088803471736597e-01
7.531286457694705283e-02 2.385656509968401076e-02 4.723454903670669114e-01
9.762051155316475715e-02 4.384308140575788465e-02 4.852840239291775215e-01
5.325274298729963662e-02 5.340268134739620948e-02 4.719320205178669791e-01
2.598842129244011406e-03 1.915796018701287559e-02 4.465888044422264280e-01
8.833416944202278354e-02 3.362261896652696258e-02 4.887410137189085457e-01
4.161840411157121788e-04 8.066772066731706797e-03 4.434503471897303650e-01
5.963235179806551482e-03 4.334812972111765778e-02 4.542257515937097589e-01
1.503066569853616329e-02 5.197048933270891069e-02 4.632924810198161825e-01
6.668748650738498540e-02 -1.804632279072696834e-03 4.983823490478647145e-01
6.162615402314142177e-02 -3.862448854447687180e-03 4.683965161178353931e-01
8.258005104865830115e-02 2.351666446945268815e-02 4.798444356917007658e-01
-9.371000046337273418e-03 8.009456070179424639e-03 4.428150897256042939e-01
3.662541739997440815e-02 5.610314245460850530e-02 4.690915622315219302e-01
8.671457695195021464e-02 5.209650649237768105e-02 4.808086478879864401e-01
8.854834840047284827e-02 3.048967776143769737e-02 4.812033451088995606e-01
7.120998940928671694e-02 7.842759194142628551e-03 5.020270815487865024e-01
6.249974862121076419e-02 4.144723206764813934e-03 4.659092361478419098e-01
-3.783764491544052647e-03 9.142998722141658374e-03 4.433156166555164424e-01
6.787669629235004720e-02 -8.720240250934749304e-04 4.950191626040369441e-01
2.323279509835507461e-02 5.020903882110297478e-02 4.601630323856397697e-01
2.525492444198559894e-02 1.370017348607830733e-02 4.488823870829361518e-01
5.302977898926686945e-02 3.850728218612078230e-02 4.632729081920142211e-01
-2.623043439033743637e-03 4.622543912183957326e-02 4.556596764697809498e-01
7.216142370034614451e-02 2.252038882607526604e-02 4.703861585437750237e-01
2.233810908089043853e-02 1.795677019819287915e-02 4.493196030348299286e-01
9.154441724833102534e-02 4.494370734665142919e-02 4.929817328173831670e-01
3.523824724318511820e-02 2.354686337691389540e-03 4.482673190352637893e-01
6.346719246963065941e-02 1.879110228750135309e-02 4.656053022393519258e-01
-6.235059917207368477e-03 2.319251521170724931e-02 4.475564526034729318e-01
7.031251233361937580e-02 1.426860715526906062e-02 5.160498736238220419e-01
7.813224022768623656e-02 2.552223516720626695e-02 5.136168357405980212e-01
8.402592246646002627e-02 4.754160657506927706e-02 4.754845694250712240e-01
9.120549440012722109e-02 4.018876658470865032e-02 4.790781884274031288e-01
7.976121266839114599e-02 4.296717261005778693e-02 5.091452097300765978e-01
7.542227991046920876e-02 2.178672651702388829e-02 5.163253492175809978e-01
6.795340195193426414e-02 5.136777182168737743e-02 4.715458680205483200e-01
2.448602017417993854e-02 4.124306665471126621e-02 4.569319676295397481e-01
3.276066019011184688e-02 1.942117818590632233e-02 4.522658746933145846e-01
5.853115961012898827e-02 3.353175028294908856e-03 4.615812993741035819e-01
5.995232167113755117e-02 5.997458677497868353e-03 4.624642527064356523e-01
4.120192874887983192e-02 3.518124741928469607e-02 4.592595688676830434e-01
6.713041600763344774e-02 1.010010691458415599e-02 5.154100330451154566e-01
9.547298604797972710e-02 4.381174412597001189e-02 4.873538541653489875e-01
3.399251719505072544e-02 -2.291543408001194080e-03 4.461190814256645321e-01
7.771254661539774011e-02 1.411569872488483909e-02 4.948308041659634227e-01
1.788999596519603302e-02 3.781229700343230558e-03 4.440312729741346387e-01
5.275278455239922754e-02 4.937813753192418775e-02 4.653986198401331431e-01
2.638616506085654859e-02 4.321265139144032236e-02 4.578586174649629803e-01
3.709782950568851767e-02 5.195966419923037788e-02 4.629298672553917027e-01
8.444754578910282361e-02 3.142646173664754433e-02 5.005166660611551910e-01
4.416118961346329752e-02 5.082679411919125562e-02 4.638542166824129453e-01
7.348749549430855232e-02 9.337933953499921030e-03 4.998621166559880646e-01
9.296149994489250057e-02 3.596056151582047861e-02 4.821847798739085089e-01
-1.002069966590994621e-02 4.141845169119672682e-02 4.532418529938768703e-01
9.611952748081202536e-02 4.500832332964038035e-02 4.859029023109676104e-01
1.763668882509532992e-02 3.898495732701331290e-02 4.549615318684506193e-01
6.736836564296611041e-02 2.645154475328240565e-04 4.769979876033970667e-01
8.029758945513364166e-02 2.090717775341890267e-02 5.007026074740585919e-01
3.516814994669506533e-02 4.365220602983519577e-02 4.598947350545566914e-01
6.762367787358462834e-02 -1.464601815764410286e-03 4.796603236741059373e-01
8.903820012303910458e-02 5.188109780907750740e-02 4.848922527126421356e-01
1.208553707637931643e-02 4.945792017600875862e-02 4.587579357738401642e-01
3.244963951530061008e-02 4.300571714694889636e-02 4.590741910762166644e-01
4.924358014688618584e-03 9.226856149066950050e-03 4.441524147408742462e-01
5.041869815153580264e-02 -5.039910321500610732e-03 5.267175005952819955e-01
8.745191728837618805e-02 4.429204043204165026e-02 4.982305672315314182e-01
4.587507374542959537e-02 8.934098176755120649e-03 4.542946251248125566e-01
3.757380747190603928e-03 3.619100365442329964e-02 4.518656254415946427e-01
3.521637207943286579e-02 2.618884830576702696e-02 4.545882473664101808e-01
1.302573995420840819e-02 2.435174854830831834e-02 4.494510661813313490e-01
3.154071671544312477e-02 -2.815170138861859163e-03 4.448968999242344791e-01
7.639878768359027739e-02 1.349878349651958964e-02 5.001097834312764334e-01
5.005454541719838585e-02 -5.797104809843965298e-03 5.272202491323840778e-01
7.837872859080384502e-02 5.335478476591554858e-02 4.766581737178748335e-01
5.431667793126853522e-02 5.010012931645722173e-02 4.661390173741031817e-01
6.376217319708736564e-02 9.676969223765975042e-03 5.214788754139618732e-01
3.943516092385749433e-02 -4.059776359793296902e-03 4.488443340487208166e-01
3.179957586381721574e-02 3.785696723614085518e-02 4.576859196567228394e-01
7.923889814349875660e-02 4.416682783267945195e-02 5.090939990624990807e-01
6.301655548622224490e-02 5.158751903314223383e-03 4.659297686898171698e-01
4.691573179143487815e-02 -9.587135138769332932e-03 5.315862668813232661e-01
-1.870532663542324309e-02 3.435346718771839503e-02 4.531764496439243395e-01
6.407731111192933871e-02 2.081433859024572897e-02 4.659266529727410511e-01
-5.223792733040207199e-03 2.004385075719597800e-02 4.464318321823722013e-01
5.339412944203443534e-02 8.065169511761617963e-03 4.579472844184945823e-01
6.439110389008534385e-02 4.673984130460146977e-03 4.680104632963213995e-01
4.315738943301894448e-02 5.141231904991126062e-02 4.638766079089164940e-01
6.853247888862228077e-02 2.209608019839036722e-02 5.264170922934268138e-01
5.747544896174690970e-02 1.837648407699202582e-02 4.617724916966875481e-01
-2.575153086572015693e-02 8.585886442817483241e-03 4.455944712169530586e-01
4.356438247378902756e-02 1.784541657645845325e-02 4.554793168109621537e-01
2.249071496897505143e-02 5.340362688318852497e-02 4.637853367446936326e-01
6.450180065011862363e-02 3.794983797641542783e-02 4.668180944901047513e-01
-3.767536641277343529e-02 3.664931752597942044e-03 4.467231099447952491e-01
1.932298367313278059e-02 2.212729580145867542e-02 4.499446036711482466e-01
-4.344294019026580939e-03 4.413965188649375364e-03 4.421556461668917359e-01
5.488134740061758471e-02 1.969152352469518905e-03 4.589906010065999409e-01
-1.055713551879075909e-02 1.652380887740020551e-02 4.453644503077850980e-01
6.312916062349312185e-02 5.499618370269970802e-02 4.753053998152605986e-01
9.300433266674505706e-02 3.463019000076851539e-02 4.857143765983270023e-01
4.598937408300444313e-02 3.858710611230817267e-04 4.531787278351409043e-01
6.695989663711666984e-02 2.381462724062059083e-02 4.674078434460256504e-01
-1.606187900475591554e-02 2.909369882195246906e-02 4.503015495728608375e-01
7.127740109986210881e-02 4.785918219176194671e-03 4.942661999871329481e-01
-5.800632530826984809e-03 4.103388142951733958e-02 4.526256363436974572e-01
7.607576619063283196e-02 1.287254985162140583e-02 4.846546523876943402e-01
7.353962035396864605e-02 9.236082458306964921e-03 4.829048449775149576e-01
7.825184956612969700e-02 2.337539813367443126e-02 5.127557099205602986e-01
3.883477792722950933e-02 5.284618714998361860e-02 4.638179741279594981e-01
1.639226111500459437e-02 1.142493919404636432e-02 4.464773319498695492e-01
7.712900340754526296e-02 2.757101993807764204e-02 4.719150493610656527e-01
8.156382581260482323e-02 2.959849559199625307e-02 4.747416708072598746e-01
7.418123913602839292e-02 2.899282156316486392e-02 5.221791149843029167e-01
8.376411686138156287e-02 3.217168290897676891e-02 4.755153598081038879e-01
5.568792353110357807e-02 5.392596687734262789e-02 4.731476959842761953e-01
8.796677135541518255e-02 5.290684609210373479e-02 4.904304188090764516e-01
4.492731927037862949e-02 2.413820782968476020e-02 4.573768578143250774e-01
8.184800258371431603e-02 4.573494587037211373e-02 4.738562793678034457e-01
1.883041408609374689e-02 6.445938715851344362e-03 4.452144487241582183e-01
6.979669432336824131e-02 5.048475478277592021e-02 4.717296811573066795e-01
8.236309612926752399e-02 2.295978459305191705e-02 4.805796096199657086e-01
1.237986248465906651e-02 5.038919397343968182e-02 4.607950907884026948e-01
7.026166315185564115e-02 1.782843956012359482e-02 5.205382087867428398e-01
6.590712330645601136e-02 -3.837145020379682456e-03 4.995727242747943220e-01
4.996947954004189729e-02 5.352415852778473482e-02 4.708030110713304350e-01
2.680050927816853348e-02 4.358872170112341321e-02 4.580443329714419254e-01
7.945642616980487516e-02 4.001667540542723500e-02 5.101092828563651427e-01
5.197928694254839999e-02 -3.430744458876002628e-03 4.574249115759890794e-01
8.920806088062951944e-02 4.313034479138207894e-02 4.773279596658563939e-01
8.734783170258697549e-02 2.998403331488416756e-02 4.815838858007392420e-01
8.424381379540295256e-02 2.474070560978465158e-02 4.850051064446256333e-01
1.613072615632253626e-02 1.111113110798435041e-02 4.463483782347908435e-01
-4.299459110204428315e-04 3.077792991065471731e-02 4.500707206872294752e-01
2.667403291699051507e-02 3.075096411035634775e-02 4.540526492464489472e-01
4.166762407867862644e-02 2.153144624962908746e-02 4.554869223011660528e-01
6.901508706484915656e-02 1.684909849159902870e-02 4.689950497288059572e-01
6.978367942267836577e-02 4.969752041303525728e-03 4.991753870894478085e-01
7.256975498643593314e-02 9.947272170027096627e-03 4.780466886596562159e-01
2.579139320104343117e-02 5.217289164086592879e-02 4.613585079976124104e-01
4.621561910964548658e-02 -7.570895846452489059e-03 5.309684933375979909e-01
7.697094633627928062e-02 5.474810351219345367e-02 4.923132081347573186e-01
1.205261350076969155e-02 7.549174412398499540e-03 4.445206022909530263e-01
2.546014708089344193e-03 -1.311952071734099039e-03 4.406682748489827439e-01
3.195164681869447354e-02 4.474152054790134572e-03 4.473994192817498106e-01
7.971974988667021589e-02 3.404310697624839122e-02 5.123607115774355680e-01
-3.002716539030780840e-03 -1.853451376744984702e-03 4.400398070867205802e-01
-3.000386617824517092e-03 1.379082011678118766e-02 4.444294284717165144e-01
8.207241346342473987e-02 3.272544448094205638e-02 4.736441407892983957e-01
6.768326614727820933e-02 6.803464517116822839e-03 4.713593986354508991e-01
-8.652581516957259453e-03 2.035513003824079500e-02 4.466014074154786018e-01
2.566959828729396820e-02 3.162008333235425545e-02 4.542031953291895685e-01
8.796123305884534158e-04 2.445294286628946906e-02 4.481293258321049633e-01
7.824495529827871221e-02 3.158387269214035092e-02 5.148988524687873047e-01
2.669368897560911100e-03 1.624704021654856806e-02 4.458350792767152293e-01
-1.168966190298320953e-02 8.273013278354649294e-03 4.429296033403506416e-01
6.129057688710796981e-02 -3.055037906353628464e-03 5.122075863572627119e-01
7.478225491709940276e-02 2.966669128323040638e-02 5.212450631514338184e-01
7.014574769988643488e-02 1.814056756445772342e-02 5.210426539792163414e-01
-9.799275514886535837e-04 2.897604800095549687e-02 4.495409944729682472e-01
1.812559539043107071e-02 1.891186787559119564e-02 4.489214090568707793e-01
9.695165013994609671e-02 4.174904604081045023e-02 4.843838139930206066e-01
4.142947923565949014e-02 4.228791489066480863e-03 4.515052239775195764e-01
6.422623957210074619e-02 -4.275449568402752559e-03 5.042533267655681106e-01
8.637545887777857423e-02 3.000388523243032596e-02 4.791547974370328200e-01
4.670433080509095447e-02 5.423748563457995997e-02 4.704130491157742511e-01
7.700991879732113632e-02 1.691644917820501332e-02 4.787743947510299525e-01
4.319329509805389794e-02 9.281115261205515055e-03 4.530248759458684327e-01
7.172303337867796946e-02 8.407166260226710611e-03 5.021836540976377661e-01
3.628230409621312907e-02 -2.715528964162928788e-03 4.471162763101907967e-01
8.621095483879702426e-02 4.563018733199031979e-02 4.760936137761263010e-01
2.747902814746440089e-02 2.662494057215253687e-02 4.528621484776682027e-01
7.460576648561215163e-02 9.090357721228290930e-03 4.896338779220533732e-01
7.419363810092328981e-02 2.388633936149942710e-02 4.715893773432053848e-01
8.646329513227396513e-02 4.360436358192919942e-02 4.753551267536067493e-01
-4.458670681424616901e-03 -1.681909017045576634e-03 4.399853950506402156e-01
-1.975524063192147899e-03 2.056027091491829939e-05 4.407779001419505072e-01
5.729719315619666992e-02 -5.813832657829526643e-03 5.199614729471172536e-01
6.535180403603936539e-02 1.993601375347700631e-03 5.060508135192367529e-01
5.018177712642783728e-02 2.987920246945632158e-04 4.558467925729485226e-01
8.172578411714986890e-02 5.227802254498570972e-02 4.975807945065020554e-01
5.974413563921794623e-02 6.714587109909703894e-03 4.622126369097913079e-01
3.046652391876803270e-02 5.123880638562557099e-02 4.613400211842927923e-01
2.106115750023214092e-03 2.039173878673333079e-02 4.468496155747543885e-01
6.607699009088655040e-02 1.515162535253726994e-03 4.727200571855501021e-01
3.841757626041542029e-02 3.895642237469103958e-02 4.594588379098083486e-01
7.587164338086251070e-02 1.651647669270763993e-02 5.084187231486979597e-01
4.886102467773386498e-02 9.972546060006522856e-03 4.559389015339749829e-01
-1.144491486349596618e-02 3.853412226838959231e-02 4.523743405352799729e-01
8.821965982231635972e-02 3.329547856629631181e-02 4.886190144071994590e-01
5.258366654534974566e-02 2.758306760590911386e-02 4.614469684105393377e-01
4.739999538357190373e-02 2.361402209774747345e-03 4.542030991792326833e-01
8.724820814320533024e-02 3.472820376426629524e-02 4.953679666144854554e-01
8.359667155409833406e-02 3.514286254903853379e-02 4.745927946313781010e-01
6.569157351730579852e-02 1.304004846692925074e-03 5.038931717242766117e-01
8.470331302530048623e-02 2.605504209939762950e-02 4.888467555200107784e-01
2.714703226155470994e-02 2.903443875808781743e-02 4.534811196720812121e-01
2.058804306896788380e-03 1.365565242858772597e-03 4.415650948917713703e-01
1.281463068383152312e-02 5.066004463280276288e-02 4.611303689263026029e-01
-1.337941289808347589e-02 1.120086921098432595e-02 4.437496421576080929e-01
7.240227407204666288e-02 2.124832515058642027e-02 5.207616866208790718e-01
8.393456073378323390e-02 5.717845285234670477e-02 4.895366695306514471e-01
4.997284885227460532e-02 1.226527104503499430e-02 4.569721898984361319e-01
3.828658734909552025e-02 9.227716228875249005e-03 4.510292570045575933e-01
7.237803173727555550e-02 1.213777060745987492e-02 5.085492000977077653e-01
8.817136886388517170e-02 3.178266228101927354e-02 4.798604999160071549e-01
3.839089547467213620e-02 4.335834467014998417e-02 4.606357086120447253e-01
6.224615707183989849e-02 3.085912907356483034e-02 4.650836277904398242e-01
6.889772883815242777e-02 -7.648588519325143220e-05 4.840051040467652776e-01
7.153348483952232106e-02 5.941501325354387603e-03 4.825689102417570764e-01
2.374505285165771223e-02 5.116090948730044399e-03 4.456888020084339708e-01
-4.273947385720548720e-02 8.573298839526543366e-04 4.416537374870680988e-01
6.805635280904194506e-02 8.152053775854742682e-03 5.101911256557288832e-01
8.309279312452533262e-02 5.398172522053645145e-02 4.935932234054620782e-01
8.996549513174045831e-02 5.017344189475696214e-02 4.904070844937929441e-01
7.941135884582627147e-02 1.690220855219386198e-02 4.866146853722120857e-01
5.891475326537597146e-02 5.253318686036619056e-02 4.697111246051495770e-01
2.552790553356481390e-02 1.561836228741481959e-03 4.446581654505820103e-01
9.359421542915995207e-02 4.742073738992818449e-02 4.845480969564833207e-01
6.985402857758270245e-02 2.816681567132175643e-02 4.680405461459868910e-01
8.244742524144491047e-02 2.181933840960058671e-02 4.905797315547028581e-01
4.180994734947895280e-02 -3.949522453772706491e-03 4.503046172408335934e-01
5.892713065867576094e-02 5.104629442557863384e-02 4.682597778605176453e-01
6.893982526478872885e-02 1.016191892348949737e-02 4.713143828248427813e-01
4.771754707869984430e-02 5.394123935175166445e-02 4.703084802944120235e-01
8.528041209798170597e-02 4.610085306525042725e-02 5.008505915046796986e-01
8.138675139889474386e-02 2.355852088128198435e-02 4.994837660301196247e-01
8.334073386063603484e-02 3.603254392869532918e-02 4.745395178858134444e-01
8.949611156334573436e-03 3.548293206979921677e-02 4.522874849778457107e-01
-4.278788473733909081e-02 -5.740855429824558761e-04 4.411870666662658369e-01
7.822381133754124916e-02 1.587714120431527737e-02 4.846951004599991952e-01
8.369199425748501120e-02 5.229248834444703842e-02 4.777130556736786104e-01
1.419885657268834742e-02 2.897555058578293874e-02 4.509214362732386627e-01
4.430289464648484721e-02 2.274439917883040382e-02 4.567003633374805971e-01
3.271735325527530547e-02 5.420459605003263848e-02 4.635919624403130324e-01
-7.456237278742523962e-03 3.259435302464714496e-02 4.504135614380953556e-01
3.284087995785082981e-02 -2.943946508268993970e-03 4.453998589865528213e-01
2.327767250251792062e-03 4.424157164810427895e-02 4.543071058284766095e-01
3.329259166365657052e-02 2.906129568278814287e-02 4.548497071240606981e-01
-1.854617013265384695e-02 3.224645745979002470e-02 4.523836431098652855e-01
8.397886840743598591e-02 4.535229175317949391e-02 4.743917379671688805e-01
7.366812025828461952e-02 2.440379604234155231e-02 4.710386968115949369e-01
9.751043817417034965e-02 4.077743584852608350e-02 4.863437902669012769e-01
4.497789507471632725e-02 2.285399142308566778e-02 4.569987771382094111e-01
6.930442604886981328e-02 2.271272411909878650e-02 5.258916895732085317e-01
6.404229347302078934e-02 -2.869836744008215021e-03 4.718031577580028002e-01
2.030656264188492391e-02 2.656501481257522029e-02 4.512285254166509274e-01
7.381807271859736064e-02 2.882400665420150471e-02 4.697938786212634832e-01
7.193830963270035628e-02 2.921276820024221177e-02 4.688618293098985590e-01
-1.075826007148766514e-02 1.571302332605212584e-02 4.450894877402119532e-01
7.944548115187263782e-02 2.009248016429273503e-02 5.035967892967218029e-01
8.624772374068458147e-02 3.705866523894960074e-02 4.983430095706587459e-01
2.002638147697126739e-02 -9.953920425684660046e-04 4.428461692418136364e-01
5.895236726865733801e-02 -3.791120953833496815e-03 4.646103770988840864e-01
2.944550732618213956e-02 3.449854059877657114e-03 4.463924526861900444e-01
3.167872616942285502e-02 4.426696612939856612e-02 4.592550594461655145e-01
6.001537223753366374e-02 -3.776072799911218102e-03 5.146946414212795196e-01
-1.272929638792976402e-02 6.222847479895300682e-03 4.423125899161903241e-01
7.237331912294431291e-02 6.231616827519370454e-03 4.917229640053453754e-01
8.041082693114974533e-02 3.720663794490738224e-02 5.097230961571473928e-01
2.491608188576212995e-03 2.452431177884560609e-02 4.481857569358850268e-01
3.608184093045224000e-02 1.641120766186576069e-02 4.525071646482026755e-01
6.784868461663877415e-02 3.347901973139769116e-02 5.223799757648817099e-01
2.121539802738428224e-02 2.523452732774135107e-02 4.510535916830519243e-01
5.141601815560963712e-02 3.833129349770174419e-03 4.566890588814890295e-01
6.960270558379211270e-02 6.679554916917952029e-03 5.030691764755218509e-01
-1.675994463865030509e-02 5.025231599244831503e-03 4.418923426996014259e-01
7.429033124913668462e-02 1.103385569820133569e-02 5.022743735909871443e-01
7.597271768710013584e-02 1.715828714158246227e-02 5.093204530314419110e-01
4.587219141497934916e-02 2.317463356096662735e-02 4.574481754852099402e-01
1.632405372824255463e-02 4.898162303394475864e-02 4.588329930413320712e-01
4.931504715594978855e-02 5.376017008590373847e-02 4.719154597916649374e-01
7.254550614789753715e-02 4.883249389129308560e-02 4.718806494650718553e-01
5.113844486475950524e-02 1.726800338841780191e-02 4.585822864922555198e-01
-1.795948021247436438e-02 1.786923525598818618e-02 4.472912839032160970e-01
3.411062372400042869e-02 2.746884183912636987e-02 4.546194888235806086e-01
8.244933392942670192e-02 5.523390238241191602e-02 4.809410902595511184e-01
7.148111472832892332e-02 6.271530100432342117e-03 4.969752709831842252e-01
7.291634103643047926e-02 1.414999471340436243e-02 4.746074599097027114e-01
7.276622600312861004e-03 6.379216859705194240e-03 4.436073720215898963e-01
6.411619242321148215e-02 5.278021693673110200e-03 5.139292286206916804e-01
7.978252017626757953e-02 4.109980679013358618e-02 4.741046555866826329e-01
6.308185461368591429e-02 1.776927473170127059e-02 4.652598589589819755e-01
7.134117322281902096e-02 1.779913974419861100e-02 4.704957156626461412e-01
7.082515603746168675e-02 1.807368654654506468e-02 4.699969181742038038e-01
-2.531402365283687630e-02 6.093512149686495551e-03 4.431272016438935757e-01
3.811237846751094199e-02 4.366450121201542051e-02 4.606320151720225686e-01
-6.602809007043913478e-04 2.918891865279041320e-02 4.496086408324122541e-01
7.682040378021111338e-02 4.655709456230509163e-02 4.725634345835995065e-01
8.132377334355028742e-02 5.358940416759555569e-02 4.948453080423429462e-01
6.425831651312051418e-02 3.610540509928892444e-02 4.662487153151256836e-01
-1.560576740146123187e-02 2.881777896133947553e-02 4.500204657706581290e-01
6.361513902377309571e-02 1.016995773043651713e-02 5.222777385712977782e-01
9.201454350331038368e-02 4.565566040311502816e-02 4.903304184375705255e-01
3.031167474860820346e-02 -1.379869804485254169e-04 4.453400777002380351e-01
7.252848281096842264e-02 1.106614023415623989e-02 4.763314305055476039e-01
3.292873631826844644e-02 5.416902335533614610e-02 4.635968244578289599e-01
8.348490730898616707e-02 3.690579081515609622e-02 4.745875618874138002e-01
4.774486237939399441e-02 2.096845976963843811e-02 4.576949103984196410e-01
7.409925456637136976e-02 8.633134303240929536e-03 4.928718740169235613e-01
5.571120271707194482e-02 1.894455478404854024e-02 4.609337158884951324e-01
4.014741482669660633e-02 8.995738898172297472e-04 4.502339711093069630e-01
8.267269896032562737e-02 3.362220383660560752e-02 5.064245839491526846e-01
3.428379819041194043e-02 2.575780478166555046e-02 4.542110389511313517e-01
5.952140737321882924e-02 3.683622335977146389e-02 4.650887977855421296e-01
6.734282620871333280e-02 -3.724238912533445016e-03 4.831272949694254137e-01
-6.644370184429253257e-03 2.730233311746623967e-02 4.490215209483350289e-01
1.996993957048099830e-02 2.092313320997053055e-02 4.497863836590546005e-01
6.899993205488415444e-03 1.511585575112321146e-02 4.460948930827443037e-01
6.891842473247118683e-02 3.071771309221228707e-02 5.271258037350180503e-01
1.582919632296641427e-02 -1.891472505649317501e-03 4.417533642982119924e-01
3.311499022750044596e-02 -1.925069059294093245e-03 4.458470157371925979e-01
7.984894714862453280e-02 2.839562075484758016e-02 4.737985795566476699e-01
-9.942324312017648477e-03 3.935747727223190551e-02 4.524704500412898289e-01
-2.011105767100505523e-03 2.729714532645287697e-02 4.490291623684249944e-01
8.268737988134577943e-02 5.353070543688553257e-02 4.783551454239397538e-01
4.136119864058696721e-04 -4.786315128281727008e-04 4.407917958296538874e-01
6.606523571850611565e-02 8.752149853862474516e-03 4.674623721848790714e-01
6.851639168530010426e-02 5.047347430451921968e-02 4.712886776241317355e-01
5.820070875183844250e-02 5.423369072143752884e-02 4.737334130189190806e-01
6.616894373592713263e-02 -3.952521133071337442e-03 4.985201282009034118e-01
3.826417012793521810e-02 1.116255920352779603e-02 4.515442467870441901e-01
7.978455682117356618e-02 3.171569765227690019e-02 4.723723246054761238e-01
9.347560721489725499e-02 3.474223871929153773e-02 4.853711321903075304e-01
2.028222161945274216e-02 3.849730811006790016e-02 4.553781187540286712e-01
-2.839036773830191929e-02 6.392062077427290712e-04 4.408057268182891120e-01
5.588383979784519728e-02 -7.519281760384929555e-03 4.626168255873476243e-01
7.299822076300456486e-02 7.697331983918472703e-03 4.847054816246427755e-01
-2.400347286477351808e-02 8.952448676742096392e-03 4.447443387861415576e-01
7.785187659717629494e-02 3.329348564636035179e-02 5.154030430160796428e-01
7.944787577984385729e-02 2.715447977323730278e-02 5.114217763034427655e-01
7.175251540370182479e-02 1.725492219450285372e-02 5.179203812494629355e-01
7.959933111915175330e-02 2.499381182362395148e-02 5.102808225755608440e-01
8.098434171416196703e-02 2.223264128725344416e-02 4.989423150458705547e-01
6.106930166283956740e-02 8.911522308171236639e-03 5.242319615881824157e-01
-7.818684496880553420e-03 3.235942669595990445e-02 4.503797065852789827e-01
6.974252083183288264e-02 2.697878365834667589e-03 4.948410910818504815e-01
6.925684505006045322e-02 3.023344457663580329e-02 5.275350165733608820e-01
8.075358281177104358e-02 2.845197076808607048e-02 5.089120474958196416e-01
8.744896252246656121e-02 4.899811669963150679e-02 4.977307506743324228e-01
1.661546773796519078e-02 1.715851886576095012e-02 4.481307407251139963e-01
8.538178150698431945e-02 4.594223332629308182e-02 4.755394162821515169e-01
8.129377926568649715e-02 1.909548307869482139e-02 4.894125539367162325e-01
7.052008057736666724e-02 4.040521083850201131e-03 4.820316792696396346e-01
6.248583380307608931e-02 3.444986932154801840e-03 5.150034048055828206e-01
7.453489664697593442e-02 4.450124084954926867e-02 4.717562725100805099e-01
7.918603299855611621e-02 1.623162596516522505e-02 4.934850792666606867e-01
5.647752834846886394e-02 1.879632941872962440e-02 4.612691060637459373e-01
7.233796589149972533e-02 6.234200149632941959e-03 4.922629133395843848e-01
7.057363633856417184e-02 3.066204188727760307e-02 5.256625040117469672e-01
3.840423384873405815e-02 5.043205915999583039e-02 4.624302431424716087e-01
6.639621098302066204e-02 3.687657027296691037e-02 4.674991368465884478e-01
6.925208919278470765e-02 3.565057891115323840e-03 4.778768186805602558e-01
7.222163424657752906e-02 8.252423170622778109e-03 5.004043207735633381e-01
5.966563558240514653e-02 3.324766543328626367e-02 4.647018997387534212e-01
-1.322038336680568613e-03 1.889240925242498606e-02 4.461166738018144673e-01
-2.101360498168985957e-02 1.818497674260328642e-03 4.409090140592604179e-01
4.864096073813469617e-02 -2.423751856875175446e-03 4.548885827266584414e-01
8.416220163119116082e-02 2.497366124161835149e-02 4.834030295232770169e-01
6.716313542204362108e-02 2.012600676241816863e-02 4.676042679525599377e-01
4.835430600493352549e-02 5.333994749236015825e-02 4.673645780378506420e-01
1.227502716190432414e-02 1.084690820758793701e-02 4.456728328331447941e-01
1.081034007181563492e-02 3.620382423311831882e-02 4.528046004411858672e-01
-1.966982663450970656e-02 8.094023800798157489e-03 4.434814505917958893e-01
6.702996324702531483e-02 8.685804341782784460e-03 4.690330570638840402e-01
2.541109419432460367e-02 5.055128907595480420e-02 4.604706757949248996e-01
3.491937990067282838e-02 4.946531791771623804e-02 4.613764993245412227e-01
7.720094323730618269e-02 2.490893656794781336e-02 5.153814468526379811e-01
9.079100856702039535e-02 3.396751527050199948e-02 4.863704807263204977e-01
7.885904653801301123e-02 2.540200980313175178e-02 4.745747226147676856e-01
3.953671916444778667e-02 1.051114941285806459e-02 4.518122369259043314e-01
-2.677033954310708425e-02 1.403562426628306159e-03 4.409931877289573476e-01
5.921710654656740791e-02 4.100576649956026720e-02 4.654500975455218015e-01
-3.421539480432091856e-02 -8.773717363818418422e-04 4.402014002381204327e-01
2.611665925622446566e-02 4.546521504936493208e-02 4.584016519876931706e-01
6.277347170150589240e-02 9.436871448863373008e-03 4.642733454127743187e-01
3.399837059069418105e-02 2.730174639131732750e-02 4.545501195959238960e-01
4.061173783887267463e-02 3.908397359908749591e-02 4.600375824772949818e-01
6.437680492504792296e-02 1.237031794720843542e-02 4.654877180057822028e-01
1.808500783454318472e-02 9.202392751722393745e-04 4.430842385731295630e-01
9.080913945897069184e-02 3.671198727594256889e-02 4.804363003036611901e-01
3.140465205484470335e-02 1.416830613006803824e-02 4.504666717527584519e-01
6.945323344893926387e-02 4.162121946744569423e-03 4.775685291730522586e-01
3.084334124182040032e-02 2.026252051651828215e-02 4.520142179594892617e-01
8.111576422162401767e-02 2.045582990162446088e-02 4.835527172046940048e-01
5.643782402483094041e-02 5.295439259590074832e-02 4.708473533517388288e-01
8.662643111006751440e-02 3.046740784018548906e-02 4.791874607754110782e-01
4.546546557175271813e-02 1.277745093197990740e-02 4.550906248739671200e-01
8.156382453811468480e-02 2.083831531108535501e-02 4.852232037511007845e-01
-1.167805072362289656e-02 3.166292713370461032e-02 4.505555162624397814e-01
6.396755334863289677e-02 1.483261896992962674e-02 5.263593687422781775e-01
7.795405807449996838e-02 2.736463212242047638e-02 4.725865342387973178e-01
4.523938592503761597e-02 4.404665391186347173e-02 4.624918418050374402e-01
5.924129946537508989e-02 3.221951860811419349e-03 4.624536191152197051e-01
2.323289249019703379e-03 3.012388822682161502e-02 4.500611135427995957e-01
7.325737057397095631e-02 1.513547981529905426e-02 5.117324291925869906e-01
6.265532711108756647e-02 5.487385614318800869e-02 4.760520413015003061e-01
7.183753932338764192e-02 2.759052596258709800e-02 5.253897527482875862e-01
4.893518392966426933e-02 5.145400690527300591e-02 4.655781900188918354e-01
3.463668388951866850e-02 1.946247470462916102e-02 4.528249570326755569e-01
7.471747127732367155e-02 3.094754166012847474e-02 5.202660787987480884e-01
3.467116640714618114e-02 1.912055740869712112e-02 4.527559120708208318e-01
7.637384031610117141e-02 4.800171903700841541e-02 4.728911975517158806e-01
5.394975125115789027e-02 1.583355913227584358e-02 4.595359535226767322e-01
2.941298728267130458e-02 3.814372718885475355e-02 4.572124905520401073e-01
9.235782029911678015e-02 3.300200594264141724e-02 4.823845196787120981e-01
4.042253879374917841e-02 4.726243625320196429e-02 4.619888602843015835e-01
1.583167501546508399e-02 2.450831701794460929e-02 4.499545973765026741e-01
9.030123829977665384e-02 3.496007573387112377e-02 4.883774252056921061e-01
5.372868284707386921e-02 -6.076944622372325473e-03 5.241552729462082283e-01
8.665484636117624928e-02 3.892428112904532111e-02 4.757675365689705282e-01
8.143303522443780251e-02 1.939040105714840562e-02 4.892516008284650275e-01
6.396635954765311771e-02 -4.596231520788509640e-03 5.048046536705362852e-01
8.984614191537279582e-02 4.973373320331091890e-02 4.818840150280416790e-01
2.763864094087033554e-02 4.556283435304065571e-02 4.587743426818464143e-01
7.380022665035405188e-03 2.655429856019539056e-02 4.492644299647988171e-01
7.789533650777392959e-02 5.560330553966923162e-02 4.796700772499064569e-01
4.539113243375276358e-02 1.919691750284140824e-02 4.564509029497233472e-01
2.334105313906541940e-02 -4.738591743406687234e-04 4.435909103136063125e-01
2.713766718997187230e-02 4.917741628409019045e-02 4.600102999762674671e-01
-1.572386101259097557e-02 1.325310655003229289e-02 4.450923057108083780e-01
4.344051139055378485e-02 5.212532605382253631e-02 4.644962911440470021e-01
8.627561757764473649e-02 3.504183691854421273e-02 4.764236305548838479e-01
-2.047580678373715421e-02 4.720224618434390798e-03 4.419577865323210952e-01
3.380411567063699996e-02 -4.617357556846645068e-03 4.453197401797961974e-01
8.497308708944116551e-02 2.966304539764748685e-02 4.779330931464402799e-01
9.713403779541968097e-02 4.341086131201781634e-02 4.843622644554611001e-01
9.211069718091711989e-02 4.295498205676235443e-02 4.924698046028429532e-01
5.876604777038816479e-02 4.425315563997831922e-03 4.617409772593167316e-01
4.078899177778627649e-02 5.445180507516483859e-02 4.658926803056091526e-01
7.219197479708797105e-02 6.141974930524535595e-03 4.934028102094603074e-01
5.420060456008996691e-02 4.309714707610434042e-02 4.643050547880148704e-01
-1.449683874771833317e-02 3.618940369598983714e-02 4.522858305689280711e-01
6.816739036234742422e-02 5.148999041257298903e-02 4.716806734940038326e-01
7.349979160679695478e-02 9.097895986478714628e-03 4.990854496650787286e-01
-1.100342853319267317e-02 3.936905204139910797e-03 4.417182415718338140e-01
9.369563810597389408e-02 4.517944044913377311e-02 4.811075845888082569e-01
2.738551901090473945e-02 2.935847295731770432e-02 4.536507609984147815e-01
1.295170010148565497e-02 1.128499943244030100e-02 4.459014469689212556e-01
3.597346473517559068e-02 4.961734442482975543e-02 4.615861900519375172e-01
4.944592621356602019e-02 -9.383663871841812706e-03 5.292702041272654423e-01
-4.406046884027881028e-02 7.356973239558189850e-04 4.438461785903988210e-01
6.938490986167709929e-02 5.184945228662517225e-02 4.722780621866037865e-01
5.984629131809972996e-02 -1.631845744689904183e-03 4.646888601296210175e-01
3.223583856469111608e-02 1.200160111645037254e-02 4.501670603550669836e-01
3.912362766942028072e-03 3.702716947468682497e-03 4.425091472312541740e-01
8.761893658778811822e-02 3.691077198214012117e-02 4.958366174888789724e-01
2.583908164301065152e-02 3.951835381903463784e-02 4.567549648493073322e-01
4.945748893252240735e-02 2.669412970117862605e-02 4.599378970164010871e-01
-3.204416001305481626e-03 6.883171302255982824e-03 4.429073726407686817e-01
4.368272933480338988e-02 3.442381552766146657e-02 4.597501134569595971e-01
-1.027176800351750456e-03 4.391531697576026710e-02 4.539436865711160562e-01
-2.151406592213498531e-03 4.021814753661558106e-02 4.523426637091942371e-01
6.418557210321326756e-02 -1.985363323299475270e-03 4.714334086420423064e-01
3.478984442022636792e-02 1.281033914273604045e-02 4.510912560355196388e-01
8.112222466981180991e-02 5.035312126908575436e-02 5.025506809181449208e-01
-3.957374628598799363e-03 1.112672123902023504e-02 4.437354892983069732e-01
-4.642754697712518641e-03 7.826216735498952096e-03 4.429859639620928879e-01
1.360761328961164474e-02 2.827059491941004421e-02 4.505779327592401295e-01
7.778946959672013162e-02 5.359797025994506720e-02 4.771056067307162807e-01
2.473893558989224278e-02 2.968683589036783324e-02 4.532785324410626981e-01
6.288326047601763835e-02 9.067422853208093048e-03 5.221712881532096784e-01
2.507708105141033886e-02 2.691563830651586345e-02 4.523704404888190256e-01
4.450930034168291971e-02 5.429584876276537242e-02 4.670039446171879716e-01
3.638081901487470043e-02 5.479515977427278778e-02 4.651610361715174391e-01
7.951323868073088830e-02 1.909683409556013275e-02 5.008760909466877242e-01
2.518374080893591785e-02 4.933442094621563051e-02 4.599329653649210092e-01
-2.382549814195153437e-03 3.298519204303188013e-02 4.505307096461345084e-01
2.532175529881705925e-02 6.570514242980526713e-03 4.465665303846984013e-01
1.564651233214013962e-02 2.339106305791106497e-02 4.496376504120813689e-01
4.131491991345571935e-02 2.481081357395674425e-02 4.562449423621670608e-01
4.547956818488926162e-02 3.125787806948102793e-02 4.595836156397588024e-01
2.380190314477030611e-02 2.750736118781364065e-02 4.522631826463244797e-01
-1.720231520289898855e-02 3.575345102746739501e-02 4.530331300426819752e-01
5.381162173491689515e-02 -8.230196585466111742e-03 5.248243490816346668e-01
3.129679932601446557e-02 5.315537688189472115e-02 4.624465636392450230e-01
1.458724461003382128e-02 3.008932706861164319e-02 4.513952798444135772e-01
