6.656747265550004566e-02 3.438242993453732681e-03 5.040221756660022701e-01
3.529444480952308172e-02 2.689729940475043060e-02 4.554077957089979756e-01
6.764427669787430319e-02 -1.841888122879009777e-03 4.910709887565234966e-01
5.848787306769155647e-02 1.223958719852980860e-02 4.617961947037605430e-01
-6.999146657482668496e-03 4.104495340746135146e-02 4.530325009338945219e-01
8.133631880627714694e-02 2.839854436698113771e-02 5.040204065788513876e-01
2.991986014061866553e-02 5.576581127650876574e-02 4.656033056260742709e-01
8.175153134678569966e-02 2.935746125172632517e-02 5.041954469584360998e-01
7.061301847418775812e-02 2.899424909142255674e-02 4.696188812319551098e-01
5.847166627020258106e-02 1.740624574757960313e-02 4.630160042595332093e-01
8.497301891780598138e-02 3.598926880876287399e-02 4.775655647926466685e-01
8.629848288510305609e-02 5.196662643647900759e-02 4.810737611579013473e-01
2.889962167716129959e-02 2.962107518504421971e-02 4.545157557123337688e-01
1.978721650916614311e-02 1.214943276181914417e-02 4.475167136174615368e-01
6.374868942588171605e-02 8.811070957224048997e-03 5.196141567549212859e-01
7.765775904113540740e-02 5.412233554470811947e-02 4.983323600229048189e-01
8.113500778626994703e-02 5.863396402849015143e-02 4.847451385389942025e-01
8.080976745528321847e-02 4.460501330791007135e-02 5.075534128972167824e-01
8.140002485685285394e-02 4.913309648034798471e-02 4.762218141494467538e-01
9.110273525199509559e-02 4.563261737667112516e-02 4.813601236754452284e-01
2.947820335755159046e-02 9.355346022303485075e-04 4.456856049544156151e-01
9.613625972392624008e-02 4.649621124899148972e-02 4.860511024550637216e-01
5.620547005356273107e-02 2.639056535031974668e-02 4.632403330564451860e-01
2.701904113336380323e-02 3.779959186340202393e-02 4.572861553614370744e-01
5.308482700974595514e-02 6.303030073554661975e-04 4.583099998658441976e-01
6.662765516261029419e-02 1.912707274903659854e-02 4.682985667046937195e-01
6.674969653498689925e-02 1.880853415112762345e-03 4.753567770832887174e-01
7.055797172483743718e-02 8.332622439318725094e-03 5.030395228513450112e-01
-9.950866770790128824e-03 4.077628725061941545e-02 4.531774748051667911e-01
1.331553079505872796e-02 2.007744274192020326e-02 4.487377328507478058e-01
7.153932031643722711e-02 7.208272906269099639e-03 4.837926949968883172e-01
7.326817850701554391e-02 9.871810437459452303e-03 4.992819794728128868e-01
7.132147354705806186e-02 6.426465801025161260e-03 4.955474010227809423e-01
4.456052631277279685e-02 1.903766436357547196e-03 4.530656144785955575e-01
3.590122872218157180e-02 4.309412352876345470e-02 4.607365971490959833e-01
8.432388316763250735e-02 5.779603563685747208e-02 4.867675234402680795e-01
5.642301206153303023e-02 5.453772506210628757e-02 4.737118644645433863e-01
8.602241372166596900e-02 4.886999457672273200e-02 4.789959050011039499e-01
8.478996602859302512e-02 3.844658775536333173e-02 4.766292130155078688e-01
7.383745433087246512e-02 9.508230354100146234e-03 4.918126579192840242e-01
2.833727708591140398e-02 -1.773176620220238671e-03 4.445411246397973359e-01
8.183076074156270252e-02 3.130788331197355279e-02 5.060296020986422283e-01
-1.351262227983643371e-02 2.851428172794735066e-02 4.496544532486466128e-01
8.051450304895410581e-02 2.221189612001397973e-02 4.810627448433675291e-01
7.747167603924748347e-02 3.962874983478531510e-02 5.125102265461303208e-01
5.833542634796392429e-02 1.727387005923073510e-02 4.628826664071855057e-01
2.751219072785654127e-02 4.639902135129070349e-02 4.597589910310185823e-01
8.025121270457032108e-02 1.969842651785034399e-02 4.918095619008575614e-01
2.570785873999104770e-02 3.051727486343222551e-02 4.542390685288418828e-01
-2.392129132159482793e-02 3.789487359422903136e-03 4.418773094212662955e-01
-2.183251032640105144e-02 1.845178236643398723e-02 4.485460561700093107e-01
8.421485377686285800e-02 5.805210161623082510e-02 4.868788977062182832e-01
4.225258791923863777e-02 3.284505177943046472e-02 4.594927173947773169e-01
2.633515199870721871e-02 3.925115320932454771e-02 4.574325367412006016e-01
9.594947820331176103e-02 4.049661758998484434e-02 4.900103429885733775e-01
5.338814006612257329e-02 3.828160823942448193e-02 4.643053723178535708e-01
6.807337167438436143e-02 2.969341368611961608e-03 4.987000123471587720e-01
7.444234691763165768e-02 1.064074729105855821e-02 4.873740343489567639e-01
6.088899613998163818e-02 4.571650969709807610e-02 4.676568888121477863e-01
3.600060162554744730e-02 5.483988650372441376e-02 4.656328091999947238e-01
3.976217937609757835e-02 9.367645963962016077e-04 4.504097885163946269e-01
7.653027350138790971e-03 5.498402166423242698e-03 4.435743635517108152e-01
2.539163256183321615e-02 3.420999662009768794e-02 4.556662199832439697e-01
1.609791032178434569e-02 3.738961665067919854e-02 4.547584797388124489e-01
9.004446754082956472e-02 3.443095890584168400e-02 4.823678345717067328e-01
1.896521658999883800e-02 1.840880216094358153e-04 4.432056856590392835e-01
4.042745581381098491e-02 3.868467545661410933e-02 4.606080296377481620e-01
3.469637705290740809e-02 2.547280794302345108e-02 4.547460604474933277e-01
3.089260750266070027e-02 5.697976750015107394e-02 4.693279261462897090e-01
7.660691157243697258e-02 4.224949629373672688e-02 4.746375496746835787e-01
8.566430702134861241e-02 5.058602460268359080e-02 4.797046663811099787e-01
7.057727998779343703e-02 4.499177388068109802e-03 4.932788028511281841e-01
7.180758609237770929e-02 2.074256477443304353e-02 5.206323435189162963e-01
9.537036470905198293e-02 4.276042471414858576e-02 4.855826058457450856e-01
8.055931484451158558e-03 -2.757160667028126129e-04 4.415895525717544179e-01
-7.954743995785898414e-03 1.833715829412142090e-02 4.460486807651171670e-01
8.652318170363348937e-02 3.153440858071915320e-02 4.858372384784785392e-01
7.884408080387253492e-02 2.480248667889650011e-02 5.102996737383463932e-01
-1.007527418522423911e-02 1.743675974869575429e-02 4.458181979718553456e-01
-7.756018580660798897e-03 2.638504946361371756e-02 4.489865419980084149e-01
6.401043725668763285e-02 -4.018844785353924837e-03 4.738855532468394527e-01
3.003374504900026276e-02 2.250722287625756338e-02 4.528512070203554174e-01
-4.536421127565878984e-04 6.523459716026145175e-03 4.431530304112308860e-01
7.327549188591459331e-03 3.948148235548437635e-02 4.537155460032654686e-01
6.983145059826931234e-02 1.627466879157725421e-02 5.188329965508353681e-01
6.973958476174774157e-02 1.828044603289442904e-02 5.212508866643112970e-01
9.983970107151223655e-03 1.899171268781503497e-02 4.479042620847460965e-01
7.672594270957013018e-02 1.401624911005422761e-02 4.955843718950718180e-01
8.036740077776595437e-02 2.276629401256887245e-02 4.979092214564832530e-01
1.370547523860318924e-02 5.209541885151958152e-02 4.641273628327440837e-01
5.380393151216576048e-02 5.353182263663307933e-02 4.697794511803172757e-01
5.765012803218741433e-02 3.144974282989466269e-02 4.647856856781694135e-01
8.156423737900218851e-02 2.212966648717430360e-02 4.890606647364214576e-01
5.188381072457698417e-02 -5.437991009883747992e-03 5.256702034144182800e-01
7.796161639868265381e-02 1.580001409144501240e-02 4.924926470291476344e-01
3.409203025195652742e-02 5.675384626763000512e-02 4.700533428509973688e-01
-2.318605551504338697e-02 7.010577504805964866e-03 4.434099143785879549e-01
2.676873212393064000e-02 2.391893940520982420e-02 4.524490730018475015e-01
7.852386132801536522e-02 2.173655851211554052e-02 5.070569205890390618e-01
3.743194734876049284e-02 4.352700614289026909e-02 4.612488603915241292e-01
7.829833005832396997e-02 4.118520107913663936e-02 5.111415451809662169e-01
2.587107027713528469e-03 4.587156949413261076e-02 4.559773962570813355e-01
3.355907553634834839e-02 8.571604562824273327e-03 4.495198478998019276e-01
6.457620420614193502e-02 4.477270009139108081e-03 4.696468738756266470e-01
8.596761088832337305e-02 5.484934547574119718e-02 4.884477964603445299e-01
1.000333810073101432e-02 4.710472230533765958e-02 4.573551308018544703e-01
3.780311032156787043e-02 5.033861447176996712e-02 4.630139158445704672e-01
4.458964353966966832e-02 4.322818192386790326e-02 4.629584409642376608e-01
8.013280739433232755e-03 3.285806256015130072e-02 4.518019243396313445e-01
-4.616384563791137846e-02 -2.012276275174524134e-03 4.422377586627156409e-01
8.292769324355589444e-03 3.478088965380876640e-02 4.524253194374731613e-01
7.730205321089779480e-02 1.781796203835483983e-02 4.820214094724952769e-01
7.284312077386717599e-02 3.317408627386363856e-02 4.703758322164630079e-01
-1.678481846184275497e-02 1.232232228948497085e-02 4.449894064073390276e-01
-2.080031970675410777e-02 1.794017703084558810e-02 4.482451440167423695e-01
7.337094940041991031e-02 3.183324280569022752e-02 5.212695359133485695e-01
-2.350747780477526958e-02 2.163577837043870276e-03 4.411099109511046890e-01
6.864506231103791045e-02 1.114987440727165102e-02 5.131375038971779379e-01
8.032214365023324087e-02 2.320674505326469558e-02 4.997483404043862598e-01
4.420271295240740805e-02 4.396022061565860867e-02 4.630626458503066534e-01
-4.086335972294365820e-02 7.521944625819667381e-04 4.413015885181630904e-01
8.343709528000363418e-02 2.571487204255162168e-02 4.859514285381911769e-01
6.828649654874865277e-03 2.004838598497356988e-02 4.477086235160924188e-01
3.256412298592122057e-02 4.664728163449900766e-02 4.609313792844110802e-01
-1.220540627892945963e-03 3.692472099413611486e-02 4.520169693478002793e-01
6.544941753490898795e-02 5.302982161391362609e-02 4.726240274530729701e-01
4.372376112815406363e-02 4.229037608948019167e-02 4.625510420148970514e-01
-2.297204008112586557e-02 7.489831221124319989e-03 4.436774965966796547e-01
7.787136052978602466e-03 1.456525463949415872e-02 4.463287168250587023e-01
5.004087845759409847e-02 5.394950558967771814e-02 4.707058824484603443e-01
5.068546851907558548e-02 1.928810101396654167e-02 4.593119525849225782e-01
6.726868884954181893e-02 9.738248035118982071e-03 4.703769937273492019e-01
8.358779249088495178e-02 4.899841246007890366e-02 4.775691714788798392e-01
8.923171212174389744e-03 2.420989805365338435e-02 4.491636278782401015e-01
-1.799889955264776659e-02 4.158430807829505832e-03 4.417072652538812094e-01
2.591338751973094531e-02 -1.997076045506400704e-03 4.439066554270628129e-01
9.063407843345112902e-02 3.426188554276577564e-02 4.846301771555079907e-01
6.835448623360017295e-02 7.758355992787502146e-03 5.072049179448760992e-01
9.387197504970619388e-02 3.623287255462991768e-02 4.849265896304932877e-01
6.160249971662913604e-02 4.219027091752405867e-02 4.673837337071788944e-01
6.408541541549213350e-02 -3.116580412271340202e-03 5.045704420168043436e-01
5.353025499056237452e-02 8.707848429677679525e-03 4.586532330207780395e-01
1.666193895887036619e-02 1.376835912605183128e-02 4.474520529043076733e-01
5.918019829981976867e-04 1.170992535577848430e-02 4.445691026444154592e-01
9.423476129163708970e-02 4.765442962068412724e-02 4.858845927446672208e-01
8.508915965540496396e-02 3.248382673714490104e-02 4.959888916910956125e-01
7.414426968566649456e-02 1.385102465119681520e-02 4.798712427645732692e-01
6.442655958712061037e-02 -1.085935252454507498e-03 4.726054526289935609e-01
5.347606370467911791e-02 5.360731721490612917e-02 4.701283683234521171e-01
6.316514857603804101e-02 2.065977728876762422e-03 4.689403037642900784e-01
5.389879623866196401e-02 4.109518029507290560e-02 4.649280708422142139e-01
7.843104540804435310e-02 3.814042767176311494e-02 5.117455017076451007e-01
-3.824430959742167874e-02 -5.984936276022621154e-05 4.406598725453220178e-01
6.889900667079167096e-02 1.237428682329917229e-03 4.911149482842862568e-01
4.167708464563624204e-02 3.117413896017531827e-02 4.588651678973081349e-01
6.601981259973950522e-02 7.095481264102840996e-04 5.011100586283192548e-01
7.737646322885576022e-02 5.160291845796404625e-02 5.040141500882540093e-01
5.129849654710315343e-02 2.354492374456904069e-02 4.604050885381739677e-01
9.418822682752342468e-02 4.276519216823693875e-02 4.843461022527304483e-01
2.322855398796917770e-03 2.828166533245411729e-02 4.497402937017611069e-01
3.284505667955211344e-02 3.827466498427684743e-02 4.586975414679494989e-01
7.602288957291310212e-02 3.294326816373370492e-02 5.179216384967725295e-01
8.447396721547918708e-02 5.039767252699212802e-02 5.005964255952298769e-01
4.964687380815596685e-02 6.347587100032255937e-03 4.564130856808273351e-01
8.106539752452114611e-02 3.666628621413887262e-02 5.087632167561556562e-01
-7.720622346556010353e-03 1.260872347376722040e-02 4.442038056692122483e-01
6.740300327214382436e-02 1.698820704964209768e-02 5.231781482791155735e-01
7.918253068213043644e-02 2.305721952777239556e-02 4.786614220107151541e-01
8.245146469296123215e-02 5.104194274541805354e-02 4.778343417225607848e-01
3.641485921661878622e-02 4.790428842181489177e-02 4.620061649746397547e-01
7.256972385975953010e-02 1.025377288585754658e-02 5.026792747324082544e-01
6.953673301348710367e-02 1.758433038666904272e-02 5.207318984901042613e-01
4.442915964652000005e-02 2.578461928159285488e-02 4.583270697034184105e-01
6.899615704342923483e-02 2.435140167028318828e-03 4.947722854478294741e-01
8.309291992364785384e-02 2.926548556853736729e-02 4.991130916393400341e-01
5.775009290559700997e-02 4.714835672488579266e-02 4.670700704849277685e-01
8.076775655535946286e-03 3.153241299745812576e-02 4.513872452935993596e-01
2.128211001380646977e-02 1.856998917599297916e-02 4.496679864162893558e-01
1.837839033369316130e-02 5.195369195384672706e-02 4.612601567003143943e-01
8.807750119297869107e-02 4.730971033478661991e-02 4.972974299960304378e-01
7.715668668075201242e-02 3.054061415113824840e-02 5.161671612079641314e-01
8.183158320638218852e-02 3.835222284800256926e-02 5.070486900033585043e-01
-4.412760223303965543e-03 4.237731405794006173e-02 4.533491982454677660e-01
3.135274728911274095e-02 3.004668866418845966e-02 4.552228917201225911e-01
-5.481794212227374466e-03 3.288572457513784519e-02 4.507893568676826224e-01
6.508368438181252186e-03 1.454854832878123977e-02 4.461301001977283076e-01
7.356601282132682607e-02 2.619483772142915806e-02 4.718730042923007240e-01
6.608258069514377775e-02 -3.085230378297713037e-03 4.984697768464365075e-01
3.985929237052965833e-03 1.026522448756771004e-02 4.445350970480325681e-01
-1.055401350884230607e-02 1.741252144267542781e-02 4.458398374779912188e-01
6.496510979883947379e-02 4.697874480279206483e-03 5.104682132478669532e-01
7.059167309102347757e-03 1.356084130319204148e-02 4.459223869156777043e-01
5.769661698868471661e-02 5.042252365401755920e-02 4.682693475848832554e-01
-9.704464316379404765e-03 9.781795174793644215e-03 4.434117479243477877e-01
6.680043334955634848e-02 6.311505242019051741e-03 4.717884173929495772e-01
8.124084669864943542e-02 3.257639631072723613e-02 4.753507002852032093e-01
2.802773560388262253e-02 2.147904593878710924e-02 4.520991965841275606e-01
4.758894442557726895e-02 1.743648287847283929e-02 4.575419512356759255e-01
-3.722157580856045363e-03 2.401414956809248477e-02 4.481248818993676664e-01
7.486976202172622441e-02 1.752137442203674511e-02 5.111136785393597393e-01
5.178221768370045580e-02 -5.055003507328840150e-04 4.574360492863204786e-01
4.950336449046371240e-02 1.386627041982134781e-02 4.576937190659077226e-01
7.065828352195824280e-02 3.115375181036240601e-02 4.694863876595902763e-01
7.135444892236028624e-02 5.724523422185605510e-03 4.862893934884515712e-01
8.549973350076743583e-02 4.215821670972591528e-02 4.773498263740768022e-01
4.249724974220175922e-02 1.769645158117330586e-02 4.555688374814357289e-01
9.238560233942171018e-02 3.564945570699437627e-02 4.856447224731153534e-01
-2.491467507753795246e-02 8.770184280428720489e-03 4.451726770908364661e-01
8.157837764420347582e-02 2.412372576735109797e-02 4.948263254771523290e-01
-8.969963978636204260e-03 6.582538494916543269e-03 4.425489768412960712e-01
-4.466922909492963140e-02 8.198010051916942900e-04 4.457844008235457567e-01
3.366545855941122968e-03 4.601595830371419532e-02 4.561144693719893506e-01
2.644613729950807957e-02 9.678286794465740944e-03 4.481790173806449729e-01
5.150207167309530341e-03 1.236564336938940703e-02 4.452861506341755926e-01
-1.701021449813697184e-02 -9.624627321950796066e-04 4.400937323873795881e-01
2.915402603448040419e-02 5.094461382940838196e-02 4.616641608043342004e-01
4.325836207063256389e-02 5.095018467891486436e-02 4.646174296835832163e-01
9.340362822330207371e-02 3.742870466709225657e-02 4.879535310065242215e-01
1.876093593425293138e-02 1.956905536869093382e-02 4.495707501788681615e-01
5.655920879534195866e-02 2.426561581825765340e-02 4.631366278745570608e-01
4.451899042677055079e-02 1.106766093225275936e-03 4.528818362641402473e-01
4.990967450838430797e-02 5.392481743123892640e-02 4.704689655884947697e-01
7.373360894497409113e-02 2.222879674248298340e-02 4.729640519546685073e-01
2.129266136348175603e-02 5.005429303783359013e-02 4.605508176231506434e-01
4.611270525103614015e-02 3.522864488318466943e-03 4.541993736119877556e-01
-1.040353936339963835e-02 2.917937804462171578e-03 4.412359215237111054e-01
-1.609638993646952954e-02 2.892076560353139605e-02 4.503403984585929165e-01
-6.167712387863137115e-03 6.141788970520735413e-03 4.426451412051631840e-01
8.548453147535386987e-02 5.219457381228170822e-02 4.806226815135959396e-01
-2.943780613061236506e-02 6.980125543950658172e-03 4.469718167267120457e-01
5.812308286055291318e-02 4.732446820299754386e-02 4.672245447282298292e-01
7.648507460999512397e-02 2.287588723955302078e-02 4.758507687914223516e-01
7.072910703878464156e-02 3.969089061998059761e-03 4.885878173756493803e-01
-2.301017783065545039e-02 1.374462775336129233e-02 4.472899973947450647e-01
3.618967750071448025e-02 5.111152373762735401e-02 4.630917553058137570e-01
7.106253411265858744e-02 5.500328050634548799e-02 4.762236660386779952e-01
7.950811513352412999e-03 4.508070030197267736e-02 4.556870654789411113e-01
1.126020090781912342e-02 5.012523895834988807e-02 4.602331161523920411e-01
3.982775810536222372e-02 4.926441603069326575e-02 4.632229077872338507e-01
3.579321173101396303e-02 5.608191555565949366e-02 4.671269448132660540e-01
8.866723929200688581e-02 4.345546529296798882e-02 4.959559966658010910e-01
2.816434579870540425e-02 3.726480591496655892e-02 4.574306227996922103e-01
6.629195493681747098e-02 -1.039444680877188443e-03 4.991482925695196471e-01
3.196383656884427965e-02 1.353776689645962497e-02 4.508504059986453427e-01
2.187736868802881568e-02 1.283768069652911625e-02 4.481950273540570295e-01
7.172310842606413606e-02 5.887695138767663240e-03 4.879206293486302304e-01
4.348183546852575632e-02 3.360932107961176959e-03 4.528040985754116510e-01
7.632992152874937264e-02 5.708170384760257593e-02 4.814302043380622731e-01
2.805735417169143153e-03 4.761680368296831306e-03 4.429376727645888412e-01
1.458713483145339732e-02 3.736291176988604940e-02 4.544318207032336798e-01
7.284515238065913945e-02 2.940206372940169094e-02 4.706462190419971603e-01
6.901649190312544868e-02 1.947453310940492829e-02 5.235631054139859852e-01
9.805605197107096493e-03 2.820453456887616478e-02 4.504655878558782578e-01
8.975577183263690195e-02 5.036955798445815619e-02 4.846250626918806037e-01
2.022810291778946376e-02 3.279037709976612147e-02 4.539330258065908397e-01
-2.706188690141065126e-02 4.369825534898234137e-03 4.424254911704559312e-01
5.063530229295268303e-02 3.702107453473429260e-02 4.632699005598531761e-01
1.347514089399348344e-02 1.952918629434739067e-02 4.486070184530578375e-01
6.763502024494319476e-02 1.258458227067648684e-02 5.177112449648241244e-01
3.961627982857682945e-02 -6.693541738606212550e-04 4.500710556049827837e-01
4.042480194056828624e-02 3.666812181094578071e-02 4.601536763285830611e-01
8.106186907580389955e-02 2.304189621225842186e-02 4.949665368628240469e-01
-6.438034771912897782e-03 3.746099635450123033e-02 4.520060422160244173e-01
8.023910901122116579e-02 3.332940842806682985e-02 5.101159972481906779e-01
7.188283426549028909e-02 3.130998745003074624e-02 5.237253320273871360e-01
-2.252011835896875619e-02 2.930930822740165920e-02 4.534869005473561310e-01
7.249163202241135084e-02 7.676614361943580149e-03 4.927719636820396265e-01
2.409714092066553986e-02 1.551688341444659031e-02 4.493841802054912571e-01
5.441927458883184104e-02 5.303768571816534078e-02 4.691430138207849931e-01
8.194767556225507343e-02 2.490430044474591445e-02 4.948419446257736332e-01
7.767840229162745191e-02 3.179259317542029034e-02 4.726973050414324806e-01
3.308763656512791335e-04 6.042170587154451281e-03 4.431068091821091515e-01
3.123004074818622189e-02 -3.709076059146419919e-03 4.447565872976710910e-01
6.847553165362488259e-02 1.691363859883475776e-02 5.214126703544480490e-01
4.115682195539568239e-02 5.511513084865151541e-02 4.672970784390418908e-01
7.893417049018236487e-02 4.466519400745184998e-02 5.094869856492967308e-01
5.499197763210393608e-02 4.094673179146866848e-02 4.652355147709258953e-01
-2.573549213217337511e-03 1.075826243770343967e-03 4.412072107665844789e-01
4.195649214330395699e-02 4.633994707356342557e-02 4.630898120946361218e-01
-4.268864231039998583e-03 1.205343966900115221e-02 4.440962676168467849e-01
-2.087051852356435616e-02 1.961308034802776087e-02 4.485846692219789267e-01
4.752067458015195311e-02 3.343692603428145144e-02 4.616925239543860360e-01
6.115646646798526126e-02 3.593471386318249083e-02 4.664065812366628982e-01
-3.027355620725674656e-02 3.982316455732382021e-03 4.425567455467002698e-01
8.219413148394472124e-02 3.580688588240061448e-02 5.063033949835671343e-01
9.517622468548512377e-03 9.708206397534198742e-03 4.451091062307953594e-01
6.529992015729503552e-02 1.567895242784633249e-03 5.042014503360653377e-01
5.543685079904934684e-03 3.961832884549367981e-03 4.428684294619666950e-01
7.296570516534013617e-02 1.612995192436326650e-02 4.752815309288152545e-01
6.254005836879157100e-03 1.289413137134261950e-03 4.419942431887589618e-01
7.156036758665722253e-02 1.111654966675913216e-02 4.765449518951090369e-01
8.762516417871439589e-02 3.718289669206262249e-02 4.795673670262161625e-01
-1.635382672625664349e-02 2.867881416167189848e-02 4.503401502539729484e-01
4.215914274624160685e-02 5.297684756699182901e-03 4.524732934083436353e-01
-1.087525012611806514e-02 5.704624053458552842e-03 4.423006316528323434e-01
-5.543849503324428142e-03 1.954369599963737270e-02 4.464619203942893355e-01
6.763710222526095328e-02 -3.385014458143539157e-03 4.866458769012086405e-01
9.598406822236309199e-02 4.294952420954695899e-02 4.869074612648089384e-01
-1.540938048315998454e-02 3.713182159065075982e-02 4.530290417499334699e-01
1.557111328881253740e-03 1.293201104405769866e-02 4.449791661143856492e-01
2.870919148234904808e-03 7.820077544149657556e-03 4.437897227155399027e-01
7.496925658323166930e-02 1.336546760106891753e-02 4.837851075518295740e-01
-1.724423766775745950e-02 3.340894893583995495e-02 4.524079109163764989e-01
8.065386825317100161e-02 4.624056930637741869e-02 4.748794644661761821e-01
4.845909773479362137e-02 -3.442284435263322662e-03 4.552877985437565611e-01
4.986536935602528531e-02 -1.422358147514025603e-03 4.561607216771300655e-01
-4.986215994811799349e-03 2.050849542151999758e-02 4.468192322951380913e-01
8.137452160635004483e-02 2.726016046010926869e-02 5.018606743678319937e-01
2.811833056956380625e-02 3.879978024010127813e-02 4.577326177872744206e-01
4.346327603237772064e-02 1.993013424454264347e-03 4.524646536604579605e-01
7.348285957568201354e-02 3.411466074915824737e-02 5.189723274630884120e-01
5.073965871410299894e-02 1.941782734720662665e-02 4.593573999981145906e-01
4.186931567409876015e-02 -8.328562383935209437e-04 4.511570702069016003e-01
1.009839482615948816e-02 4.452111934695261730e-02 4.557832921444574525e-01
8.082910171082680062e-02 5.608063044733140046e-02 4.815706805160240300e-01
1.949422065155423725e-02 5.232493353215415810e-02 4.621573975082083341e-01
4.648886234946462970e-02 3.946876042137648782e-02 4.624778401378284443e-01
-7.556834786796342608e-03 2.530218408137335784e-02 4.485771549425954241e-01
-4.022517155047608192e-03 2.251381010046572123e-02 4.475720018527437616e-01
8.486312839767938543e-02 3.136597373953647905e-02 4.955210416384396299e-01
6.485175937828144277e-02 2.319134583192212357e-02 4.673364332690230216e-01
1.772918020091909796e-02 5.201117885527546669e-02 4.613638596388755508e-01
2.165770093447393768e-02 4.644531137545820920e-02 4.587121532692011727e-01
1.576378516084617903e-02 2.662065921265496793e-02 4.508907677959349547e-01
-2.974190518495791261e-03 1.807586311440172872e-02 4.460074964724669022e-01
5.462041103673849485e-02 -3.117796375804328998e-03 4.599322993656473901e-01
4.847698306069620627e-02 4.346770143279355542e-02 4.639505377979817879e-01
1.113448828190450463e-02 2.411516762354828231e-02 4.494535376999696519e-01
6.379603981731757356e-02 1.121533154077201597e-02 5.226702421574269675e-01
-6.977009290986445171e-03 3.799122905722072951e-02 4.521916772052597122e-01
8.345195802105018212e-02 3.607822291902253176e-02 4.760947360879195789e-01
1.716188287034359911e-02 1.033496412795141366e-02 4.464975455550086458e-01
3.568917060325999674e-02 1.774407519060231843e-04 4.479772279860112505e-01
6.258436182344739862e-02 3.378400293017909395e-02 5.252847897630449348e-01
8.237090495388191269e-02 5.473032523666374050e-02 4.810559988295449174e-01
6.160642711024087725e-02 8.929234596164317000e-03 5.233654280007118409e-01
5.996797330940871473e-02 5.089997480506240624e-02 4.694270615010185943e-01
6.572258023034105445e-02 1.889651606666656151e-03 5.035948184907423908e-01
5.272203262387593209e-02 3.808533143587825021e-02 4.640704459160118200e-01
8.724079395183498287e-02 4.451150311346689648e-02 4.781720393085358567e-01
5.959253870426988592e-02 1.722961400321109185e-02 4.636988406705221388e-01
5.862758207237566549e-02 -3.692037637079008915e-03 5.175055785583043688e-01
1.877751078040586913e-02 4.413239928582391586e-02 4.571500206099280983e-01
6.973866109857048377e-03 4.710854614142107738e-02 4.571531535208282482e-01
7.820568268727591532e-02 3.978856759541139765e-02 5.115548133735696723e-01
7.824200973785983004e-02 3.399576533091529934e-02 5.141541249744256969e-01
6.916762975243806455e-02 1.886528757952986649e-02 5.226994458438558588e-01
-5.020173592838782575e-03 1.973894389829258106e-02 4.465424494742215589e-01
8.142520443844530886e-02 3.062122756268026089e-02 4.764413539538083775e-01
4.216389261523269261e-02 4.987446262646571399e-02 4.640190338357865762e-01
-1.802820528706674044e-02 2.965767533857676524e-02 4.513280704725955439e-01
7.139709311821619553e-02 5.433789968147868799e-02 4.753871096635549631e-01
6.957588895917350691e-02 2.181426708966764834e-03 4.906869675863729796e-01
8.839235853105158192e-02 3.236812783191234111e-02 4.829964496895468584e-01
4.086993069769783403e-03 3.111668273076463598e-02 4.507920493562154185e-01
1.472190589867100434e-02 2.887311208259604051e-02 4.513834905552823740e-01
6.802437826066819182e-02 2.062714844960229083e-02 4.690927831633860401e-01
3.772100660637938904e-03 2.071414779664948469e-02 4.474594441418771607e-01
4.982382624861975140e-02 4.850510608256655698e-02 4.655362446688496858e-01
7.693224779492997822e-02 5.713043943746028142e-02 4.823250219017657381e-01
6.285206204816853881e-02 5.581546654460860235e-02 4.774337384750262925e-01
6.881890973004797796e-02 2.339603577825337052e-02 5.266753104800567797e-01
2.916381177787970985e-02 1.472098569190741398e-02 4.503599244578571636e-01
-1.296790916817613937e-02 2.711806337412000882e-03 4.414179276353352166e-01
5.047880021397666700e-02 2.138783131803459817e-02 4.595255500157322537e-01
6.905790726120498990e-02 1.731493012445803250e-03 4.840721703307089840e-01
5.160179859591709772e-02 6.969564841670006401e-03 4.575823464268887752e-01
-4.677728050368187840e-03 2.987636176199112356e-02 4.500386538221906596e-01
3.124156403309297572e-02 5.465580783511995999e-02 4.642961835489989308e-01
9.430597088028092045e-02 4.746621220971214417e-02 4.844974997323946431e-01
7.795577200698394771e-02 4.846849620277835641e-02 5.071507673729434007e-01
5.643100708443669206e-02 5.381884257703320462e-02 4.719771529774631769e-01
5.767077222093263712e-03 1.793073901210328822e-02 4.469751071313352586e-01
3.747079625548443982e-02 5.365030812872988164e-02 4.648289603020297478e-01
7.160329744723385736e-02 1.597519451349078273e-02 5.151173802385177192e-01
6.726138706803001799e-02 5.451075255210974940e-02 4.740364756414831016e-01
6.272388587629190715e-02 3.652602946334899264e-02 4.669155064146138234e-01
2.762813011083138301e-02 3.463293332397980595e-02 4.563012396955031247e-01
-2.150213803880215643e-02 1.519500627843504807e-02 4.474706646638600960e-01
6.846752397630080644e-02 1.330781719040280940e-02 5.171743141241352815e-01
8.067395054405389343e-02 2.643679442554544567e-02 5.050209705801685933e-01
7.076120783094708155e-02 1.408666268996266492e-02 4.733940582133789321e-01
6.792576819474911709e-02 4.312462865392781286e-03 5.018196462101151001e-01
6.165935588227167835e-02 5.850290843038678107e-03 4.651823711722273824e-01
3.285424010831984598e-02 -3.747339120300841042e-03 4.454226636430158037e-01
4.658298058061194347e-02 1.425845838955772929e-03 4.540979447190307550e-01
6.168681398186385417e-03 1.355151492490851844e-02 4.457891748080434202e-01
3.670550761264644926e-03 3.625854515361838504e-02 4.523117210837390156e-01
8.394971294190899103e-02 2.805027095536248224e-02 4.933931469831983052e-01
3.318806130621917289e-02 4.307092367158309176e-02 4.600228003138095989e-01
6.274745482417760922e-02 1.545354728082819554e-02 4.652050352190766347e-01
8.333363192621556781e-02 2.778948322275317032e-02 4.796583213610713381e-01
5.821683083390143815e-02 4.497066656342794261e-02 4.668127611925657061e-01
7.380561693005961710e-02 2.385551991675900069e-02 4.726458508013656190e-01
-1.087977610263942893e-02 1.358319736525267878e-02 4.445514386534985540e-01
6.237777487849914537e-02 7.148937863429754083e-04 5.112730514100665147e-01
-1.222545712720564219e-02 -1.376774753755654994e-03 4.393698356044492548e-01
7.844304038809735147e-02 1.844491113954136938e-02 5.002675994973359019e-01
7.411922822839754621e-02 1.995554769606531359e-02 4.746522026129845750e-01
1.118551740458362427e-02 3.567694954919109485e-02 4.532369272565552887e-01
-1.856724384785266024e-02 3.278930688897804119e-02 4.527155515327351831e-01
6.122192379968822984e-02 5.122199845413417246e-02 4.701123301747968664e-01
1.034227911187008547e-02 2.796540138118963972e-02 4.504492223711203391e-01
6.488373885462840607e-02 1.080741661667422582e-02 5.203636769051842581e-01
8.054563589987857875e-02 2.352897773312407487e-02 4.986336690340735234e-01
6.467472267747054193e-02 2.871335760549154070e-03 5.082958581691434663e-01
8.250010589083082990e-02 5.949189106339434346e-02 4.888601541616217072e-01
5.255107911813206023e-02 1.894550192938770916e-02 4.601615229553129294e-01
9.331577558199252720e-02 4.210510982690961190e-02 4.836100688293551997e-01
6.199730143957644241e-02 4.518505783349273386e-03 5.169589974546009437e-01
8.333125397645650689e-02 4.850386206263596761e-02 5.030530621144755354e-01
8.715084686773769129e-02 5.293793381655591962e-02 4.936971436781298350e-01
7.301138044997877719e-02 1.051535193149570613e-02 5.021312770047765550e-01
7.447265368011206366e-03 7.830205034515038201e-03 4.442377388678909189e-01
7.285452266412834055e-02 9.177853938534926564e-03 4.986245340236690748e-01
8.399052722128916293e-02 4.585021615657686178e-02 4.758251541264963969e-01
3.946080781477898092e-02 7.776758150847702319e-03 4.514685457787275813e-01
8.766517677222229743e-02 4.326657477577820071e-02 4.788999856218745799e-01
6.253815897661088932e-03 1.977740915260504592e-02 4.475520064673669807e-01
4.377845197369788915e-03 4.579381437418599682e-02 4.559774626384875407e-01
5.323246780080723162e-02 3.483526374244703266e-02 4.639652067404202440e-01
7.399358203002641410e-02 1.207283541569595386e-02 4.826771496489217772e-01
6.381046839965488771e-02 9.354065150485185026e-03 5.205179652073486096e-01
1.353889705589935918e-03 3.232466445327931981e-02 4.509561665607503822e-01
-1.167833820609164019e-02 2.799844496203324554e-02 4.494679343938972060e-01
-2.180861055115225142e-02 7.160294924436372277e-03 4.432805634029657882e-01
6.662911544314822909e-02 6.170404513170255414e-03 5.087451274603534968e-01
7.078850551719359507e-02 2.042297291712308685e-02 5.218262786473903958e-01
5.801337543095941296e-02 2.385756700101780703e-02 4.638428841919406409e-01
5.496196627085799674e-02 -4.939301634967427704e-03 5.227310156292566123e-01
2.005125788702208714e-02 4.733957912945355173e-02 4.588874550153324017e-01
3.642633152922265111e-02 4.488208394341409307e-02 4.613095405383312309e-01
3.739461489145958634e-02 5.143564559276468662e-03 4.501576224770694190e-01
1.782543508811196276e-02 -1.280444665847685522e-03 4.425153311867963679e-01
7.674241216937721655e-02 3.999719226423153334e-02 4.747264321142893317e-01
8.345848909604505761e-02 2.829454887257488310e-02 4.794291534076003947e-01
6.984094374899635360e-02 3.746929136810390679e-03 4.947059598702638894e-01
8.514463187384632703e-02 5.313729886351626491e-02 4.965354470544819376e-01
8.534467294361197665e-02 5.220693765775945294e-02 4.974014735633142115e-01
-3.313239871970086181e-02 -9.449437527677318925e-04 4.401652890524240802e-01
4.697257758945139194e-02 5.464069943940243895e-02 4.725230298436183252e-01
8.039122257097083835e-02 5.945174580938268616e-02 4.848520822545114295e-01
5.567172149451635188e-02 -4.695653229102638056e-03 4.617170045333099937e-01
-2.268132376693468219e-02 1.414436757747042014e-02 4.474291728305536120e-01
6.925463928721346807e-02 1.747794154588130054e-03 4.909404691032652757e-01
7.585701975901612548e-02 4.109256649837235431e-02 4.746458894448778998e-01
5.003795488244873468e-02 4.142966924263782880e-02 4.639214891757289516e-01
8.153480185987897755e-02 3.040108545681355356e-02 5.064147650323889138e-01
1.675833467888765416e-02 3.045641803781318560e-02 4.523571049789791854e-01
6.655350692018159597e-02 -3.174663211477863310e-03 4.806350429953666348e-01
8.498274486762813495e-02 3.219513386822914908e-02 4.961352541079335210e-01
2.969215179858509038e-02 1.459766352018338278e-02 4.504630319976654640e-01
5.169858933959456393e-02 1.103154316666035001e-02 4.580595665327437116e-01
6.972248812535571105e-02 3.645674094993948261e-03 4.949581777228366786e-01
1.644556566737087611e-02 3.704289112558845770e-02 4.547339420095805607e-01
2.480740001374659789e-02 4.874496186623841071e-02 4.602486698098784412e-01
-4.407193295881529915e-02 1.222168172065705907e-03 4.454087258000230531e-01
8.408236602687116368e-02 5.337120941788957296e-02 4.965700449878354683e-01
7.644589519414669854e-02 1.333663117346245604e-02 4.919410175492180404e-01
6.627857997208175256e-02 5.170918997072919930e-03 5.079318886775479047e-01
7.504858198109044809e-02 2.898027548229935302e-02 4.719153664820787686e-01
-6.410878057079584177e-03 5.640896814892944200e-03 4.424976528732131320e-01
-7.246454961232437660e-03 2.298282266636781507e-02 4.477000481963788192e-01
7.618167329338035310e-02 1.289741583946919269e-02 4.940441355635964982e-01
8.557921138639899838e-02 2.974078036173873063e-02 4.856797472945271754e-01
6.163285889774440529e-02 -5.190773789970662758e-03 4.701681442573904524e-01
-2.907800431474903691e-02 4.964828922528850309e-03 4.429902547873306728e-01
-2.908286722184378822e-02 8.061106879424207242e-03 4.473539857207625703e-01
9.270680534875373052e-03 1.630292327676727618e-02 4.470477152224174855e-01
1.348257701859757393e-02 2.950400877820799628e-02 4.514115351920878760e-01
8.140179049449980386e-02 2.912162789910387531e-02 4.771389286775269967e-01
-1.932881297629537171e-02 1.570404129708582314e-02 4.469436614416199549e-01
5.061419748341489805e-02 1.597054456761968361e-02 4.586719286589301392e-01
8.006117737203530260e-02 4.162197392940326229e-02 4.758240663127480397e-01
6.925346721524928972e-02 2.320186025149374026e-02 5.260009019230350580e-01
6.598193302062517474e-02 4.380839921253052577e-02 4.690723366298441555e-01
7.647752026659650204e-02 1.809248315763847814e-02 5.074372841523191457e-01
3.572393446246404508e-02 5.611361632224123874e-02 4.672751651756753000e-01
9.108779746720607751e-02 4.938258481244786613e-02 4.859091691232140797e-01
5.707434280280060390e-02 2.085340010647393841e-02 4.628429048480279251e-01
6.019292384403436558e-02 5.211120099763754190e-03 4.638610620926003070e-01
6.776334575675606320e-02 1.300831755072645243e-02 5.180030674911983990e-01
-2.941498242068405974e-03 4.451934859049696408e-02 4.547472217938421934e-01
4.764550988442072671e-02 2.420663392972768196e-02 4.590808386536726626e-01
5.479797030262061053e-02 5.256974951352206410e-02 4.688346494770709305e-01
8.249696472736937902e-02 2.958008167880066958e-02 5.018508091131872462e-01
3.888120630893895924e-02 4.897750374981709592e-02 4.628987959823919196e-01
1.437810331895774188e-02 3.782281168101800373e-02 4.545176179113692427e-01
5.498450488602413949e-02 4.317991619026199934e-02 4.655804833147351163e-01
-2.126754735607968433e-02 1.232485768718811353e-02 4.459736964992829789e-01
6.030022604760363475e-02 2.097624769768663411e-02 4.648037605305554987e-01
-2.945568138861415393e-03 3.363172031648895000e-02 4.510307414923613867e-01
-5.961610703011585577e-03 5.367820095632497290e-03 4.424588672199451511e-01
-1.265629167662984597e-02 3.063506123558096955e-02 4.505334447040216239e-01
8.052360899326660437e-02 2.741202427562509578e-02 5.071270785014334592e-01
7.579954079440835713e-02 1.451699138148581161e-02 4.840451138005686937e-01
6.520229854956068050e-02 3.467780310452732440e-02 5.215425534239076510e-01
3.082318229922537123e-02 2.096004160709518879e-02 4.526317207173234936e-01
5.479306525453742777e-02 1.729534934213869390e-02 4.608066122976220980e-01
7.298432162350718122e-02 8.473102341487154243e-03 4.869045863044246802e-01
