7.590813054760961465e-03 8.911773372609607669e-03 4.446133571344854096e-01
8.370973832514588819e-02 4.563840472586989938e-02 4.757877065527024718e-01
6.425232171750111521e-02 4.141102216704654893e-02 4.684444837526739458e-01
1.209806528986110026e-02 1.189084247036258958e-02 4.461940480986222868e-01
6.655327761927819219e-02 2.305585150443880196e-03 5.019389707696790826e-01
7.921483445863312933e-02 3.060945414997610567e-02 5.117788047130032991e-01
-2.598688696369045800e-02 3.935322335098899796e-03 4.421255412869781742e-01
7.233044333372726231e-02 1.126712512823633064e-02 4.785995832838491060e-01
8.040261839670675981e-02 2.370836556678967977e-02 5.000533405790970054e-01
1.320915267122121234e-02 3.285975443283243452e-02 4.526202068803352740e-01
6.305539235956099386e-02 3.082320347257082316e-02 4.665070715341430585e-01
-1.842750897034265214e-02 1.017751493476905765e-02 4.443909486572215628e-01
3.424313305644268585e-02 5.629003763881840205e-02 4.672506728322768366e-01
-1.249156007401334284e-02 4.428896924132957186e-02 4.572214420810518654e-01
4.239726122050079676e-02 1.824946268249094672e-02 4.556830937865030684e-01
6.685660138616090348e-03 1.427351354909227321e-02 4.460975257017024131e-01
8.348573499509388818e-02 5.205192871484598527e-02 4.792465302520936832e-01
1.899158448653005121e-03 1.537125294508767497e-02 4.457349805579917112e-01
-3.439011387361523564e-02 -8.683649755205798387e-04 4.402173641769522860e-01
6.002749680126388820e-02 4.237990439031407569e-02 4.670499280754290550e-01
-1.198349440435941479e-02 2.571971515902959568e-02 4.488504144932478623e-01
6.592093867934761819e-02 -2.248908671593185561e-03 4.995287110622244064e-01
6.455759837327031125e-02 2.009751120376247757e-03 5.069895300214721789e-01
-9.564883861352709363e-03 4.126502791279867965e-02 4.533063980969194717e-01
4.828319834181303560e-02 -5.589056414640676193e-03 5.284346588947518297e-01
7.492482609725510667e-02 3.557612397808008337e-02 4.718804522673412105e-01
7.371218936472349881e-02 5.539035156966122531e-02 4.790501987442594145e-01
8.086590128924454890e-02 3.300592279829085013e-02 5.086072761759758976e-01
-1.435338113533680265e-02 3.734277889052173977e-02 4.528454720014012946e-01
4.930987177446836955e-02 5.236351405898424100e-02 4.671936078479642096e-01
3.102279037634329134e-02 4.399200474147919523e-03 4.473695429297567250e-01
5.903168352272053498e-02 1.958729148536187889e-02 4.640492463484599539e-01
7.741346812696664470e-02 1.835946250146167427e-02 5.048291955598126490e-01
1.739745823073712838e-02 -1.062750928933389955e-03 4.425145483925600476e-01
1.457997262174474083e-02 3.620619662606952560e-02 4.541410615489075431e-01
1.843089707656704948e-02 -1.920099776004277744e-03 4.424424073577348793e-01
8.740810695403347652e-02 4.434163487960249977e-02 4.785361084427399159e-01
4.889338533817649823e-02 1.809403938576552295e-02 4.583157341232796944e-01
6.363501703832166734e-02 1.986444835672783113e-02 4.666926471670690968e-01
4.106989451054400553e-02 4.150346139116311422e-02 4.616797189437942261e-01
1.564550415537523109e-02 4.785867680188302456e-03 4.441860663677451582e-01
8.017532739498797745e-02 2.478348138131529835e-02 5.051465074606029670e-01
3.140263273797454235e-02 5.383134104742372250e-02 4.636210075589545787e-01
2.635381208619158935e-02 1.399984938516095085e-03 4.449686647517671068e-01
8.981398462237194513e-02 4.129691289820155292e-02 4.806484615086880074e-01
4.574292911192371497e-02 5.246329559102386880e-02 4.661564014206094897e-01
7.408760800739538910e-02 1.586235333829067937e-02 4.775328004755474698e-01
6.907198893697300002e-02 1.415988123450796950e-02 5.172465483112539397e-01
-7.683112868372040695e-03 1.072065813680827574e-02 4.436376768389613812e-01
1.723215429267723614e-02 5.275490775264773252e-02 4.635550216933815859e-01
1.689216000130602802e-02 4.998813079309977203e-02 4.600456996670616028e-01
6.864968236916588196e-02 4.551872288423663634e-03 4.772991436800510523e-01
7.639250210436513040e-03 4.368510033588532404e-02 4.551957796767041042e-01
5.210169851318201956e-02 1.632831006983191321e-03 4.576792003786699370e-01
4.062404618678897711e-02 2.300882497279613248e-02 4.560510529195022089e-01
-1.001000799183090692e-02 1.398213446787627268e-02 4.446714880968973271e-01
5.015216324907723067e-02 5.415789611609116844e-02 4.719658521074630020e-01
3.408509870388661423e-03 2.445966903117095456e-02 4.485052033793080484e-01
6.342058398875220770e-02 1.133021957914797685e-02 4.655408621335972996e-01
-3.063428602833982370e-03 1.736252466745957096e-02 4.457700209013669701e-01
9.114004510489336075e-02 3.960738831183839570e-02 4.826995364037650060e-01
7.742780650980070345e-02 5.452122633923201650e-02 4.781610817750499565e-01
-1.019546693385951081e-02 2.421446077307547531e-02 4.482359970424960594e-01
3.056707831690401445e-02 3.489005252118525940e-02 4.570586867100798756e-01
5.786002559072099538e-02 8.439609145464609802e-03 4.614596348313002028e-01
8.522172183728612960e-02 5.037260459783379080e-02 4.996863902220197162e-01
-1.029494779886347064e-02 4.094465209727242427e-02 4.532733146061534435e-01
2.486854694062170038e-02 4.813101625360884095e-02 4.600258609097682139e-01
4.732334996982648367e-02 1.477802670398568538e-02 4.569956066939596662e-01
-1.235876858619908321e-02 3.588631151904103644e-02 4.520614760036121837e-01
6.423549253914341561e-02 5.302907180771734841e-02 4.723013880855017055e-01
-1.070658043802717035e-02 2.186819292295212949e-02 4.474608306392633406e-01
5.368530752639145281e-02 9.559133320244981398e-04 4.587873399552288012e-01
5.231727723134417529e-02 1.468684159850344728e-02 4.591802551024726231e-01
2.074957149794712935e-02 1.349811327010663059e-02 4.481010888277452975e-01
4.265882002891699387e-02 3.068239845953860470e-02 4.592050520099816291e-01
8.670223696157461357e-02 5.285697012737727157e-02 4.951462327825158494e-01
8.426733871666089448e-02 5.534163524460761208e-02 4.846697474955850571e-01
8.130288828572405924e-02 2.342607209833369453e-02 4.819879896618802784e-01
-3.641388329416420100e-03 1.260085394109376235e-02 4.443078662656359534e-01
9.099390231133011597e-02 3.448400833879473881e-02 4.844017350860960192e-01
1.803557475574608590e-02 -1.617556509067475919e-03 4.424618764584721808e-01
8.330043130109962557e-02 5.843971332696724919e-02 4.865411880520953414e-01
1.873090489479656284e-02 2.070538346113371536e-02 4.498881897566532340e-01
7.638036823860072655e-02 2.140471547645241002e-02 5.127793024016105150e-01
-2.759675023600505900e-02 6.702433804536674089e-03 4.439027385823438587e-01
6.584916340804289336e-02 4.004846047738945536e-02 4.694584127300771570e-01
-1.269290127548773281e-02 2.288943149667824889e-02 4.479477549434650041e-01
6.539026845339812599e-02 3.141327891329687844e-02 4.673962084189541843e-01
5.482063525115210556e-02 -2.904652979848557515e-03 4.600512020608546471e-01
1.083966074943258119e-02 4.440966729262549838e-03 4.434856347811381161e-01
-2.881864561158293050e-02 6.391105527837158753e-03 4.448121153809787565e-01
1.480435325382169556e-03 1.364985831771224796e-03 4.416566231185352076e-01
6.577658811141910700e-02 4.706243812625949402e-02 4.697637797841756058e-01
-1.271375151582665800e-02 4.115057896561253453e-02 4.547036830534362251e-01
6.077536796898823368e-02 -3.272633534761146441e-04 5.146069099223863352e-01
7.688391393530032147e-02 2.270724791552850702e-02 5.133012178685939508e-01
7.878028604949349756e-02 2.340929184365143217e-02 5.088190705877415621e-01
8.528057635501605505e-02 4.571492959692724511e-02 4.769883443827809266e-01
2.114468649415579896e-02 3.769843422609408558e-04 4.437072114663145883e-01
3.284455227326997517e-02 4.493635337813444916e-03 4.481333157197403549e-01
-4.075577338857137161e-04 -4.738073203690027282e-04 4.408460483660673890e-01
2.478314933664808872e-02 7.708196247099461176e-03 4.471103279386804963e-01
-4.665159106561461363e-03 5.578968605841777909e-03 4.426155920095942164e-01
7.176852225876213798e-02 4.668404786201812290e-02 4.722473567707407560e-01
-1.041085898805745209e-02 1.328190929435321861e-02 4.444626188538916556e-01
-6.543123276845519247e-03 2.254968588583497122e-02 4.475535024352472191e-01
6.547380515918405086e-02 1.615582540289470584e-02 5.252798849256402614e-01
6.894324032925637502e-02 1.730518772614165687e-02 4.700160600880865513e-01
7.581388740336733600e-02 2.590802776059662749e-02 5.175535549115488632e-01
2.182925580564020092e-03 3.145970794794993031e-02 4.507939244925023292e-01
6.790993387249347202e-02 1.369750296431447578e-02 5.184964759479433472e-01
5.680389985193699809e-02 5.266049901113351722e-02 4.695441939305763368e-01
-1.095893199534947807e-02 1.311367777932316916e-02 4.444214451660605247e-01
4.152100858780793241e-02 1.567888307797970365e-02 4.546425813435335250e-01
1.844537967011568302e-02 4.120759245851443597e-02 4.563486728775610901e-01
4.490938088354310548e-02 2.251021749671984137e-02 4.575271885462172672e-01
2.349947322675606520e-02 1.896437235450337128e-02 4.502079879905317994e-01
1.935784297561029405e-02 5.361621276475792008e-02 4.647917973534593794e-01
1.007184648573761568e-02 4.174499732528441642e-02 4.549497228363508783e-01
5.460792709412710250e-02 9.919695617694882298e-04 4.594256305072654811e-01
8.930165685977506373e-02 4.114364343260158707e-02 4.797356216201901780e-01
7.597439396342173246e-02 4.360824866521784832e-02 4.740043985886626121e-01
6.608597908241929664e-02 -4.424426499040763974e-03 4.970254152046351681e-01
7.275734810311318412e-02 2.296756606850784352e-02 4.720728358945009973e-01
4.460579245917955377e-02 1.477640858016790980e-02 4.557765942634983136e-01
2.446690213974641454e-02 2.180774008949745366e-02 4.513415045336772180e-01
8.422847400527780359e-02 3.491157493328587297e-02 5.008936627540861997e-01
3.889489874917887585e-02 4.853690515765261143e-02 4.628627436778446347e-01
6.141964862253947860e-02 8.342049986085307844e-03 4.642300055990263852e-01
6.171258582452891078e-02 7.197007547768616113e-03 5.215301200597231013e-01
8.016023975977856764e-02 3.268322362218670923e-02 5.099949505342598055e-01
6.849710495158709000e-02 3.898494502908119580e-02 4.705531353711878140e-01
6.884861662993090048e-02 9.024321752092202831e-03 4.735125071486537274e-01
8.562181864424322358e-03 2.508980969655592516e-02 4.493931270081059082e-01
7.260628168891659906e-02 3.480719307227224391e-02 5.193349023008960730e-01
-3.692027231592343722e-02 2.891289778546273469e-03 4.432919201517527830e-01
6.921500276488465331e-02 4.799493877078481185e-02 4.717483790981195080e-01
2.731008413216529790e-02 2.053974269910533237e-02 4.516587208182524793e-01
7.761696626302937163e-02 1.594573717311145028e-02 4.971478954040411402e-01
7.445873165563567098e-02 1.044017783558891764e-02 4.940002162089088267e-01
-5.212238190632277439e-04 1.819861350253408269e-02 4.461839919448452596e-01
6.729771397116041109e-02 1.326745616570020048e-02 4.687927474053705801e-01
7.138376177047357773e-02 7.806473467946144912e-03 4.990504030664558166e-01
6.504552749391008526e-02 5.329580123486282045e-02 4.727040206450187632e-01
-1.419604767579868247e-02 2.200838916122948435e-02 4.477602474667110588e-01
4.580094035195377694e-02 -1.899913853075752869e-03 4.534706289578558369e-01
8.195722526267110175e-02 2.363497537425483450e-02 4.860166830783101410e-01
5.277701652632680457e-02 1.372077991569049110e-02 4.591548994997818323e-01
8.151824256901939181e-02 4.826354781233409275e-02 5.052629597373916592e-01
-1.586821623484456836e-02 6.923954996892378935e-03 4.425602744069248584e-01
-3.214210878419975631e-02 2.490554572343642824e-03 4.420520467034465550e-01
3.899398638818761531e-02 5.357238959766402742e-02 4.651882618780107670e-01
5.350140988757100258e-04 4.479722804277897624e-02 4.551097934008210277e-01
1.303405977244447358e-02 5.132942886525572457e-02 4.617842565344624228e-01
5.988272910373921426e-03 4.553069050446777177e-02 4.558763162135480163e-01
8.509502709846508695e-02 3.935966061555769280e-02 5.000071522225824072e-01
-3.136483886604388843e-02 1.540712809467016491e-03 4.415397658505733625e-01
1.035002510775941999e-02 1.695524420611567093e-02 4.474173639453499218e-01
6.919105366102093480e-02 1.567830659873079013e-02 4.707243388175539889e-01
2.395190767617918701e-02 2.964717053070816538e-02 4.535881792132426815e-01
8.760621936733012372e-02 5.302052386210557439e-02 4.918449626558468735e-01
6.978162697613815579e-02 2.031530883806355065e-03 4.878310355698953216e-01
3.317497235622637874e-02 3.776025709324593027e-02 4.587204211468626780e-01
-1.169105956522282531e-03 1.275102979128654029e-02 4.446328435965060666e-01
7.965764332372497758e-02 2.030011777284027041e-02 4.843970098314194783e-01
4.809606521666461715e-02 4.067388266010891346e-02 4.632574675886525495e-01
7.979440954967473298e-02 5.713796559757884641e-02 4.925857124803295628e-01
8.694616551409772853e-02 4.415751819900884390e-02 4.985448391523705780e-01
3.039802072241285305e-03 -1.309764768407002677e-04 4.412532703875556295e-01
2.263203990903720972e-02 2.732356656415687451e-02 4.524194445312944568e-01
7.702012910515733390e-02 3.678444392433784238e-02 5.145354426572458229e-01
9.069300199621598002e-02 4.697286124163295440e-02 4.912364292954828349e-01
2.099783713364937465e-03 3.088303373285681760e-02 4.506283008087599851e-01
-3.456874584315317023e-02 -1.283497616745671657e-03 4.399713586111180241e-01
6.035337637785469223e-02 8.585479320901137287e-04 5.159360102584035213e-01
7.728475098401718646e-02 2.161960286371709949e-02 4.777803929913356784e-01
7.697251030170408626e-02 1.559941838019023724e-02 4.992509912210013612e-01
1.357994334348538307e-02 1.920598390861293428e-02 4.485541728658687943e-01
6.815796718669878129e-02 1.764484563991616101e-02 5.226482721805345566e-01
7.372838899044842353e-02 5.649678005012990362e-02 4.803114623395155491e-01
-3.882922937091875387e-02 3.193628671465571951e-03 4.461391207936389880e-01
7.923862367242674731e-02 2.752513779271887132e-02 4.760799739578723822e-01
6.951828306174737127e-02 3.340929140808417130e-02 4.690951330531132335e-01
8.300531934430577241e-02 2.637415985367046536e-02 4.817684581880061212e-01
5.200212070442176288e-02 3.074289355593940246e-02 4.630098380990687046e-01
8.848131767575828643e-02 3.837335247482364514e-02 4.938973996546248690e-01
7.190405108113713528e-02 3.090553557408801805e-02 4.701218454788564372e-01
7.546269156172188963e-02 5.438731455096750683e-02 4.994103876099525441e-01
1.653357802636927845e-02 4.840805340273012132e-03 4.443834139952407836e-01
7.371761680181246335e-02 1.685492977857301622e-02 4.761481790110269618e-01
1.723368738868361061e-02 5.189640569485999555e-02 4.612468218095809869e-01
2.200951245102833465e-02 2.025906198829063518e-02 4.503883386623318552e-01
4.891942057188219256e-02 -2.471844319008167923e-03 4.555667688201526788e-01
3.034454275615195568e-02 4.416624498783996294e-02 4.597341564154652227e-01
6.423266600777828572e-02 4.540754172214880868e-02 4.686342656492634706e-01
4.846142936767760048e-03 3.723541312318785768e-02 4.527563273377529507e-01
-1.257279971219240830e-02 2.311677048133954290e-02 4.480180860320593927e-01
2.343434713558552665e-02 4.697343771306333043e-02 4.593629594668793836e-01
6.488586558889065936e-02 2.248682062730558359e-02 4.674434609041406841e-01
2.747856499752169765e-02 5.704910894402633048e-02 4.675621777281809277e-01
3.970595782557657938e-02 -3.892185172593422456e-03 4.493904429822782043e-01
5.759785987684171854e-02 2.540888625118386743e-02 4.639022309366623853e-01
9.593545769460717909e-02 3.953758104924263300e-02 4.864493725801974366e-01
7.228079773311609293e-03 1.956852092620278011e-02 4.476533742639767222e-01
4.276073084153275694e-02 5.209919503539703345e-02 4.649743457425326576e-01
2.020730427351289174e-02 1.999494339760956446e-02 4.499879706008428348e-01
4.546167686134514052e-03 7.256855712735841256e-03 4.438106784332719879e-01
8.645767851778078661e-02 5.278384665790322727e-02 4.826886981076238814e-01
9.908706599877151189e-03 4.218255743801137270e-02 4.550716342780299906e-01
6.600547584706926985e-03 1.324331831797712772e-02 4.457769548516138935e-01
6.015232650092861011e-02 4.028194846221345299e-04 4.653547785416959903e-01
-2.060235581298306556e-02 2.010434889585199433e-02 4.486367774674401843e-01
6.499917079451622559e-02 5.242478044677847428e-03 4.698164311239959035e-01
7.966077135083955707e-02 5.687554166714996196e-02 4.818427880355174997e-01
6.870556552754253365e-02 -1.846003989884699090e-04 4.882046681516216680e-01
1.690996782349788591e-02 2.733133092216645868e-02 4.513001310801020849e-01
6.227185640642696890e-02 1.135469617424987934e-02 5.249682690519055228e-01
6.702183397137748133e-02 2.036113466774108760e-02 5.268298440295262619e-01
-4.180258213568460723e-02 2.582594770383840610e-03 4.442595726664582134e-01
8.073095801674914918e-02 5.372341784055455205e-02 4.785073807520680567e-01
5.486771261526627447e-02 3.616775281159434474e-02 4.646757871317618305e-01
1.846786177931525200e-03 1.163453504963540483e-02 4.446983041258770752e-01
8.212862734762862993e-02 2.490081160883301017e-02 4.817402938156583048e-01
1.946819707859326690e-02 2.533436264839660293e-02 4.512087127546258181e-01
7.369869677146856368e-02 5.489773516621031246e-02 4.772900649691030339e-01
1.283532282852088095e-03 2.272218443883403105e-02 4.477911403618755615e-01
-8.324935865095157289e-03 2.781350522723482349e-02 4.494512399620561593e-01
3.340153889576412752e-05 1.647854569476592257e-02 4.457997368433697649e-01
-1.212997457366055479e-02 4.349021705088873535e-02 4.562099147274932820e-01
-1.959234626238953378e-02 1.446092565698521223e-02 4.465306341546561586e-01
-1.580855163554563750e-02 2.012015627354634892e-02 4.475581549794878100e-01
4.558945025878301249e-02 3.195153091278606083e-02 4.606531608009357681e-01
-3.828551842119090089e-03 1.551647541197803334e-03 4.412899664308552183e-01
8.407451353253660165e-02 3.111206960162863494e-02 4.982099500117821989e-01
6.620604434282284512e-02 1.334439019600173505e-02 5.209786835087639734e-01
8.038860233703835900e-02 2.866273369941152449e-02 5.083881000771782732e-01
9.118003988868592091e-02 4.722017174433496695e-02 4.894453255564319982e-01
2.130453737485568308e-02 5.011835298647185355e-02 4.606233917568330893e-01
7.689382796790070196e-02 2.442950454520476447e-02 5.148813166573373845e-01
5.910128891113657773e-02 2.270469799129539584e-02 4.643735244318461519e-01
8.254347936967064425e-02 4.929545576599460993e-02 5.041379237837860794e-01
6.544217076529440513e-02 1.419828138805899302e-02 5.232505573532738596e-01
9.326858555307881993e-02 4.762879908377190552e-02 4.870345618995385872e-01
4.448137751663126110e-02 5.273705217485232660e-02 4.660370711959420098e-01
7.300708206618026011e-04 5.171419923684484818e-03 4.429180769163350018e-01
-6.138634546184799229e-03 3.195868231964248823e-02 4.505777158006600835e-01
8.504609826949725837e-02 3.177441647416864162e-02 4.947248021557166808e-01
7.388933657504419272e-02 3.910744003518605572e-02 4.732726863089501967e-01
6.491535587016961616e-03 4.185081221090776460e-02 4.543691472241700446e-01
-1.116444483124156856e-03 4.669405175014983145e-02 4.565235625905637584e-01
7.056572120764696698e-02 5.556704752187896501e-02 4.778153757185094608e-01
6.729615878131928186e-02 3.870404747199331780e-02 4.698136183456010917e-01
8.166754731872515050e-02 2.253366129607397780e-02 4.887207815555790202e-01
2.711400217580212102e-02 2.851019558947696583e-02 4.538205425783888303e-01
-2.080211172397493022e-02 3.164092750870417525e-02 4.530956983320136855e-01
5.078971979309333806e-02 2.488760709553827430e-02 4.605970121694937247e-01
6.169348924338094453e-02 2.457757161274588126e-02 4.656955046764263972e-01
1.396929531836602414e-02 4.950442838793977368e-02 4.595182397915771877e-01
5.041741857924200015e-02 3.869217145942307340e-02 4.635405580779493051e-01
5.281869582276536162e-02 3.278926957730526892e-02 4.636228386168507187e-01
7.713027715820591768e-02 1.542461704764465022e-02 4.867907682458083030e-01
-2.737582629403227316e-02 7.156227451544756694e-03 4.450250168061417599e-01
8.477127860970749829e-02 3.441694961317373624e-02 4.989280544052910882e-01
6.292963547181278094e-02 -1.941218137617345234e-03 4.703012998374835330e-01
2.035509694526781155e-02 1.668324711712282360e-02 4.489662724261159199e-01
7.140473409010333894e-02 5.659680991168099945e-02 4.819647446140040703e-01
5.417673788834062587e-02 4.938321850440617090e-03 4.590534058347397472e-01
6.850859683827371927e-02 1.591267114820711258e-03 4.816596982507955205e-01
5.576764567885061918e-02 -4.743896555654316012e-03 4.619204206614299646e-01
3.994351346002477515e-02 7.303143154564424415e-03 4.515592743071446535e-01
4.389502086439726197e-02 4.064884444964658727e-02 4.621562012926436758e-01
5.348647999286430810e-02 3.978516901399607383e-03 4.585958034803429006e-01
4.468586178669586156e-02 5.491410065620049713e-02 4.698409103296765088e-01
-1.746643376539874087e-02 4.180426238147811474e-03 4.417405991801381937e-01
8.165665842672922836e-02 2.734350728261664143e-02 5.007123396548071037e-01
-3.328342000197517803e-02 2.596810735358502566e-03 4.422107618767651682e-01
4.002557390863339948e-02 1.448246493622352450e-02 4.535926443921846074e-01
7.475931234309060591e-02 1.670315057790362073e-02 4.780265196137892247e-01
9.201074756251984010e-02 4.911012882743873154e-02 4.832420793007971560e-01
8.879991989080961157e-02 5.175010693377143228e-02 4.884692733624844685e-01
-1.700209880938719290e-02 2.018887990973843374e-02 4.479519407148908061e-01
3.586773146899153997e-02 5.450573835043102250e-02 4.653091159776412411e-01
4.257768831481586330e-02 3.640503327351551216e-02 4.607969075280882176e-01
2.286036384804564919e-02 1.672874741248526337e-02 4.494141884668658160e-01
6.905745003332208753e-02 1.230201866142172952e-03 4.856732396189915590e-01
6.229748293521995828e-02 1.626866301979154952e-02 4.651649923396037334e-01
-1.223084986012097815e-02 3.040239375899580262e-03 4.414994235203315021e-01
7.836432251987823783e-02 1.720524209923896333e-02 4.963740796163885749e-01
1.620844280775148721e-02 7.113832575942851191e-03 4.451801120981521143e-01
4.067529597632994071e-02 5.548260596789355431e-02 4.675566366350377701e-01
7.592283623111395485e-02 1.372162626973141147e-02 4.992830801406841768e-01
9.960530507157986171e-03 8.487194784747810125e-03 4.447729367625730124e-01
5.604333474905818374e-02 -5.603133954842589269e-03 4.626841125125727983e-01
6.128645352310511246e-02 -4.819343238453033598e-03 4.694734850217159861e-01
4.615036562554807736e-02 4.509615069471373944e-02 4.638659866269534415e-01
8.017460478875088059e-02 2.087465904367619488e-02 4.943251228097301775e-01
2.110727659439380274e-02 3.410810289883767915e-02 4.546918802846810492e-01
9.123182769741876308e-02 3.953333965429719349e-02 4.828076342537918619e-01
1.109032217312482665e-02 1.605037077037420323e-02 4.472749577468262405e-01
3.622891244268314215e-02 1.267975794045322381e-02 4.517439514829001967e-01
4.438204909034991485e-02 4.474829689079026090e-02 4.633773009582247138e-01
3.142367262594842475e-02 3.222075655283341417e-02 4.560898344409614058e-01
7.120103135572380948e-02 3.830819096196319551e-02 5.159139641031946777e-01
1.073016494951568346e-02 3.846731550561537788e-02 4.540044775534599064e-01
4.795825337682009526e-02 -9.610857071291069829e-04 4.549205887490135880e-01
2.529428692122259736e-02 6.779355904608951044e-03 4.468989788282519693e-01
6.842179914469043167e-02 2.563875415042338873e-02 5.286127567062794963e-01
-1.868649114014324028e-02 2.608964924068987376e-02 4.501854193119353420e-01
7.792746295559228875e-02 4.287157812748038782e-02 5.112343508182549678e-01
3.793942570236723266e-02 2.689205035998655166e-02 4.563487399310908743e-01
5.752517965004634581e-02 2.549533374812794698e-02 4.638759562598346875e-01
5.446069514802407557e-02 2.338259150608086243e-02 4.619664975819428032e-01
3.688651367874964254e-02 3.102063138925304636e-02 4.572887356847663010e-01
8.609144321904795005e-02 3.056937708944265641e-02 4.814639486258462941e-01
7.783805218197301090e-02 2.262540335151411522e-02 5.106012238434258776e-01
4.861718101630412708e-02 3.568722635075230465e-02 4.625765543156193926e-01
4.659748078442665919e-02 4.615047459186781553e-02 4.642541970825006525e-01
8.224402479221194773e-02 5.979825715913261036e-02 4.874671267394977137e-01
-1.666129294888684179e-02 2.900094636797499043e-02 4.505901142123731051e-01
7.228824286619013606e-02 1.905108972468179049e-02 5.183466328719573690e-01
4.619752170648015049e-02 5.465672687828478787e-02 4.709026677091445734e-01
6.318920855011593216e-04 1.845101719877603394e-02 4.464147757946246853e-01
4.476124844431436656e-02 2.112978118739526623e-04 4.529091603872595906e-01
3.501219390933202336e-02 1.421146490141132410e-02 4.519456864269587038e-01
5.854714740800008588e-02 2.139049693822840832e-03 4.628228004934074047e-01
6.930866785931462382e-02 1.493260734389378376e-02 5.179716655009363180e-01
5.266253597246222523e-02 2.587997927212500656e-03 4.580504077051270606e-01
-1.654345984927792571e-02 3.192599476027386390e-02 4.516653318018623020e-01
7.973325356521204776e-02 1.884847902916500853e-02 4.924638607096821219e-01
7.114237180070832889e-02 7.415256107595074621e-03 4.815865522337026694e-01
1.479827944545290992e-02 5.197730325680714747e-02 4.615538433060215606e-01
-1.577468264215324198e-02 2.726376180264806701e-02 4.495667457221007024e-01
7.551145228632463735e-02 3.785179867064857040e-02 4.730359150112889433e-01
7.328226637098360363e-02 1.528832589704364441e-02 5.105649792719947344e-01
4.462417913069092329e-02 3.927201222661179381e-02 4.619732553765215632e-01
6.181124250184402008e-02 4.319774718455021006e-02 4.676589460500667483e-01
-1.848212893246148347e-02 9.752220185900110222e-03 4.442170644792426959e-01
-1.455809687446650569e-02 1.191057395293565295e-02 4.443662197257159385e-01
8.353110852747484827e-02 3.813666529204118999e-02 5.027199887007506307e-01
4.538454305024532121e-02 4.653742778026321095e-03 4.540670367323029200e-01
9.511976894924961679e-02 4.225727301649808559e-02 4.904416664758122768e-01
9.527028474172505312e-02 3.885377611649682567e-02 4.860234264190595455e-01
7.009914849665128955e-02 2.980813375429149439e-02 4.693752413876022267e-01
6.091830158406538048e-02 3.721533702698065493e-02 4.665915648153481921e-01
-6.673095828443284874e-03 3.433143708440594688e-02 4.511466751851456736e-01
7.291531419391618363e-02 8.904840091169610727e-03 4.856502961001403218e-01
2.429021555463077922e-02 2.815550185770739761e-02 4.530695542043647883e-01
7.140415202749450518e-02 7.747116375288814853e-03 4.819648278600739411e-01
-9.380607314774285638e-03 4.329000157702531798e-02 4.543939916660992839e-01
8.450317740190300964e-02 4.953488243433589594e-02 5.016741600557419467e-01
7.013652830725572440e-02 5.568001876540711916e-03 4.807040814030337783e-01
7.884254899453210785e-02 1.749943323344569854e-02 4.941132054894543657e-01
4.484850575401035100e-02 8.291928519400273284e-03 4.542555031970004209e-01
6.540896988706186577e-02 8.444454576091052142e-03 5.150825379221902756e-01
6.106523888292724606e-02 2.518018344355380661e-02 4.654252572404026789e-01
8.362928572347486100e-02 2.699879714702274613e-02 4.911691826921768533e-01
-2.725571194648534340e-02 7.282680699601841445e-03 4.453603498321781484e-01
5.973676542501960007e-02 4.738414380689663641e-02 4.677928337547292981e-01
-1.472858913419416993e-02 3.285376790263019181e-02 4.514288219575755545e-01
7.997367936063030924e-02 4.270161495253402273e-02 4.757099923362406724e-01
8.357385158863629704e-02 3.461059426257481753e-02 4.770194520595332222e-01
6.274514093243416246e-02 6.816350686397526157e-03 4.659951226711340766e-01
4.399723070526365826e-02 2.517622435661798913e-02 4.580003929184864875e-01
7.270165250275612001e-02 7.986881302740753835e-03 4.918594686533638294e-01
6.922300908823444954e-02 2.368665739319733218e-02 4.698887857191267337e-01
3.693470063631918571e-02 3.045518323317405324e-02 4.571560468424787360e-01
6.959307713359580427e-02 5.530424580440373300e-02 4.763172081212077580e-01
8.010371196073025335e-02 2.512212870437487838e-02 5.062048080276565498e-01
6.472875320065493709e-02 1.424528399627296264e-02 4.668657680096391926e-01
2.545325609656362911e-02 4.834874281939118695e-02 4.601676131227344091e-01
-4.713577035156376119e-03 5.116623679322758467e-03 4.424917802265063149e-01
4.665809697420312402e-02 4.095795068678469847e-02 4.629691561472801808e-01
6.487109768100414453e-02 6.569611882211115299e-03 5.132339708443056647e-01
8.068682294099156771e-02 2.598115834018888820e-02 5.031354141868110696e-01
9.500394763022754208e-02 4.450104415897239429e-02 4.852557130452113676e-01
4.748382347300660750e-02 -5.040055094255974436e-03 4.547629365031381488e-01
-1.796192303216780951e-03 2.589271819052303691e-02 4.488722899874175165e-01
7.509325547483872154e-02 2.121526657684996015e-02 5.150932942552554072e-01
-1.966538416239633699e-02 -1.187971071477725120e-03 4.402409298334697962e-01
8.368271507304951562e-02 5.874003665934548341e-02 4.875907785592125121e-01
2.890423306046922478e-02 -3.311333131085490190e-03 4.442778909212093397e-01
3.026379333099557881e-02 3.807122856994386156e-02 4.581186524673273031e-01
-9.295777840843547427e-04 4.080927822578832298e-02 4.530566301081435099e-01
3.966209550435927794e-03 7.291078661863648405e-03 4.437741237438339592e-01
4.933363581839909223e-02 5.066411017956057306e-02 4.660278806834265430e-01
7.028898991381961336e-02 3.262235683030700190e-02 4.694169267342163665e-01
5.661085881242802070e-02 1.213399484939502605e-03 4.608083357679212955e-01
8.214188217402895731e-02 3.655602625696346974e-02 5.062876150665271968e-01
6.686016875821364225e-02 8.453861385476089865e-04 4.984046200511316749e-01
5.522775813289027003e-02 -5.078079433897536056e-03 5.225027107416286842e-01
5.627757219699384972e-02 5.536287582652084371e-02 4.756542978942011612e-01
8.057387835508186824e-02 2.137733092013211281e-02 4.934722706187867902e-01
8.469255953766807732e-02 5.431138025271906727e-02 4.947869580302191594e-01
2.318901933634971713e-02 4.169037532879713709e-02 4.574796356560584254e-01
8.039052162664757362e-02 6.017378604217590854e-02 4.879186738721048022e-01
1.672128311352850255e-02 3.365637537287260311e-02 4.534970062642921795e-01
-2.311683588681034962e-02 9.579578990552145568e-04 4.406600314515427552e-01
7.631167480529299496e-02 1.459843159596991083e-02 4.858918871899551850e-01
3.213375464229546036e-02 3.485708205930824338e-02 4.573899724904256781e-01
4.401674986928445082e-02 4.729073150109442542e-04 4.525382127439189772e-01
-8.448244665987253779e-03 2.894853732017633324e-02 4.497568758759628027e-01
1.910052572148610017e-02 3.155585020010489433e-02 4.532712020968630573e-01
-1.557971901541711605e-02 7.919166705995319550e-03 4.428800295555073707e-01
8.610647499549657635e-02 5.184803192883997991e-02 4.809924172403177711e-01
6.280969269524960819e-02 -1.648958523662761438e-03 5.089356679483418855e-01
6.723620155050219482e-02 -1.036502144456141403e-03 4.958440489670553619e-01
4.296607137548669880e-02 4.560868584549510052e-02 4.632496499561759018e-01
6.736000269392179718e-02 -2.070123232768069244e-03 4.939772905839688311e-01
2.757936694544245362e-03 3.020210999695022852e-02 4.504802132300444462e-01
8.050261711536103870e-02 6.021039748696378063e-02 4.862820272475831818e-01
5.767347674545970915e-02 1.504840816486708449e-03 4.617123122261703183e-01
1.573049167104344226e-02 3.911002629438013745e-02 4.552077163162971396e-01
5.806131595359199232e-02 5.059964281170970662e-02 4.685763467417174977e-01
7.992087579714095280e-02 3.146951791998794240e-02 4.747001151890112292e-01
9.235223747509233028e-02 3.961170005528881488e-02 4.837956486921513588e-01
4.895482629150939985e-02 3.068830384377104620e-02 4.616940226443219109e-01
7.099252822494479809e-02 1.593443409709134964e-02 4.729831324488725230e-01
3.297163270290828091e-02 4.969384052958908393e-02 4.619695708325822214e-01
8.356655986523066348e-02 4.513707729418581227e-02 4.759301005225126668e-01
8.238227864596346650e-02 3.300781455385568691e-02 4.765183436445736831e-01
7.972748157255341028e-02 4.462028487963990570e-02 4.750541356218114797e-01
7.762541682065721149e-02 3.318108321606069722e-02 5.151080377559235091e-01
6.658950683036216067e-02 6.162198216188481854e-03 5.087450956100263433e-01
8.935160400558445071e-02 3.295654358109765397e-02 4.828374235873558185e-01
3.230225146761446509e-02 1.923268090538241947e-03 4.471397219354044106e-01
6.979425704321406965e-02 5.584814208357373466e-02 4.783588392522958310e-01
-3.265195371530911755e-03 9.366088932693309582e-03 4.435926638220817897e-01
6.651218855135157537e-02 4.229700724961171082e-02 4.694989772196840327e-01
-2.551872440220107410e-02 1.349047798870450093e-02 4.481719617928543453e-01
1.888003012650939401e-03 1.559008911249009505e-02 4.457978122477603278e-01
8.159020324370863664e-02 2.655308089754215839e-02 4.995554405822794086e-01
7.751689458184422843e-02 5.469943357121490046e-02 4.788485601964126426e-01
5.349467111779772355e-02 2.650379687968190331e-02 4.622020223860027199e-01
8.419174450782827834e-02 3.497900580492437073e-02 5.010299847337296164e-01
3.189085520718835942e-02 -4.713689163991384781e-03 4.447522805082211872e-01
5.763886833720321262e-02 -2.277062506721855718e-03 5.191635700577091894e-01
8.202819559163672392e-02 2.456373335373775516e-02 4.933435533736778567e-01
3.617407138974874231e-02 5.270533754370162680e-03 4.497572437716542693e-01
5.100296131890397211e-02 5.099187430554378425e-02 4.664916527522883771e-01
7.461249565432605257e-02 1.167542411361645674e-02 4.860313236750424815e-01
4.352154996085017859e-04 3.451251492919632513e-02 4.515292244679643963e-01
8.414864429562006476e-02 3.163859299991943902e-02 4.986188727464405668e-01
1.013101509553404264e-02 2.853224114257069122e-02 4.506435545320807701e-01
6.723375185038200919e-02 -4.315697375611171789e-03 4.863447809173714886e-01
8.151285657614656954e-02 2.967851636399593263e-02 5.053831968514629347e-01
6.907644590080577740e-02 1.993776023657573351e-03 4.925345275706713988e-01
-3.370665672134398605e-04 3.000176854162253659e-02 4.502086340374741313e-01
1.785744102115479487e-02 8.494885028302902319e-03 4.459808035204382293e-01
7.137969848585380694e-02 6.393627621220358825e-03 4.851622658952243206e-01
7.580852910849725235e-02 5.558890256107468925e-02 4.948644398827421464e-01
7.823330472336700869e-03 3.959606037777486931e-03 4.430640375650630181e-01
7.158390249790484716e-02 2.112488275212544980e-02 4.713970679750361659e-01
3.421358861806048784e-02 3.584827164682084007e-03 4.484826389451440076e-01
2.602239983039497315e-02 3.134883865174306616e-02 4.546597838633035793e-01
3.778909836760967200e-02 5.415982663747384573e-02 4.654622601952535521e-01
8.328183301722619225e-02 5.691712176402888984e-02 4.918753519721707490e-01
3.060106246316859901e-02 4.649774920721538862e-02 4.605522389747659373e-01
3.254687959902696076e-02 -4.556234871780380676e-03 4.450726058649487893e-01
6.220603115768236213e-02 4.034857518921447506e-02 4.675125290210590534e-01
5.711783588248608989e-02 2.057415990788356158e-02 4.628975452497897103e-01
8.141674284860957178e-02 2.767461138162442130e-02 5.021835574371535937e-01
5.538544065083382539e-02 -8.578050914569038815e-03 5.232870854989477571e-01
7.060604885036558809e-02 3.167551465696877289e-02 4.695517812957252235e-01
7.867101540848787239e-03 3.070393086295130150e-02 4.511249101342490464e-01
-9.219020335294095952e-03 3.433038432042623961e-02 4.513924558088515115e-01
8.272099031237685474e-02 2.567912126161668238e-02 4.926760413891227430e-01
3.851847742623290549e-02 3.513931913371035574e-03 4.502300927891755844e-01
9.097084481864689542e-02 3.568967904668005064e-02 4.872689398696029572e-01
6.657022071578189149e-02 4.252557207111482690e-02 4.695183166632047045e-01
7.682945569823018683e-02 2.954032833841808633e-02 5.164307066834948889e-01
7.885892921275067247e-02 2.635504656701546586e-02 5.111651435508756114e-01
-3.512739734300740491e-02 -4.736119242620094594e-04 4.404553842740914216e-01
4.102620151372392276e-02 2.109929402387851483e-02 4.557574341276205976e-01
7.946726739469849032e-02 1.899665433177191026e-02 4.871695523564371633e-01
9.874959194636960189e-03 2.598133560205184711e-02 4.498254469766794772e-01
2.473065568468792164e-02 3.234684510358306481e-02 4.548114468172201885e-01
7.245572691947883837e-02 1.673841135948351405e-02 4.744284017332851544e-01
8.590646716263287963e-02 5.292357561094642587e-02 4.961528077403178361e-01
6.137892439930273461e-03 2.023097661053608817e-02 4.476825550558338196e-01
-1.383421050596578619e-02 4.137971683030868680e-02 4.557641451989765669e-01
7.997568266435438333e-02 2.086896472814400022e-02 4.840572322572082586e-01
3.830214581754838588e-02 3.364437234306520697e-02 4.586017360852171487e-01
8.991309367966834887e-02 4.765028966942787964e-02 4.812067044510140446e-01
5.896125343936013674e-02 1.612536494609188853e-02 4.630389363787802970e-01
1.946031608265266777e-02 1.128774866661914900e-02 4.472385975539165948e-01
7.019940515773166745e-02 2.103245134095620139e-02 5.231666058884155701e-01
8.966834771656168046e-02 4.127594382367119619e-02 4.803732705754155674e-01
5.077494348245618211e-03 4.921075963643323919e-02 4.600234873371076838e-01
8.364647004113491546e-02 4.969033409063578627e-02 5.027214343055171897e-01
7.864882559167728215e-02 1.962793940302593257e-02 4.816552454375537251e-01
1.824824056336803516e-02 4.594588060073574731e-03 4.446300216950060946e-01
8.060359904193853051e-03 4.680083334527613409e-02 4.569560896243921033e-01
3.088905666615270051e-02 2.164502813400663583e-02 4.528551866281473326e-01
1.219207675069162479e-02 3.537676363623875470e-02 4.534009401099873826e-01
7.799348380956733218e-02 4.539194771987011684e-02 5.098404185413691891e-01
4.633326694285219011e-02 5.426812436927073297e-02 4.682620017672194379e-01
8.070484190362078869e-02 2.167614333103039595e-02 4.859013442730509835e-01
5.450980558753367594e-02 2.703463615295299827e-02 4.627871542589422349e-01
6.823110775786839222e-02 9.775657908432478643e-03 5.115156641021024742e-01
