6.408132024280950578e-02 1.285432285812330468e-02 5.233722070385119496e-01
3.196201942380551969e-02 5.689814317111762526e-02 4.679401380891354267e-01
6.381755941663215526e-02 1.644893701462388919e-02 4.673850288708424339e-01
5.486870317113656109e-02 5.601874222121070585e-02 4.763445547812079073e-01
1.624628276165804991e-02 1.961922919207348057e-02 4.495269425066417135e-01
7.679573961088792533e-02 1.660112723584475716e-02 4.979755301641855536e-01
6.389469234467180792e-02 5.667155311737331891e-02 4.758334256575764143e-01
6.519206173162704621e-02 2.883654267426739512e-02 4.686465336499616163e-01
8.287103804386281025e-02 5.681139677605236138e-02 4.869640877199709061e-01
6.081046885157434523e-02 -3.431751902021013684e-03 4.691664704434443389e-01
5.636307903287345045e-02 1.570951741437068630e-02 4.622208739160739155e-01
6.339959568036189486e-02 4.790523429616566631e-02 4.704436700641464464e-01
2.229587319404627982e-02 2.970797210661097962e-02 4.538181445717257012e-01
7.457223438757526468e-02 5.420520995135995335e-02 5.031662644297918430e-01
5.008895790541834786e-02 1.494727654314232518e-03 4.569761633507241072e-01
5.504280659386472790e-02 1.387614121857733314e-02 4.609991530363959367e-01
8.360992360715609195e-02 3.989089956258146802e-02 4.782700327766583603e-01
2.037230265637931734e-02 3.407881602348307448e-02 4.551169886869456116e-01
6.178407831235002701e-02 5.617143139922843934e-03 5.180846095898363757e-01
8.098884214813745208e-02 2.526874135753685510e-02 4.842334239651890915e-01
-2.330745647076158666e-02 1.563332395930903257e-02 4.483370056551458371e-01
2.045365424845005387e-02 1.565106889951372801e-02 4.490562549975829487e-01
6.779247409053060225e-02 2.632542550982908819e-02 5.293754011644589141e-01
7.962269883664792325e-02 2.692078172366125025e-02 5.052636013233193779e-01
6.562420372717443773e-02 -2.367654437126874480e-03 4.787021788021847413e-01
7.500878080721304353e-02 1.852315991633438422e-02 5.098211406065671358e-01
5.496491110888878859e-03 4.939916125573334815e-02 4.600794007134461627e-01
-1.883649212863965777e-02 6.604958597735063885e-04 4.408216705343462882e-01
-9.397765656734074005e-03 4.907144814176241619e-03 4.421876577541541398e-01
7.865371508842744497e-02 3.067399730110561759e-02 5.114476206509840361e-01
6.354483668646587757e-02 2.854785174393718525e-02 4.679329093749066137e-01
6.258729617863767469e-02 -3.413202942013585789e-04 4.703446904571392251e-01
2.868733382732369108e-02 4.540832478531465349e-02 4.606234400027197085e-01
7.699362265741788169e-02 1.684097143441983316e-02 4.954196487864135912e-01
7.619190792656471700e-02 5.601965342276408327e-02 4.980768881300974837e-01
7.689712426070691165e-02 2.426043113510000654e-02 5.134036840895797038e-01
2.942559742312398502e-02 1.631297294253103436e-02 4.513667257094910457e-01
2.825643788513073490e-02 3.696468190935137121e-02 4.581197641472808946e-01
2.845842337297577879e-02 2.221364086359755435e-02 4.529790295206332362e-01
1.509569819311336845e-02 1.902903786084998716e-02 4.491264174316749735e-01
7.891478567404416888e-02 1.985823269751586795e-02 4.933105998940408576e-01
-1.624795605842386387e-02 3.987391069543970434e-02 4.549389597339019153e-01
8.132860332552900584e-02 2.920431938516125300e-02 5.007151350776875010e-01
-1.284662496368015050e-03 2.552927829421417372e-03 4.419912396903023510e-01
1.621602159350205019e-02 3.849093098025136578e-02 4.558097296992414948e-01
2.028120127345503509e-03 1.204746357726883300e-03 4.417966908879597532e-01
3.254264380185131755e-02 2.961854402538127359e-02 4.561217125377026727e-01
3.183797624190239095e-02 3.771348872199375285e-02 4.591752380998900263e-01
2.640662519932645766e-02 1.686092354413412653e-02 4.507717592234403159e-01
-9.327094766226022918e-03 2.962447072759874511e-02 4.502802575370001836e-01
7.616683357917869435e-02 2.195543796530993047e-02 5.118833809228128251e-01
7.419757786792730014e-02 1.401162003256713195e-02 5.030344815211619247e-01
-7.632401306286232950e-03 -2.034832613580244646e-03 4.396807889762139876e-01
3.189624131745009278e-02 1.688629898657099601e-02 4.522786951215165829e-01
7.504524407119707308e-02 5.639751303829819429e-02 4.808657087686299958e-01
6.384393206091804052e-02 5.123732892240904190e-03 5.124112306641551706e-01
7.312314280406781442e-02 1.228451254085575171e-02 4.839231950415353034e-01
8.176407002956387338e-02 4.744210750165694934e-02 5.048194366753774309e-01
4.568324421817678005e-02 3.642822946542886853e-02 4.627392212613825606e-01
4.322827413316877171e-02 1.642856225773954224e-02 4.562530879489437030e-01
-3.257241644400291763e-02 -1.157122183532037669e-03 4.400533326140915191e-01
6.365118641250176734e-02 -2.087355189847101954e-03 4.733412234738348934e-01
8.280923632680696478e-02 5.387738460733385720e-02 4.818386585393402144e-01
6.718400934498997001e-02 9.689687112827928203e-03 5.121965071751278797e-01
6.091061081169083652e-02 4.673228967549715451e-02 4.693334906648371496e-01
3.289948985899903561e-02 3.025918452448540102e-02 4.564667928097623784e-01
2.713473987683682684e-02 2.841934454865253229e-02 4.544280449578785852e-01
7.752977489227372287e-02 5.423037280760507201e-02 5.012989395144198390e-01
-5.446832346948753990e-03 1.295749423964386721e-03 4.411948905670556309e-01
5.786497208247846219e-02 4.231910073938663364e-02 4.677081209561982367e-01
3.389224757075935679e-02 2.391429285588422739e-03 4.483378711560632168e-01
2.447896585215759285e-02 2.337252410948457287e-02 4.523088981534826858e-01
3.345608093566368110e-03 4.935298633225611298e-02 4.611986679546495882e-01
8.686035381633010199e-02 5.029439842555976509e-02 4.823087097652823396e-01
-1.018993864910630945e-02 2.789499013726513127e-02 4.498003807944803145e-01
7.865304098581653303e-02 4.090436995542851006e-02 4.767609744579072717e-01
-2.612823736813405656e-02 7.840761117150476731e-03 4.449136066862816596e-01
3.754885567383561829e-02 1.858525455470728602e-02 4.546036189825700125e-01
-2.234633712657975359e-03 4.086211304422860541e-02 4.534997857981510339e-01
6.340082495118237738e-02 5.621939992717578383e-02 4.750666117763064356e-01
-1.304328012180927532e-02 2.532511056260968244e-02 4.490083992729357876e-01
6.006672526281930935e-02 2.740646389248117473e-02 4.663979055397819429e-01
7.577537002413693712e-02 1.414297052254201957e-02 4.907231711284102960e-01
-2.046543675860790223e-02 1.912984810327090016e-02 4.485628659751122460e-01
5.071378661971250035e-02 9.769188030975097317e-03 4.580038123125926841e-01
5.607073450134386627e-02 5.070782831621975517e-03 4.612045542789828256e-01
3.145462786741475003e-02 1.507494252865279431e-02 4.516061353567771830e-01
7.172668006040047728e-02 8.031622512376632855e-03 4.910744321895003095e-01
3.817831509551562752e-02 -2.700525832569088385e-03 4.490728876194138852e-01
2.452285327030027939e-02 4.543930441058495993e-03 4.461375819701721701e-01
4.159817192190810170e-02 7.007464847005365725e-04 4.517433036638485166e-01
-2.872678742501787869e-02 8.429798725746097399e-03 4.473170423484564839e-01
7.882633192095631069e-02 3.049141868733116004e-02 5.109781464890319480e-01
6.558825447672637921e-02 1.417772309908600301e-02 5.222564647158129958e-01
7.843962230155882009e-02 4.045451222720126278e-02 5.108916308301483244e-01
8.797225344845287232e-02 5.172027405964937236e-02 4.878186490823840926e-01
1.277539875092570040e-02 5.175742687036579553e-02 4.620179466412481228e-01
3.673798228322670834e-02 5.786065105496352064e-03 4.505067752489239630e-01
-1.755606978020136585e-02 2.116123250982258550e-02 4.484117466210885139e-01
6.740612860480436896e-02 4.863335647200059397e-02 4.727038184836317991e-01
6.441863985271152615e-02 1.994428725486441234e-03 5.058592842596906225e-01
-4.458697100169944569e-03 3.441514862346842230e-02 4.516220001891210756e-01
5.494996383496399128e-02 5.515225177677900159e-02 4.741432238505459140e-01
4.667999238646992899e-02 3.771964126310076854e-02 4.633240590543004633e-01
7.920898356218013248e-02 2.178730473937320888e-02 4.862507048327612269e-01
-3.115368038069540012e-03 3.242727970447898539e-02 4.511508397704131479e-01
6.284431759290994013e-02 -8.826854115177086048e-04 5.084337701989429803e-01
8.819190909684800767e-03 3.679693232757307725e-02 4.537508473733468661e-01
7.362517995016210071e-02 3.713969178138652044e-02 5.171873921411210828e-01
1.633997241455692473e-02 2.316456611293209785e-03 4.436647758379268502e-01
7.265133156080792742e-02 4.984628585390948191e-02 4.751365233897461016e-01
3.405268243065300016e-02 2.756455240735409141e-03 4.485448745925006975e-01
8.309484665794192315e-02 5.712929957145080478e-02 4.904801539109333586e-01
7.873451905825935848e-02 1.982504142056032426e-02 4.887375769097081490e-01
2.051229234868600163e-03 3.953202229965350860e-03 4.427734179261043068e-01
3.997196944605291291e-02 3.457651849727362559e-02 4.602798169182767962e-01
6.476309158406158561e-02 1.312039144008935419e-02 4.678971815755200159e-01
7.266031722050898811e-02 1.555996229257708766e-02 4.778705015648398446e-01
6.190170492962927123e-02 1.048561657494448407e-02 5.242297849033825674e-01
3.597924611204593448e-02 5.252735283133147526e-02 4.647255175216936096e-01
7.442268179447490695e-02 1.660707199274212911e-02 5.079919163633772605e-01
2.898601828267418148e-02 1.181798480346497870e-02 4.499715089171489879e-01
3.419047764546963297e-02 3.031180116804308572e-02 4.569339712466722880e-01
2.188208862606022542e-02 3.589868259430244873e-02 4.561936357080993432e-01
6.854731021620003029e-02 3.136132710928648225e-03 4.826526678323127539e-01
7.714476896667389616e-02 5.601674719589787299e-02 4.807850452163832111e-01
8.668312170720133408e-03 2.711731771192985724e-02 4.504322546939652505e-01
6.631298918395034381e-02 5.465446435626021560e-02 4.752320771128326626e-01
6.007860199587504446e-02 -6.934012633608405141e-03 4.699532758220076878e-01
5.463319854027009342e-02 4.944516334566993743e-02 4.681753413295687283e-01
8.596129240587466191e-02 4.678115036056906817e-02 4.804449938162816958e-01
5.461294480051162581e-02 1.425965404668049635e-02 4.608600157196764968e-01
3.929281231353792120e-02 -8.943202646323695007e-04 4.502689205485635449e-01
1.702502548003651320e-02 3.838534814493786002e-02 4.559521826724493021e-01
6.140124886143281252e-02 1.083228526250814422e-02 5.252379413360709348e-01
4.269363112017034861e-02 2.987894974492285791e-02 4.598803554446501685e-01
5.685013786010881254e-02 -2.421967612398183292e-04 4.620703474358904828e-01
6.868135657386149895e-02 2.231688945237466151e-02 5.256749414557149169e-01
-2.141799361345858230e-02 1.281278168900734128e-02 4.463722856901059521e-01
1.762575786940809124e-03 9.626022401986612104e-04 4.416890714656543371e-01
4.050075916566394513e-02 6.859416891728456825e-03 4.522718184286640963e-01
6.556843045698455830e-02 3.223695647765256050e-02 4.689065276897815826e-01
4.113135249028397611e-02 4.221359519007234634e-02 4.628619363004737308e-01
4.384676192443262566e-02 5.564061464029207427e-02 4.719650042331997586e-01
7.051392014542957887e-02 2.611280861368175249e-02 4.720152432829393119e-01
2.333786146342221347e-03 7.461576773996206682e-04 4.416590549491823947e-01
3.785902642271891244e-02 8.848004048460363785e-03 4.516272104058978720e-01
5.050264370080929238e-02 2.772620085394635753e-02 4.622471746030528683e-01
5.923900946202455969e-02 4.808553602779202379e-02 4.691713629131599173e-01
6.245496648679770002e-02 3.405651367497787574e-02 5.249020181816981268e-01
6.483636658387578744e-02 4.227513647822098500e-03 5.086774563342203459e-01
7.374075485350971293e-02 3.814765728525664618e-02 4.735354411536694119e-01
-1.793535143498347154e-02 2.496035394754398187e-02 4.495008992213002652e-01
4.136611127761255502e-02 2.709525938203207959e-02 4.583643279365894330e-01
-2.616278710509538016e-03 4.488521600794988936e-02 4.555819059774643964e-01
3.502345710888788571e-02 4.980345179458078170e-02 4.633037948125481309e-01
8.309730730877383509e-02 5.698315560844235961e-02 4.922875481726123881e-01
6.998917996556790200e-02 8.209294633334647540e-03 4.796941377473721846e-01
3.771456070137495231e-02 2.738611075115148646e-02 4.571524075721502545e-01
4.437369466982384048e-02 4.408732899804023581e-02 4.642184202101008461e-01
-2.319793604965778369e-02 9.793359993242455042e-03 4.451085425410168939e-01
7.637564703413120271e-02 1.564863198327029470e-02 4.948518068759928945e-01
7.454559998484681926e-02 1.529299321498744924e-02 4.834400844675497133e-01
5.537525318438651228e-02 4.735889886060915682e-03 4.606892112255570604e-01
5.373076911142733725e-02 3.958424232386491964e-02 4.659008865680512312e-01
9.017494324911486114e-02 3.849303695454573543e-02 4.901603724858848432e-01
7.091338869690311242e-02 1.391361548128961130e-02 5.116512255569232170e-01
7.415494094013713733e-02 4.326115887001344418e-02 4.757496647496773368e-01
1.943685374203906607e-02 1.377150728620557887e-02 4.482950423928868666e-01
2.540062571391848989e-02 6.960213030123542366e-03 4.472907375316746426e-01
7.668706765121902080e-02 4.113748457533157599e-02 5.129301392748744082e-01
7.260651360174642799e-02 1.212454884079251435e-02 5.045498521782872947e-01
8.580640666715153020e-02 5.472031006523126601e-02 4.889749988446846496e-01
5.853201737600086108e-02 3.171615298067351901e-02 4.662133542013431331e-01
9.372807941895137940e-02 4.772366511897732644e-02 4.887281536533894521e-01
-1.143504522470360427e-03 6.161411233065051951e-03 4.431960223225380746e-01
6.580569848564270241e-02 4.469744603630363550e-02 4.710195983924407859e-01
2.105258882651432888e-03 4.636742876533338914e-02 4.568985253487606313e-01
7.621958651948985974e-02 1.789862133035513211e-02 5.045795990450921975e-01
9.422776598313817309e-02 4.151610679607061621e-02 4.879766942741819991e-01
-2.749707265880274587e-02 6.295704074739385744e-04 4.407886912399364698e-01
6.892138211207470000e-02 5.767622143826196118e-02 4.832745194452764403e-01
3.981580072448039076e-02 2.440746794601232963e-02 4.568877613388038772e-01
5.386442949533505609e-02 4.482730488609866504e-02 4.668872202398304250e-01
3.511501025096903233e-02 3.914036973045263018e-02 4.603307629784197386e-01
7.592096222771552161e-02 2.229608081699107139e-02 5.132046812753031650e-01
4.554956097280889182e-02 1.945417325388137941e-02 4.578818620355969982e-01
4.636138591233863321e-02 -2.127153826723339643e-04 4.544304831392124155e-01
6.257106342686273581e-02 -3.512196921976394517e-03 4.722113084243040881e-01
8.597398358580500555e-02 3.522887107450865807e-02 4.823721711460570716e-01
7.735854090086623225e-02 4.316385635718758551e-02 4.769249540036409885e-01
5.288913789400705862e-02 4.379594175181245053e-02 4.663959968218843177e-01
3.018151024190551118e-02 4.061062140228606510e-02 4.595071937947963758e-01
6.189852705040620878e-02 -2.919701310558046967e-03 5.097484995839659527e-01
6.254055515865879211e-02 -3.933468812254338302e-03 5.076408237715279714e-01
5.661798235979197819e-02 1.552837188323520981e-02 4.623155876878611292e-01
3.619723007937417775e-02 3.729948315259015018e-02 4.599793742347136893e-01
4.879689236743868508e-02 6.215379456242724199e-03 4.565435733972981192e-01
-2.803322766186866141e-03 1.936353168507540939e-02 4.467389269898519033e-01
1.607392315408273653e-02 2.044661144948655557e-02 4.497123018308247233e-01
7.117562625858853131e-02 1.371678021006784987e-02 5.107316957438235994e-01
1.216782844759126125e-02 5.810435396631403147e-03 4.443085374748395600e-01
4.874048324663620563e-02 4.956533690767554040e-02 4.667907270804560471e-01
-2.303745248385383193e-02 4.480791606430898147e-03 4.421972684034318757e-01
4.278690787458582639e-02 1.568392926792450473e-02 4.557994585303651314e-01
5.853586383838894902e-02 5.485369948929217504e-02 4.726385174394641675e-01
7.536887227209336515e-02 1.793015561537862623e-02 5.076106422126965834e-01
3.682164198329904159e-02 4.070182466841113650e-02 4.612461357082544566e-01
6.559670903210992887e-02 3.993770928000565067e-03 4.733308200932648258e-01
6.302227637269605665e-02 -7.081176104580715405e-04 5.080086578006888232e-01
-1.178785470108755992e-02 3.077388891656450843e-03 4.415437046231945883e-01
5.570916544213963366e-03 2.813413178631856901e-02 4.503779071481465723e-01
6.548783416071249364e-02 -1.713312919857133427e-03 4.777269099999404967e-01
7.975476104293818813e-02 4.646834963259643958e-02 5.081848963986318468e-01
8.133312041986484608e-02 3.332260260154799175e-02 4.783436654441002300e-01
9.218432746223989560e-02 3.932238174377829937e-02 4.897106458024896858e-01
7.662375748565940226e-02 2.423814577341280863e-02 5.140304083156180814e-01
4.103645294359394013e-02 3.738878139936065159e-02 4.615294550322683320e-01
-1.769380231732954958e-02 3.221369793397975412e-02 4.523275902112607882e-01
-2.487202077339902007e-02 -7.200943134072672683e-04 4.401926758874208367e-01
3.260953268390202886e-02 2.666469688385590328e-02 4.552503557900040021e-01
-5.615834100174386251e-03 5.622115986347347993e-03 4.427080601920020952e-01
6.177013460725061522e-02 -7.259845160955636853e-04 4.693220861969706337e-01
4.380613468470620497e-02 -1.549968128478210801e-03 4.525870782165081208e-01
7.609987649824821732e-02 3.094303736553627449e-02 4.741319341315690106e-01
2.063233170723114893e-02 1.363501210702494464e-02 4.485045185470752371e-01
6.906444629176188010e-02 4.236706698203498295e-03 4.828696263136111333e-01
6.990931430966919324e-02 1.585791202403338124e-02 5.169396147515824547e-01
8.544865332392255486e-02 4.776669084958175271e-02 4.807377010063919598e-01
9.309502021322356435e-02 4.378201617349431612e-02 4.924953358416666593e-01
-1.130682249219196189e-02 3.461783396793639833e-02 4.519776633366571206e-01
4.048174529984652908e-02 2.459975539131984898e-02 4.571892578931380235e-01
4.013098675960406758e-02 5.190223907714310719e-02 4.652787868599876919e-01
1.923282205124804758e-02 1.107102251870998970e-02 4.474454035405522334e-01
-1.773314393561149782e-02 1.395784301973882272e-02 4.459489856442339084e-01
4.536465241676944371e-02 1.718822482464308493e-02 4.572885825814373417e-01
1.900732089402837333e-02 1.485988044454071566e-02 4.485527577045891334e-01
4.972833040213267553e-02 1.588207190039882255e-02 4.589625550882968641e-01
3.321590585480659746e-03 2.133840052628513048e-02 4.479534623195606802e-01
4.835856189846960557e-02 -4.527742241592285638e-03 5.281158322291995555e-01
4.427784404727796996e-02 5.418414707047842366e-02 4.681269648238020609e-01
-3.587644989865557132e-02 3.329824119696058946e-03 4.442951135087049308e-01
7.138028863529868873e-02 1.256777455909415149e-02 4.776426881467953911e-01
6.624237196270986450e-02 -4.809589366108896202e-04 4.983534469154062840e-01
2.296904598685924059e-02 2.890250757284654887e-02 4.536324528957432212e-01
2.322668452380161064e-02 8.599757708224353703e-03 4.474312090349677473e-01
1.757525446683874670e-02 4.288927090364175188e-02 4.573678829343752472e-01
-5.256485430008211307e-03 9.695255971907960207e-03 4.436755175577002386e-01
6.102156233272119923e-02 6.338619942174075067e-03 5.211264200455453244e-01
-1.728625520793534986e-02 1.752793262106795355e-04 4.407204461713737365e-01
6.635853381358976233e-02 2.816787603929429319e-03 4.757973223982466804e-01
-7.851981836530621747e-03 4.299174115363668669e-02 4.541195713532704126e-01
6.059265049528138325e-02 4.725904281916726464e-03 4.658142004322036733e-01
3.342312328356968065e-02 4.974606989224442805e-02 4.630117698027374495e-01
4.530481953541530549e-02 2.072533597559979984e-02 4.580698828684574009e-01
8.459067950403725833e-02 4.201393123030397470e-02 4.788516322151262772e-01
5.824180520818030005e-02 2.673982373309993082e-02 4.654481753354292040e-01
3.485179941242657481e-02 3.858538090120160191e-02 4.601455233710354809e-01
-5.792177486180643403e-03 2.939273350553910091e-02 4.502447381901541479e-01
6.388496644917243672e-02 3.443246587019550137e-02 5.235632952814234242e-01
8.423969952489125668e-02 3.595457549319507756e-02 4.805087545293446616e-01
7.921464584923723629e-03 3.539479245462925916e-02 4.531423476799025241e-01
-1.607110115935316691e-02 9.313431291807937676e-03 4.436713695902524957e-01
7.899863281739449850e-02 3.884094630810388388e-02 4.761576825931759793e-01
1.764385790941808835e-02 2.950483918680654044e-02 4.527778257908298132e-01
7.744725002922966950e-02 2.301046758973787631e-02 5.093859166076551981e-01
7.652675480475450154e-02 3.915310157301807314e-02 4.751432170210909134e-01
1.964425658084640799e-02 5.269452148114404932e-02 4.627129736090186407e-01
4.619509713888052954e-02 4.944352317268391195e-02 4.661808915066841252e-01
3.856858259841244169e-02 5.701277103492812665e-02 4.729615846640043975e-01
6.950792252043959396e-02 7.106601428581065319e-03 5.000813809896331730e-01
-2.408010567607350022e-02 4.249625648705479888e-04 4.405370593854431305e-01
7.667451724500440324e-02 5.793561468389883673e-02 4.942863972727286059e-01
7.433704655532864802e-02 5.695925230283427343e-02 4.814043216467026598e-01
2.675035285040572655e-02 5.238245710013340883e-02 4.629497565756124922e-01
7.101252686320236318e-02 4.612290682809372377e-02 4.737579289743252819e-01
1.306474200627210334e-02 3.122517777572327013e-02 4.525349981976085623e-01
1.678733938795891334e-02 1.015753528690975342e-02 4.466711646436076766e-01
2.371681596588681024e-02 1.441979065300554898e-02 4.494749618655389800e-01
5.436057945876946601e-02 4.509776727851665112e-02 4.670920710859169378e-01
2.272595529727140101e-02 3.347561976778874737e-02 4.554075291190675112e-01
8.509490850141583629e-02 3.341526557549216736e-02 4.905142867758454650e-01
4.423615237580866277e-02 3.460036667999687177e-02 4.616896839080136816e-01
7.062745984750461170e-02 1.288309193865161059e-02 5.104620253356138004e-01
8.280883575817343800e-02 2.889261748854793019e-02 4.834059496630545572e-01
7.981290189917926436e-02 5.613868653184897473e-02 4.817972546898636188e-01
4.522617877574911655e-02 2.595015210986525295e-02 4.595002271848390163e-01
4.017412118069871307e-02 -2.469684280470619154e-03 4.504350451038359182e-01
6.898215414893707487e-02 3.360167694227495644e-03 4.935184617381881411e-01
3.346170361620505462e-02 4.116325302778503503e-02 4.605322271747515073e-01
8.250214545705961133e-02 3.152541289160225996e-02 5.003030519928902686e-01
3.485551521307966166e-02 1.431748543347258207e-02 4.524046804297401914e-01
6.071674177934300448e-02 2.481772353468580591e-02 4.663876345050842476e-01
7.892691072744942304e-02 2.727329054035587674e-02 4.784647897774290670e-01
4.848632028807804521e-03 4.443123724310336919e-02 4.556802794517915700e-01
-4.108753260455159928e-02 1.800690241393265159e-03 4.416979791503635733e-01
6.279829996717786744e-02 5.725268105955982206e-02 4.784103398974510757e-01
4.512348404063937918e-02 1.563696424037055305e-02 4.568362153271404158e-01
3.043508872651425057e-02 3.196215703135824385e-03 4.471309914571547917e-01
9.022828160733671610e-02 3.854710056291189152e-02 4.901937790797597505e-01
8.320624971580489748e-02 3.354526476287563591e-02 5.000535871505918939e-01
2.010474352397840017e-02 5.321072400947561565e-02 4.636546343502753742e-01
-3.590530161400620757e-02 2.663949284606225831e-03 4.423188397438570507e-01
7.840230362868542968e-02 3.383622454819640302e-02 4.751457297833442395e-01
6.724614338802963054e-02 6.631119091034113830e-03 5.060539564761804554e-01
7.904970018254905972e-02 2.072902342752322435e-02 4.880383521688634318e-01
5.322007848276449904e-02 -3.162320930432029747e-03 4.597430318835541985e-01
7.904192486627009684e-02 2.382270768468529309e-02 5.030420822417922544e-01
8.272158219343252183e-02 4.482093157043463838e-02 4.783048178100060555e-01
6.595028208049122376e-02 8.031405466324358609e-04 5.000798811769806562e-01
3.118314540945166941e-02 -1.467236551163748556e-04 4.462029976059194158e-01
4.929368184053157381e-02 -6.245154181373961146e-03 5.280229218172750594e-01
1.314432545464789236e-02 1.351325032174858533e-02 4.471435744932579781e-01
6.785006644354700522e-02 1.516798711884346541e-02 4.709778696673619924e-01
4.191671259850775905e-02 5.143415854333759779e-02 4.656355582389522518e-01
6.822834887184016373e-02 9.150778924279479379e-03 5.085992154632171802e-01
6.849683343275134173e-02 7.467619308346423040e-03 4.761497125091043725e-01
5.228300312374613290e-02 -4.882695743373148024e-03 5.251455827180888658e-01
-6.427151215608686158e-03 3.399757069868153403e-02 4.514737506567725323e-01
8.294255708221162648e-02 5.815610218888412480e-02 4.891976000936075764e-01
-1.312266969691581672e-02 7.800567416424500355e-04 4.405732493296311558e-01
7.368116181482890770e-02 1.827125884119973342e-02 5.130117706429023761e-01
4.064002568960609768e-02 5.606662474863583628e-02 4.693736642444506502e-01
6.481207426739570010e-02 -2.193979990164534547e-03 4.762526670163785836e-01
7.564590279092291147e-02 1.674472512801158594e-02 4.841012511020689191e-01
-4.245261770975662652e-02 -1.182950930185551301e-03 4.409283844065914337e-01
-5.510150442148401342e-03 4.566688934990583565e-02 4.561479891009658227e-01
1.490297195456442673e-02 1.696668847133374694e-02 4.484730976520906465e-01
1.272813525909535608e-02 1.976008014080223116e-03 4.429648906595274882e-01
3.612855139102493646e-02 5.217163097511630376e-02 4.645694946761120270e-01
-1.803446432669044211e-02 3.825363875536674785e-02 4.544274825928893979e-01
4.815366161994170946e-02 2.888945389476014342e-02 4.617112957036696441e-01
7.183715523463643504e-02 8.406792539771756542e-03 4.939753734357965054e-01
8.049882468515001666e-02 4.783770893607992153e-02 4.770364515938090855e-01
5.745201146301584516e-02 1.360708869598602211e-02 4.622894693473540983e-01
-1.215722545650027922e-02 3.634378206075554452e-02 4.525215464571945012e-01
6.954529517635076041e-02 3.459867951268572744e-02 4.706778155126411511e-01
6.484625439360024168e-02 -1.794913476052906708e-03 4.759891792239465125e-01
7.240111078498812081e-02 1.507238215109984666e-02 5.103475616284189886e-01
1.431203329109961148e-02 4.030622473627552133e-02 4.559432078886114237e-01
1.658335932561293136e-02 3.774895037402786757e-02 4.556660581215637995e-01
5.962608628596488547e-03 4.892273240266802742e-02 4.591669148431545278e-01
5.187477730348407506e-02 1.347404730090544581e-02 4.592905005829608367e-01
-9.531641434898950604e-03 4.229137049607097770e-02 4.540040782972605271e-01
3.414865277123173976e-02 2.199715587398754987e-02 4.543691215412959949e-01
6.455324134249669499e-02 5.716923664809765021e-02 4.785013712851126089e-01
7.975018405922999765e-02 2.331203528272677433e-02 4.834950828989109106e-01
5.807659159240435159e-02 -1.661018412001241066e-03 4.644511992795156141e-01
5.651714334741604617e-02 2.575492760209541210e-02 4.644553963618260894e-01
6.549524369181790318e-02 5.599568383268546667e-02 4.756904058787973510e-01
6.426771220553417936e-03 2.861136336428437774e-02 4.506532440868986078e-01
6.099626518218796006e-02 1.456845241432717236e-02 4.647531900782750913e-01
7.899309983332213070e-02 2.811471734096610345e-02 5.096760054122733141e-01
1.623210522281744173e-02 1.328312479879856234e-02 4.475866510608745297e-01
8.034920388928409873e-02 4.683479218386230741e-02 4.769121399801137251e-01
1.259964220404395305e-02 5.227104683105431027e-02 4.643798161749826403e-01
-2.851749344710208245e-02 -1.456387439266401424e-03 4.398703573048271531e-01
-1.187209488142284414e-02 3.022479648935686661e-03 4.415260376146845078e-01
6.752569147312922210e-03 1.576021430173459373e-02 4.468342293454548586e-01
7.742498757832666501e-02 1.694034693522318558e-02 4.902605842218568100e-01
8.951891081272339568e-02 4.519521498708156670e-02 4.950027876604092270e-01
6.387072765532213203e-02 2.273727765115786392e-02 4.681186252555645799e-01
3.515554763473453109e-02 1.828841899612031890e-02 4.537459064576464529e-01
5.961368311580298590e-02 5.520171656948731631e-02 4.731942932851179728e-01
7.182167680958687073e-02 9.185415298277795418e-03 4.852687898450395720e-01
-1.379694723225732660e-02 1.450847550869555601e-02 4.454056095854280195e-01
5.949301524969222155e-02 3.165332468178638087e-02 4.664846783895110760e-01
2.553160066510680795e-02 2.041437056175048753e-02 4.516391238142751230e-01
6.842613211204134904e-02 1.576770599256864525e-02 4.716473688525488206e-01
7.014976182398463544e-02 1.043435372299807498e-02 4.769377673363515147e-01
5.699844060827090331e-02 2.386317752117883551e-02 4.644163732367977415e-01
1.344205384047009177e-02 3.370499510322620684e-02 4.535065621400392044e-01
-3.956781146449466630e-03 3.970970959979663178e-02 4.530848409446210923e-01
-1.064808613907450470e-02 4.300151783229190505e-02 4.549257333649018298e-01
2.759672058376174547e-02 3.379803028944097093e-02 4.565949764965868130e-01
1.537672663647208886e-02 3.962179042416779512e-02 4.559684748246624064e-01
-1.989821762537477903e-02 1.080009940454874917e-02 4.450247702894871149e-01
7.290225192106092322e-02 2.134248360378107265e-02 5.183723778559691242e-01
8.037994602001583000e-02 3.458631139782174929e-02 5.085651099206445203e-01
6.920359757659916289e-02 6.454226298463500849e-03 4.794902820484026051e-01
8.495441123240560222e-02 5.568169101751231642e-02 4.883419204602929553e-01
5.580692608971205004e-02 -5.954999403901324595e-03 4.634896046475356912e-01
7.450681670524508804e-02 2.351318435766956358e-02 4.759008519254754321e-01
5.022613798436013910e-02 1.184418342120454985e-02 4.581498663105756375e-01
6.950401249441599816e-02 3.294653699678845062e-03 4.895032137699151797e-01
3.156595387533248781e-02 5.335735272310332400e-02 4.643332992024205574e-01
9.228281331971111001e-02 4.278223849336602186e-02 4.933949552458338217e-01
7.213316853048844235e-02 9.947269615514845592e-03 4.997290276297026157e-01
7.458050252695483384e-02 4.782033664640339410e-02 5.102816187702363671e-01
2.941904423363505411e-02 1.693795371665983082e-02 4.515427280870780158e-01
4.123522639437612880e-02 -1.230687308581639682e-04 4.514111155475349912e-01
8.388266375364283878e-02 3.368336555966505025e-02 4.971831845351616375e-01
8.854231035654225312e-02 3.760592655204474111e-02 4.903767074825440275e-01
-1.969611134620593770e-02 2.862844733329803631e-02 4.516484301623213127e-01
5.122492177749021075e-02 1.825481114695698404e-02 4.602065957764280291e-01
7.904889867044140317e-02 4.106306334499570249e-02 4.768924676744811797e-01
8.798408354584338897e-02 4.354848970197224001e-02 4.812730873501996909e-01
6.747227150119443351e-02 1.758698381941943556e-02 5.229529537532466854e-01
7.731341524989851499e-02 2.858931814610404798e-02 5.139849939910995369e-01
7.468740659213346511e-02 2.794783980758071273e-02 5.192233574058164880e-01
6.014311615625033552e-02 -6.334616894255843365e-03 4.697170181548794843e-01
6.507448448966583754e-02 5.732483423803052397e-02 4.793616971164671448e-01
3.396152882001660100e-02 8.608971350480273260e-03 4.501243108237582558e-01
7.065196944720253391e-02 8.530343400670671247e-03 4.816551769070399613e-01
7.881711603190626192e-02 2.482360476166959457e-02 5.073095744771688453e-01
6.520117306352593567e-02 7.025227343064165825e-04 4.747480059644209049e-01
-1.216294015335901355e-02 3.159400693773679186e-02 4.511388969675417804e-01
8.190024932085220033e-02 2.849127454911003568e-02 4.973429911949607818e-01
5.888133517677818923e-02 -4.100301924869766482e-03 4.668007340442824615e-01
-1.664198653983771023e-02 6.533465840926579692e-03 4.425716468857218144e-01
1.336494112182872764e-02 4.051290454879367606e-03 4.437845682411468151e-01
8.474598298286134535e-02 3.395897917951784528e-02 4.816306484207683036e-01
4.654822821044008602e-02 -1.433025101780842098e-03 4.545334047126059485e-01
6.742410530492096155e-02 1.009280105022188762e-02 5.123969793974988418e-01
1.953741060236899307e-02 1.497229491406478624e-02 4.486826499725655171e-01
6.130053477992442046e-02 4.355343952402166048e-03 4.668001414693329076e-01
7.995682233063043653e-02 2.833455365040200846e-02 5.051798022871835103e-01
7.707601389433239858e-02 4.685677219521707654e-02 4.759483933437586023e-01
7.953576804575056280e-02 4.151158427082327768e-02 4.771236945826758391e-01
9.129092271145682405e-03 5.688763928349712534e-03 4.439900610562605987e-01
8.609407918673085691e-02 5.460109577801924852e-02 4.912102002510778664e-01
8.727699221837142973e-02 3.802468730658999096e-02 4.829746537072391876e-01
8.155959701457583810e-02 2.786985224214055118e-02 4.975478538233629178e-01
3.976188623956142254e-02 5.644045404300458701e-02 4.706856157110899108e-01
8.300721739249479481e-02 5.546300741493581654e-02 4.844447197363100366e-01
5.321751061695437213e-02 5.173162628608611591e-02 4.687134299809123106e-01
5.433486520907784834e-02 -8.170780244528053071e-03 5.243349322779186084e-01
3.228692172257870835e-02 1.371055783569567581e-02 4.514748179515786219e-01
6.650937140430279726e-02 -3.773346627819792153e-03 4.942910607561376568e-01
4.764957798464856953e-02 5.091044031703407385e-02 4.669000581542977479e-01
-3.117681055095912826e-03 1.154588888376024015e-03 4.413270712799179929e-01
-2.441740681351441816e-02 4.885475817716809430e-04 4.405398162246274008e-01
7.387258082487592470e-02 5.743279863079808062e-02 4.818816509937755010e-01
-2.491859186425398470e-02 1.304641100696919166e-02 4.475480390578022716e-01
-3.325505259297861088e-02 5.344465773120406736e-04 4.410665131356443780e-01
7.619553756456608207e-02 3.348539791694531143e-02 5.168124207912334622e-01
6.566093938423898935e-02 5.725370234012890774e-02 4.814591591213919219e-01
8.091060936313189400e-02 5.697144059499091584e-02 4.847168216100122273e-01
2.973976477887945585e-02 3.622953430549774589e-02 4.581250549942507133e-01
6.929991532391013842e-02 2.026286290607270946e-02 4.713296935872249294e-01
6.751510586809067460e-02 2.568815308984841173e-02 4.702795690282946528e-01
3.663172450103634875e-02 5.674644058065190372e-02 4.697648985988198689e-01
8.412914078073358004e-02 4.482687217288264248e-02 5.014672051771260630e-01
8.798602251038457889e-02 4.176041556827467249e-02 4.955987970805148524e-01
1.886687166667537149e-02 4.380721220364185847e-02 4.579316449136189848e-01
1.344398650671055004e-02 9.768253272217845666e-04 4.426548354115565354e-01
3.260689327169340179e-02 4.868710514884967006e-02 4.625330892343187950e-01
-3.126495185039301905e-02 5.586682115770889336e-03 4.465948815933347693e-01
6.719455280843450451e-02 -2.011568632844508171e-03 4.900484243910078752e-01
7.229355968447548353e-02 1.448385393278115059e-02 5.095574243675236037e-01
4.922195893163767988e-02 1.253080459649898865e-02 4.577769808716657396e-01
7.211062930047820729e-02 1.113122374065979650e-02 4.822661214013699849e-01
6.581560365757239961e-02 3.242152442189137618e-02 5.278047806368529882e-01
7.437769431166840750e-02 2.358678713632704482e-02 5.178602190761573132e-01
6.877391796247994682e-02 3.931845588294979876e-02 4.723189974079503584e-01
4.996332492888076737e-02 5.452390755613919365e-02 4.701504502301652733e-01
9.164076283897278075e-02 4.970289602675150714e-02 4.878462953330286456e-01
4.613311032778333320e-02 1.720387594180720903e-02 4.576020830646904125e-01
6.945596730819827980e-02 1.834718710793185187e-02 4.719328938457602596e-01
7.233935942869014479e-02 2.094672890560135212e-02 5.191180657687347599e-01
4.827187069014636511e-02 -9.101383636867540691e-03 5.302105794963832830e-01
5.141326828188847592e-02 5.335869276650079263e-02 4.694133449474681141e-01
1.187213082363131403e-02 -1.069831838844426900e-03 4.417253357085023091e-01
-1.053744326474998980e-02 3.867386477040362508e-02 4.530499339116413893e-01
2.005143135814357620e-03 2.114324834753233268e-02 4.477067271918631630e-01
7.500981495272453226e-02 3.089572079929447240e-02 5.192789241195121530e-01
5.477525525643017063e-02 1.778489351572760252e-02 4.617313625666751853e-01
7.137525016245874210e-02 4.219956659944942845e-02 4.744738361327263121e-01
3.158930989628554870e-02 5.723171832419951532e-02 4.699428497901080304e-01
2.077808925183799796e-02 3.196616110084641443e-02 4.543646100658234044e-01
9.143012914838194449e-02 3.728976038808058668e-02 4.864784440144983013e-01
7.747934796384138567e-02 2.265398366243222272e-02 5.086744281784421062e-01
4.738162643036485794e-02 4.129087150589955124e-02 4.642526288838041970e-01
7.294521358086029916e-02 3.016536421866748349e-02 5.230074127431890707e-01
1.690994932493568303e-02 4.878035758975723946e-02 4.598735607086319455e-01
4.495981189566671671e-02 1.259970623948013756e-02 4.558675504212648666e-01
4.863698665006251781e-02 2.643539264043913775e-03 4.560144438315330562e-01
3.058926475926359093e-02 4.392622802258284304e-02 4.605957430095494742e-01
7.775994458954213484e-02 5.260928473754008378e-02 5.051608691329787515e-01
-1.007318101434056049e-02 8.799560440658420885e-03 4.433181453128248184e-01
8.001096044373735838e-02 5.274283299766763244e-02 5.032249300993598684e-01
2.424838951295451087e-02 1.445354709008798283e-02 4.496161785671118349e-01
-3.679669232619728336e-02 -2.702769232314394983e-04 4.405681177521172387e-01
7.910411008911522046e-02 5.790393338037613108e-02 4.842165823430740201e-01
7.775176464941033205e-02 3.907480635456145324e-02 4.756105966288703968e-01
7.174565702651994337e-02 5.807595743161851620e-02 4.822671914740304100e-01
8.698899856234472427e-02 4.081723274576747051e-02 4.809231949370580961e-01
6.204423898280216759e-02 9.294839480171322027e-03 5.227940418877238260e-01
6.502265078731342407e-02 -4.396060630879829526e-03 4.998123281747972046e-01
1.311927968470298980e-02 5.231706818424643191e-03 4.441924539018325957e-01
3.373317008501256625e-02 5.692090068318646223e-02 4.691716391083129989e-01
2.641402446542266691e-02 9.261482951342655395e-03 4.483721587242137652e-01
1.494600379581454037e-02 2.953668021168708718e-02 4.522187813422224867e-01
7.555284771790590770e-02 5.483350713965609580e-02 5.010510161228264314e-01
6.431253624185644113e-02 1.494449176511300666e-02 5.253182815273008677e-01
1.476148792902374010e-02 8.007785063346480742e-03 4.455600269899754329e-01
2.389143642936194384e-02 4.992677912392479156e-02 4.614821310700035206e-01
5.159212289975716875e-04 -1.726199694757493165e-03 4.406107159272324436e-01
2.429259582126205505e-02 3.336517846132051879e-02 4.557224632950258036e-01
6.737879804799049022e-02 -1.215159127865152438e-03 4.851784096150287828e-01
