6.799495049028429772e-02 1.583480973742497182e-03 4.846240505019334122e-01
6.256292594127151052e-02 1.209452784696226670e-02 4.662379902130016074e-01
-3.153799154285303469e-02 5.576317309963199111e-03 4.471108469117840434e-01
7.293546946294329758e-02 5.315974747008837126e-02 4.771975795056545566e-01
7.116393031024879912e-02 1.215179272968276020e-02 5.071275353750606119e-01
6.595223183327972305e-02 -2.551235764755232886e-03 4.810204289283162016e-01
4.308546393141710062e-02 1.851904756545074554e-02 4.568833484815221779e-01
6.670363809564848478e-02 1.276378156775848094e-02 4.707411375588923530e-01
6.701274126321375701e-02 4.158436583461460473e-02 4.726170790185090231e-01
6.988094600231925524e-02 2.117266182710284689e-02 4.720969034314900226e-01
-3.551351739928734069e-03 -3.910762831871531647e-04 4.407678776888079852e-01
5.075013759672528102e-02 1.638958715445862357e-02 4.597567731645574862e-01
6.156376042588419112e-02 1.645090493830710099e-02 4.658766976571955265e-01
2.464260745606252842e-02 1.526294700769037505e-02 4.500617835066254568e-01
8.251550106195366940e-02 3.546691521305624789e-02 5.027077038721611268e-01
7.882074880391726213e-02 4.153309089853665648e-02 5.101273301221805889e-01
6.558734584783772192e-02 -2.420958142617907465e-03 4.792568296483631363e-01
4.519129223615937774e-02 -4.317558684565493687e-03 4.537176322322862276e-01
-1.520451794983832157e-02 2.583095297264603393e-02 4.492071480465684719e-01
4.912379621777859112e-02 4.763190170571516419e-02 4.666895062471558275e-01
5.326894571051796895e-02 3.559215646639966174e-02 4.656963400670737774e-01
-1.384866714877043027e-02 3.738001811032597328e-03 4.418283799873503614e-01
1.594322438544856432e-02 2.552167919757722045e-02 4.513044566697927418e-01
2.808898471048380460e-02 8.245128939253641015e-03 4.485252819462469120e-01
2.054290765171125008e-02 7.994006111656584701e-03 4.467499917007111132e-01
9.055275852207915477e-02 4.766800106041658991e-02 4.852333617289868450e-01
7.963747124858070250e-03 1.452645279545853457e-02 4.467504447810347612e-01
7.920586512040520000e-02 2.625009128635515457e-02 5.044420632203869825e-01
1.171701381468313527e-02 -1.436168858094048761e-03 4.416296812228031055e-01
9.347171932861711441e-02 4.439286119166077627e-02 4.888014601674099957e-01
1.030500664263879311e-02 6.210262610861778942e-03 4.443544105222294593e-01
6.947835632204298062e-02 1.795023128087810949e-02 5.202963940712940216e-01
6.551048717921585662e-02 5.066989585987179828e-03 5.077018124876492289e-01
-1.326819145178765626e-02 2.505268482985226197e-02 4.490149889016699647e-01
5.866926231448243295e-02 2.640009636495972700e-02 4.659112285477082227e-01
4.852413795798917080e-03 2.892453974087995719e-02 4.507159116382541408e-01
6.731876495966751528e-02 3.661881314213078810e-03 4.996426466148792822e-01
4.961423263853804305e-02 -6.861967118995422089e-03 5.280198095366609445e-01
4.986837923356945285e-02 1.529888049326654648e-02 4.590892779988943184e-01
7.796270497817450740e-02 5.179786202587591953e-02 5.063824137789914026e-01
8.223194327775551482e-02 2.827173800874543258e-02 4.919058031685977772e-01
3.812180417570731894e-02 5.533771349540108492e-02 4.677006347025313149e-01
5.597172471642812563e-02 3.076353739265540697e-03 4.613320549137189253e-01
2.041933526061687557e-02 -5.629185938973535301e-04 4.435723199878657819e-01
8.301078532573999413e-02 5.453701997777343768e-02 4.830334308503841934e-01
-9.327235792628722766e-03 1.940100715827929034e-02 4.467728776306066352e-01
6.745347483427201196e-02 1.178476016024317119e-02 5.148696529779704933e-01
6.719076797320919225e-02 1.931633550703654514e-02 5.251895567645071816e-01
-1.310971864450352631e-02 4.114022492326739611e-02 4.548844276196007952e-01
7.184855099535977785e-02 2.568885524438423162e-02 4.733838403502458325e-01
5.615670198736084917e-02 9.125148155960308496e-03 4.613820706766357249e-01
7.554230827467696419e-02 2.888437353375351846e-02 4.752956732021116348e-01
5.731900389762707021e-02 4.317700278216379806e-02 4.681127061259413025e-01
1.209577919224930943e-02 -2.406433760201980715e-04 4.421215625178099295e-01
8.164364163771330174e-02 4.683017241997416980e-02 4.781048663374563024e-01
7.236636932364214070e-02 1.575546032047198813e-02 4.780367208189253425e-01
8.185473965875662838e-03 4.260876091008723374e-03 4.434611030387515251e-01
3.297551080671727586e-02 1.294775618167205884e-02 4.515392242437705206e-01
-2.044196857658758110e-02 1.953865065553047481e-02 4.486869966729971626e-01
7.636699893190136701e-02 3.919602367769584039e-02 4.755120000906567501e-01
4.972407292482906166e-02 -1.052669684429268296e-02 5.294817414234115338e-01
4.278217127591038560e-02 3.803901381841720292e-03 4.531717964251602560e-01
6.937513252886867710e-02 4.946882412939659218e-02 4.743189794708817519e-01
2.544443622949810885e-02 1.485390093574526574e-02 4.501542963058245972e-01
7.946523532905580556e-02 2.417900701814235109e-02 4.822619319271815308e-01
2.926683655405658280e-02 5.557150795276459554e-02 4.658484905452114355e-01
7.961682664071131899e-02 2.379176851173078755e-02 4.846023833787913571e-01
-3.923735876381229115e-02 2.769805267887184841e-03 4.428363377302192427e-01
5.379696119717509994e-02 4.518854014783773437e-02 4.673539491136218804e-01
1.157904436533892419e-02 4.235610363897297087e-02 4.562231810942945498e-01
9.560534378138880324e-03 5.079649362405348062e-02 4.629330804960495316e-01
1.147598819986274388e-02 3.192568879069053456e-02 4.527431719869908777e-01
4.433470311889625703e-02 2.350695833823434819e-02 4.585405846655817297e-01
6.099213349376134824e-02 1.504003349559482859e-02 4.651321085261353461e-01
8.911700251605255557e-03 4.628049375037787683e-02 4.574211380941603511e-01
3.242980740224735148e-02 -4.442754464378280768e-03 4.454376502076020650e-01
4.516348363223153528e-02 3.466270274391385769e-02 4.624403132406493255e-01
7.931266131095410232e-02 2.612639481844324790e-02 5.029996884137902802e-01
7.984842461595799412e-02 5.544715008154689484e-02 4.813244691720227619e-01
5.112582127525283626e-02 -1.202967623413903064e-02 5.284751626336907648e-01
5.792322906922423367e-03 4.837133771085287692e-02 4.588747609982170572e-01
3.387325983683174557e-02 5.021623792617799231e-02 4.635493489144004720e-01
8.435712254198242388e-02 3.663366157656554323e-02 4.814474021244946611e-01
7.396703118519479259e-02 1.186454409993454792e-02 4.968319678939313033e-01
4.522483060698793966e-02 3.651049254914310455e-02 4.629187363703589075e-01
8.282138069590326557e-02 3.254192251257486540e-02 4.988024127257907336e-01
8.089857512745676771e-02 2.520567487260389969e-02 4.908319453565436752e-01
7.267196913016416016e-02 1.118212945779695905e-02 5.002658261901304915e-01
5.250368611795149659e-02 1.510046467933441085e-02 4.602234539635087218e-01
8.982159274955067718e-02 4.635386781262455791e-02 4.843396637742952704e-01
7.182945290542656902e-02 2.353782172819785662e-02 5.220337015711469242e-01
2.304802733045458255e-02 3.451498959777667824e-02 4.561141847344339362e-01
7.107345853019282622e-02 9.548416181694118626e-03 5.010135964936448527e-01
9.155841701064490468e-02 3.829751586425932108e-02 4.873608495849657274e-01
1.619108025654521915e-02 9.775592411270220619e-03 4.465261994583651917e-01
6.690965578198673769e-02 7.057946676939314337e-04 4.802447611156484553e-01
1.037993089996412308e-02 1.062049445474931401e-02 4.458778669784774773e-01
7.753558890570788620e-02 2.374250816421282287e-02 4.800809287021070015e-01
7.085108531285190525e-02 4.232318098200596457e-02 4.749214563417766821e-01
5.382061920766052082e-02 4.831528772832181795e-02 4.679982561780657302e-01
-1.468924822664868964e-02 1.174763682970501877e-02 4.444786293762355012e-01
-5.603010506366198386e-03 2.948282153782552303e-02 4.503929606651559947e-01
6.191797013904276614e-02 5.727179274043248114e-02 4.804422422518081492e-01
6.139882756998915614e-02 4.961476899483970027e-02 4.707057358647239731e-01
1.938894793648040550e-03 1.095526711351182264e-03 4.417998451212777344e-01
6.469619126809150744e-02 3.357514241186599496e-02 4.690379624024675342e-01
6.985190974673111119e-02 4.123013749920725196e-02 4.740892229829024029e-01
7.140704550420162722e-02 9.646972887551129999e-03 5.002075869148104870e-01
6.847350860329597111e-02 2.614356849338769079e-02 5.284707414240531476e-01
5.671481366347014968e-02 -8.128734155772978157e-03 5.213786955451837901e-01
5.696971167400061847e-02 -2.603567765691323487e-04 4.625984966115689323e-01
8.713040063880811426e-02 5.262831241315036462e-02 4.849679409512248074e-01
7.299678722443007917e-02 2.658695592612751041e-02 4.741666711644419441e-01
5.998817502431383342e-02 -3.416153099313751565e-03 4.683586942216266258e-01
8.171330892826025871e-02 4.254421747295030615e-02 5.048232264951538761e-01
1.526838201054950446e-04 4.587465895043946196e-02 4.566121941225645964e-01
7.521485314132983491e-02 4.476345019764788047e-02 4.766210700985536453e-01
7.754564169413316610e-02 2.352465117893237298e-02 4.802479544278205337e-01
4.198308417653851161e-03 4.172998422587962525e-02 4.547824972916755804e-01
1.703712714633388858e-02 2.967905298672941089e-02 4.528874782650297859e-01
7.245510764074741816e-02 2.684158689691582694e-02 5.229637562994811084e-01
6.407671515706117593e-02 3.150876791156614551e-03 5.084595266771966271e-01
7.515244566115916736e-02 5.503381309353556211e-02 5.017166066124328916e-01
8.403039185680669099e-02 3.381480024305659471e-02 4.944097246027627235e-01
1.817846656594884064e-04 1.793404549407125181e-02 4.466210658574596426e-01
6.578842442582431838e-02 1.864695239166390016e-03 5.010024778568470394e-01
4.850048189892629952e-02 2.201052607207228812e-02 4.598968729284103052e-01
2.761116807564671302e-02 3.063735605477437007e-02 4.554579851901114362e-01
2.696900180805915717e-02 2.382763307498719091e-02 4.532334570662166495e-01
-2.173059177643663076e-02 1.244977370512706863e-03 4.408815974536168802e-01
-2.501614264397317156e-02 3.534247042463787170e-03 4.419389792229272973e-01
-2.874814662396693327e-03 1.577079808959734250e-02 4.455606378134221446e-01
6.972527986462603855e-02 3.772467301786092131e-02 5.185416643209126430e-01
9.027050645829128028e-02 5.011566118248672597e-02 4.893064973297681086e-01
5.930216575220360886e-02 1.493683624741359503e-02 4.640305619319611830e-01
-4.955544680770342103e-03 4.031049806375359285e-02 4.533808890152802307e-01
7.355792321910824272e-02 1.725694785241551482e-02 4.790884368902603163e-01
6.765460115790321305e-02 5.027827987183734054e-02 4.739986846342224003e-01
6.864890496566550260e-02 5.241248306078204883e-03 4.803640478348208953e-01
6.328355238359761881e-02 1.272751995546748602e-02 4.668852255774199600e-01
-1.084647518801676314e-02 9.947518740990044309e-03 4.436993031766585660e-01
-3.140901038845048815e-02 2.813832057950541986e-03 4.421778084366255746e-01
1.645049467623710751e-02 4.826128981715020749e-02 4.597425821692349701e-01
1.665458754069632993e-02 3.994672011269766176e-02 4.565649107089585490e-01
3.458968147881907873e-02 4.024078721495953637e-02 4.607973856529377077e-01
6.845812660648493975e-02 1.285059635261970659e-02 5.145971897376021564e-01
8.927923316469592308e-02 4.470283243293905751e-02 4.840620380217017793e-01
8.993024129069100703e-02 4.838289504209018765e-02 4.847824357318385458e-01
7.645816111774803026e-02 4.764111857079611489e-02 4.762868890222423102e-01
-1.267374462693705850e-02 2.236254063728319516e-02 4.480640536422491604e-01
6.401495020145794856e-02 5.315874533138211649e-02 4.740083605213347151e-01
-2.782231074479747483e-03 1.592286095140725208e-02 4.456173571108140719e-01
5.065797840461685325e-02 3.410065722343876005e-02 4.644698505249370002e-01
7.390379990846754343e-02 1.735727970430933631e-02 4.796031274247077314e-01
8.785232531261231992e-02 5.109198491436401507e-02 4.898699008187340498e-01
7.834945508877133591e-02 1.909223745963830113e-02 4.923873929283835160e-01
6.861688246859877494e-02 1.352787039999085034e-02 4.733657826800354296e-01
4.507027899741261612e-02 4.336289041707581254e-02 4.645804150024299695e-01
4.366767032858627495e-02 5.080216236170725236e-02 4.663124509747761937e-01
2.706406227088755181e-02 4.279875670259888215e-02 4.597316269940456834e-01
6.885312474109966940e-02 4.006538129581150090e-03 4.951674764352962388e-01
8.481188799063293926e-02 3.717854244945088121e-02 4.966792459474322907e-01
-4.667268282638554339e-02 -1.798237095406870394e-03 4.434830068019872673e-01
2.533807006503373607e-02 1.046987061458455603e-02 4.486787280746284967e-01
4.887097273022041749e-02 4.113283094247154048e-02 4.650268468837112645e-01
-9.644708745200481284e-03 3.092767213186580974e-02 4.507890008374429436e-01
-9.882450770851047145e-03 2.444466638965336544e-02 4.486315627841475084e-01
4.724070497676667590e-02 3.451871504518076034e-02 4.632621079134163211e-01
1.874092508108798211e-02 4.586098564627732327e-02 4.589216539370644665e-01
8.099293981970000222e-02 3.433817840520381193e-02 4.786170200421938081e-01
6.310920367376438023e-02 5.717402520864790783e-02 4.831358150668808582e-01
3.855008580452258526e-02 1.157026050148517171e-02 4.527837578670375063e-01
-1.924930710950142898e-02 2.214539488360061509e-02 4.489853635100182205e-01
6.529812804183152131e-02 3.814284155982040903e-02 4.704252238943221753e-01
-1.217467200049371714e-02 1.969497331154904107e-02 4.470542864740358890e-01
7.117558269711515839e-02 1.136369139616304549e-02 4.799928839265800717e-01
5.517507401765383603e-03 3.981702038121920362e-02 4.543730412058170076e-01
4.790842079549104821e-02 5.079619985637170293e-02 4.673068027786187462e-01
7.777269429466414363e-02 5.043517827169102796e-02 4.776373020690360405e-01
-5.793651493001102104e-03 2.224587766096142519e-02 4.478130101638729266e-01
6.501588874306324373e-02 3.210165984066721406e-03 5.057991492587911031e-01
4.772741890072999121e-02 2.189673732153622418e-02 4.595540276276401381e-01
5.367630626239791591e-02 5.547763585032968944e-03 4.596898194638346369e-01
8.915492318363200941e-02 3.693435389308577510e-02 4.877859102652398193e-01
5.970284230977611351e-02 3.492218202579534109e-02 4.674525141791631144e-01
6.178877902338361650e-02 1.052595928883804516e-02 5.243026019630122603e-01
6.406025712803094241e-02 -4.005113281730181100e-03 5.029026241043341727e-01
8.403148555698301825e-02 3.224060451753137102e-02 4.911096516161816972e-01
8.443613919967407622e-02 3.683921313290332289e-02 4.814633360807759055e-01
7.749091982233921594e-02 1.983979004223923592e-02 5.011860660233358189e-01
-1.786997793005653395e-02 2.990157943136629790e-03 4.415213971747475319e-01
4.736999844072480037e-02 5.218799862156899005e-02 4.675605187582549394e-01
1.849302712752624867e-02 3.251277010550748109e-02 4.542309325373921625e-01
7.524428512870912078e-02 3.308609302847943107e-02 4.738850095760020475e-01
6.526785582583573275e-02 1.235191548066159363e-02 4.685077335946865595e-01
5.602285183727039736e-02 4.975654298698029693e-02 4.690729977382691596e-01
3.348857031251512711e-02 4.695718585722072347e-02 4.624705151370530620e-01
-2.451462943399143612e-02 1.589273107515123268e-02 4.487835129256744215e-01
4.969063123272413757e-02 4.639877227348937483e-02 4.664649333611182169e-01
1.353829802871125976e-02 1.401369149912549267e-02 4.474612656952804413e-01
5.687894904111884947e-02 1.752034069897304841e-02 4.631819362426428111e-01
1.703185271084047339e-02 1.046242121589528555e-02 4.469120625003633607e-01
4.417580531833506519e-02 4.443719131592107491e-02 4.645932750066130712e-01
7.151823384040843778e-02 1.235053787374267714e-02 5.067567420443355175e-01
5.102252994269619590e-02 -1.251964066510960136e-02 5.287172169218420370e-01
1.696122542382712088e-03 3.624980256831143721e-02 4.528080387423695785e-01
-1.985668479518469531e-02 9.965888713791181547e-03 4.446757712106956806e-01
7.172092490231576911e-02 1.632732407563332322e-02 5.134085840256420452e-01
4.674358199399759883e-02 -4.126604811781703352e-03 4.548622086455556546e-01
6.249202430778801748e-02 4.358723642853674224e-02 4.699549221106116281e-01
2.038787472412172119e-02 2.311883036094122823e-02 4.514962677866085627e-01
7.346893007373876683e-02 1.275786904492753025e-02 4.857905954339441501e-01
5.984604850038430929e-02 3.759264606094175204e-02 4.679571978152793910e-01
1.048255055284236237e-02 4.413651468014774537e-02 4.566403586472531639e-01
8.234089874873436188e-02 2.947109733084823588e-02 4.954213771756157958e-01
5.195995348527171487e-02 1.070604030796416979e-02 4.590093406686566735e-01
-1.122167690037934734e-02 4.803437270381307432e-03 4.421914717949009255e-01
7.300310722045788570e-02 1.284816396770000098e-02 5.042139228422025665e-01
6.619049782888936084e-02 3.060465330201016590e-02 4.695663826747943359e-01
5.485420569825592146e-02 8.951114225666970819e-03 4.605193329978399253e-01
8.320620907921201515e-02 3.039870621976678219e-02 4.852237242480645918e-01
8.500019079440924996e-02 3.451618009968678707e-02 4.908423105770636230e-01
7.846733015585999338e-02 2.058372068337841615e-02 4.879474288063020415e-01
4.464969569474128153e-02 3.108437697827083970e-02 4.613093400916611353e-01
9.199945536791859224e-02 4.678718328017590633e-02 4.912895019166657051e-01
7.217672029689178870e-02 9.152489646722928446e-03 4.901088629213212200e-01
6.256493437550643411e-02 5.120660839443403473e-02 4.721332342574799945e-01
2.691736120039938535e-02 2.310496536150466809e-02 4.530165255528667556e-01
5.512049972559548289e-02 9.499829051867190663e-03 4.606819835780859851e-01
5.515944414761467934e-02 2.184939251904485791e-02 4.631100029471340029e-01
5.542752831280760295e-02 -2.649094152927621362e-03 4.617165662322725850e-01
3.387068241966127713e-03 3.247427905592956826e-02 4.517613601190186290e-01
5.135928004878019537e-02 -3.575532007288245717e-03 5.255753650682514211e-01
4.511375948577669298e-03 4.321900622208122572e-02 4.553847261620482811e-01
1.904718815855774988e-02 1.188412911275699146e-02 4.477769503132942308e-01
-1.735055268028101380e-02 1.729776757768117929e-03 4.411786967126097303e-01
4.591941061451341316e-02 4.446001031057513625e-02 4.650492811122047820e-01
4.754552584146996136e-02 4.710196026295444122e-02 4.661594621629305268e-01
7.810162821932548072e-02 2.815798091599763797e-02 5.114442758107443643e-01
6.859972083002767451e-02 7.842235914796736110e-03 5.038721460193414936e-01
2.168946375273156368e-02 8.871332286057138049e-04 4.442827660540775159e-01
-2.806394914522347683e-02 5.085957055103524499e-03 4.429922837511103828e-01
3.654635869129713860e-02 -8.371359704796217140e-04 4.486200023177693841e-01
-3.459088745804292375e-03 4.727090533238233194e-02 4.577728816670043055e-01
4.988652754242885873e-02 6.439359559107765696e-03 4.574295791832278524e-01
5.961676155405989941e-02 -2.046533026804481931e-03 5.154936197859548708e-01
8.713274180792228429e-02 3.460067544446485815e-02 4.848866884370862107e-01
-2.520039888134351092e-02 4.998518281416333350e-04 4.405563922083045036e-01
7.776362364647948500e-02 1.807837129543277827e-02 4.909502426312972179e-01
7.154014799545145575e-02 1.229265105076371087e-02 5.065856661072450917e-01
6.623043261947937632e-02 2.400079955282732186e-02 4.699135355709213036e-01
7.280383849052014800e-02 1.282376256266625804e-02 4.832336516818210859e-01
7.846557226131146978e-02 2.143058937607668704e-02 4.859791098439025792e-01
4.269334839077990051e-02 1.688141475047855167e-02 4.563392776569641374e-01
9.955787970787307109e-03 4.105721939463942427e-02 4.555496285898633646e-01
7.052895859623153907e-02 2.912655501023187626e-02 5.266077137667125596e-01
8.188387132260692425e-02 4.539007128456843537e-02 5.045141893643235731e-01
-6.133119006194140063e-03 1.435697970034025515e-02 4.449984468750495248e-01
-2.114375604492267982e-02 2.219208146831608969e-02 4.496847667439385354e-01
7.492017517308528773e-02 1.333538765062182094e-02 4.908446778919406950e-01
6.547636053832511793e-02 5.791555431577977663e-03 5.091135934784429828e-01
1.142172683587366379e-02 3.463445822929522855e-02 4.537192688284103492e-01
3.472913222278465467e-02 4.703118169959392275e-02 4.628186193407294313e-01
1.359922445195735526e-02 4.959769226754334737e-02 4.603843043418870962e-01
8.132765496740482214e-02 3.009122413325467787e-02 4.802983931374842919e-01
7.063842559070709903e-02 3.621534478313389455e-02 5.199480317377470628e-01
8.318824846178916876e-02 3.566853420070063840e-02 4.805125035163333447e-01
-1.071898913697259120e-02 1.287551630189575497e-02 4.445822136566527361e-01
9.009615860388024700e-02 3.876265319139790555e-02 4.900457106500824556e-01
7.536064760791993944e-02 1.668293550816025983e-02 5.035499696184713159e-01
-1.364206214652094462e-03 3.925688606934781694e-02 4.533104372561476136e-01
-1.107143058872634561e-02 1.630980965609388905e-02 4.457292163237132065e-01
4.271587166221502835e-02 6.780537142089237621e-03 4.537339345909189858e-01
8.755372400530204990e-02 4.726782207516052464e-02 4.827390574114323041e-01
7.592203631059851743e-02 1.928724892356263945e-02 4.818821599122899424e-01
3.490034945946320771e-02 4.476440473196768161e-02 4.622703849836016232e-01
7.676973970545484388e-03 3.612920430302983543e-02 4.535215971411443725e-01
4.524107452691934761e-02 5.543765365041580101e-02 4.723367381334167558e-01
-2.163533305185971409e-02 3.113318959076553927e-02 4.533982646786627879e-01
8.627448944389394525e-02 4.814413100655203642e-02 4.991562616702715505e-01
1.778708617080809046e-02 1.144854149658142140e-02 4.473914556324133374e-01
7.107443272031160886e-02 1.307101962764045666e-02 4.775105403517443947e-01
6.736432613024428973e-02 8.857425727707273280e-03 5.097500760941316988e-01
-6.842418337170676212e-03 -1.597350544223662214e-03 4.399760232859225573e-01
7.664265188965521669e-02 3.040642459040984041e-02 5.155228719996849396e-01
6.029296247651744906e-02 4.501414520670944663e-02 4.693317947602299034e-01
7.863965006443156269e-02 2.227475044598150114e-02 4.837323375001264525e-01
8.633892201322491966e-02 5.036019653595976558e-02 4.982172307642057096e-01
7.128627112394071708e-02 1.382697067321556408e-02 4.774063734312110063e-01
6.866303536016132858e-02 1.586005093037981192e-02 4.725468311148038891e-01
7.954042709258507537e-02 2.745433080412187574e-02 4.798309306799937168e-01
-4.116417726964952464e-03 3.378560538034929700e-02 4.516050904260738852e-01
2.960454832448574866e-02 2.438578974638673166e-02 4.540387903175716611e-01
6.888035881050397213e-02 1.050777332940546101e-02 5.091537022404437618e-01
7.009546329443137880e-02 8.566319576566398114e-03 4.807200835094112557e-01
-1.738757008344319482e-02 3.673640052388769256e-02 4.537272729062857834e-01
-1.039210612303349476e-02 3.152391665936370158e-02 4.510473506708712055e-01
5.326586043284797789e-02 1.750939324518985263e-02 4.611653534478935001e-01
6.211165169870305758e-02 2.653919870536960296e-02 4.675828902776776319e-01
4.105675358836101407e-02 2.810720536757663895e-02 4.588472986478573379e-01
4.894153822899727918e-02 -1.270561168278294337e-02 5.307857985779553811e-01
8.252415377104039759e-04 3.470913652470257460e-02 4.522332301731031290e-01
4.784473821790807303e-03 4.884455054191107204e-02 4.592531603802625373e-01
2.884347534710899122e-02 2.662751683061538241e-02 4.545203977569139964e-01
1.373583354387098235e-02 1.775210165811072494e-02 4.486355030202009431e-01
6.614070876177978453e-02 6.354205151544726343e-03 4.732553351749068105e-01
-5.298009190800638535e-03 4.690911592047031925e-02 4.578258561461991394e-01
6.557626868016025456e-02 1.782210140147712576e-02 4.692215335940672083e-01
1.256201451872746011e-02 2.599206396991903673e-02 4.508451351253447981e-01
7.597966231444272522e-02 1.553057605169462854e-02 4.894117264925144650e-01
5.962764362581322169e-02 -3.053994749817279860e-03 5.147863598506268179e-01
8.208431195802519398e-02 4.747761470983403315e-02 5.040560039987616037e-01
8.664639530016528257e-02 3.997911246449213640e-02 4.957001393065848527e-01
1.202425511253001414e-02 5.226988158971420523e-02 4.645760923535640075e-01
8.155689115706364622e-02 2.669572362313898245e-02 4.864268923481734341e-01
8.603437933311250396e-02 3.386354380613113002e-02 4.847595263435301449e-01
7.784556912869082523e-02 2.642495843012939577e-02 4.786301891417690246e-01
6.538149900576739615e-02 5.753169202720283260e-02 4.842005395768202436e-01
3.651374952497367377e-02 2.254185421796704725e-02 4.554966455855060659e-01
7.108144913728506320e-02 3.627604050122263529e-02 5.198483582703944395e-01
8.790959452871049962e-02 4.950143430955367130e-02 4.835253424221817031e-01
9.074986019049992303e-02 4.956715405594294688e-02 4.898015752194781469e-01
8.796418362581485961e-02 4.985007417535813196e-02 4.935640472810451929e-01
3.110447270272456710e-02 8.796197816539549907e-03 4.494744912994856345e-01
3.674694824698796630e-02 4.744557835316497163e-02 4.634618232532044524e-01
7.320059858899827243e-02 1.395085212323451257e-02 4.827170166686163832e-01
1.103941651924003620e-02 -1.167098797873883376e-03 4.416865149432757653e-01
1.619629897596461254e-02 3.566177440122259013e-02 4.549472338018166195e-01
5.379201360462108894e-02 1.605157218666825036e-02 4.610443755631754015e-01
6.377194725058199509e-02 1.210145397623951791e-02 4.672488791275912767e-01
6.291855536997488507e-02 -4.155068657703448604e-03 5.061490238568071565e-01
-8.645688273379335126e-03 9.539852354107123539e-03 4.435549626757791519e-01
1.237652770914768503e-02 3.906916677380806169e-02 4.553714607810854242e-01
2.536413743775392179e-02 4.611808534978545371e-02 4.603770407468160686e-01
1.293723345085677663e-02 3.233215817024649025e-02 4.531092566572711977e-01
2.263332619310501684e-02 3.144420746450845433e-02 4.547584470733953554e-01
3.880537853708322660e-02 1.315089541259409659e-03 4.505896064537858181e-01
3.611824681538024218e-02 2.913180425061427659e-02 4.574334575058345842e-01
8.056356794196399551e-02 2.941006229325629842e-02 5.025449177563812153e-01
7.164174418133033295e-02 5.075210158419827394e-02 4.755987805675910285e-01
-2.272450767260812687e-02 1.831304255894209559e-02 4.489166140765856738e-01
7.971521514679386078e-02 5.328359348194780520e-02 5.032343682626621018e-01
8.924878180908249470e-02 3.876699573421752559e-02 4.851003156327431953e-01
4.619191461965927240e-03 -1.069038659582270331e-03 4.412550537097277847e-01
7.443459089408108187e-02 5.894216895912889054e-02 4.843190365587493051e-01
1.271644283346424001e-02 2.815159245944685862e-02 4.514618009259336318e-01
2.037770815664022989e-02 3.064963355940850467e-02 4.539709202257145026e-01
-1.928343836153037852e-02 5.431364497376698144e-03 4.423666851118863708e-01
7.172198973569531011e-02 2.582775322585111749e-02 5.237747768038309992e-01
2.348594490771536980e-02 3.461777992380814933e-02 4.562591903147015793e-01
6.932703924138093610e-02 2.448747407601831183e-02 4.717060109893783659e-01
3.686189727613348871e-02 5.739871502506150441e-02 4.735949384936162798e-01
7.676699600208036767e-02 5.246693547275087244e-02 5.062914303373866609e-01
-1.869622586177007578e-02 1.022429607794616592e-02 4.445856961899432025e-01
7.956100286998860072e-02 2.411675178027304633e-02 4.829360025088940689e-01
5.578965687973830995e-02 2.009249756140065596e-02 4.630955662441514353e-01
7.924454570837605183e-02 2.322625267626038381e-02 4.842833388308015463e-01
5.224680935181602072e-03 1.721456580977729581e-03 4.422966390537019787e-01
7.021445201571717420e-02 8.625160823362563664e-03 4.810553925979049184e-01
7.597258140219304012e-02 2.745084294396640465e-02 4.763279512455266262e-01
3.203160923530413984e-02 3.996208893591417233e-02 4.600660289091960120e-01
5.742633900515643763e-02 5.015338788295573696e-02 4.696225178967494140e-01
6.702998918784958127e-02 3.448122635464049082e-03 5.001491392773522726e-01
7.367536698646656723e-02 5.448309611433760358e-02 5.039731779972044245e-01
5.115821599065625835e-02 1.221876400019213452e-02 4.589057262494312117e-01
6.475066389386896493e-02 1.516143310499208467e-02 4.683975768043785459e-01
1.264933028195762942e-02 2.788202167761142866e-02 4.513763742858519223e-01
-9.537489899805155422e-03 2.461112904842595317e-02 4.486982813734033404e-01
6.978462046392945595e-02 3.407405117041416298e-02 4.712591974465574207e-01
2.776969576240945203e-02 3.154605391586162710e-02 4.558569768658841115e-01
7.351088635765755386e-02 3.773797125609750641e-02 4.737577395609227637e-01
8.412373966453286223e-02 3.179493123447661024e-02 4.889638815977795927e-01
8.712875912893805475e-02 4.690476506155549785e-02 4.981291989644160423e-01
-1.813062658056706355e-02 4.801125516025173817e-03 4.420115678322222852e-01
5.326696411572477696e-02 4.017639946102861959e-02 4.662521277739230530e-01
8.348001249317005268e-02 5.670959435659421455e-02 4.918390255045323456e-01
3.065009403176839620e-02 9.191473874367670632e-06 4.461376558666272363e-01
-1.135568989671404024e-02 4.439440769834303302e-03 4.420857012366727345e-01
7.677271083502723581e-02 3.954364028779014384e-02 4.758068055990669620e-01
7.660957643848841092e-02 3.304290368998800964e-02 5.158724443469273613e-01
7.870406076026623121e-02 2.908347960318884498e-02 4.782449674892559344e-01
7.033066018991994406e-02 9.908871738321953573e-03 4.794337720226108379e-01
6.244321896919050041e-03 2.019915576009364763e-02 4.481608823193417024e-01
5.831147639206304273e-02 5.466989306453812203e-02 4.728731753680010530e-01
6.881027894284449942e-02 1.074043198677606531e-02 4.750605110009538667e-01
6.304762228725775686e-02 1.643775420530347101e-02 4.670751355200572497e-01
3.397464619769475364e-02 5.521955913645793662e-02 4.665248113111519768e-01
3.955095979938809403e-02 -3.806027450063787041e-03 4.497993787928459275e-01
7.846948564306038820e-02 2.435022534076584574e-02 5.069299728911458303e-01
-5.095694200867700516e-03 7.971569926137192508e-03 4.433830659343266367e-01
8.208916554296337431e-02 2.785642973002051132e-02 4.908326314525834344e-01
4.343040706052898187e-02 2.586510755632123910e-03 4.532324924045362802e-01
1.711918093656912554e-02 6.485505262392049844e-03 4.454747477685540580e-01
7.978116154856748632e-02 6.061313659054536757e-02 4.927087387827461806e-01
7.725104012963189548e-02 3.967254686416767789e-02 4.760631762206326001e-01
4.164262451354476535e-02 1.136193548397064837e-02 4.539903682400843743e-01
8.585692139273225568e-03 1.263978695356812038e-02 4.462520080788087706e-01
3.864898559172695591e-02 3.736279587599567430e-03 4.510035516273471212e-01
4.199190245793663762e-02 1.874611172367721471e-02 4.564940569880558963e-01
9.197815806050424481e-02 4.960671790799588837e-02 4.886208647665664095e-01
8.313329014986176047e-02 3.213338081704755073e-02 4.969164308848231792e-01
2.153099888401147077e-02 3.205826528096700906e-02 4.547546399908950487e-01
6.354795221737238875e-02 1.282260860521578383e-03 5.072479420855632304e-01
5.269173824623899632e-02 5.619184618588082131e-02 4.767296229795555673e-01
6.454790263964176045e-02 -4.840729328601830854e-04 5.033454060390745166e-01
4.644035090821985179e-02 5.284435477836198908e-02 4.677372442509001305e-01
4.788605712380115259e-02 5.195795617922583515e-02 4.676167146585140655e-01
-1.132851480175044515e-02 2.577126749978891213e-02 4.491913909492796231e-01
3.690098940898971225e-02 2.356650058725729205e-02 4.558492589399414374e-01
7.483681767055344602e-02 5.648804224047063172e-02 4.986953001191149482e-01
7.816709488705173015e-02 1.906480029131541604e-02 4.939367339944077395e-01
7.526551013663070056e-02 3.970766512918116886e-02 4.753711333318330068e-01
7.747456704653560289e-02 4.114019133663197186e-02 5.118742297839247168e-01
6.036396748344605157e-02 3.292719318170173742e-02 4.672986465931992517e-01
8.834809695105842742e-02 3.923214754395182302e-02 4.925573851758973665e-01
1.476655728556870197e-02 5.051124153459399246e-02 4.611153020966462512e-01
3.568484183851746566e-02 1.922307834344099287e-03 4.490513902633543331e-01
1.152273706394060793e-02 3.346683759889844401e-02 4.532567405917318215e-01
6.727624060927024641e-02 3.652796854890552614e-02 4.705687948122860287e-01
7.100680014476756785e-02 2.442579792900796687e-02 4.727955935601237947e-01
3.553730586536633235e-02 2.447008220182207358e-02 4.555989104709630144e-01
4.931607699368720926e-02 -8.722108074555822571e-03 5.290667914432278796e-01
-2.237285177339030495e-03 4.735917402716987440e-03 4.427480229248477173e-01
8.494081466634705035e-02 5.405925305761861283e-02 4.966860946537218768e-01
-1.697877157183770233e-02 4.094614631945489580e-02 4.569881703665213402e-01
7.433982349933233869e-02 1.255350999227369813e-02 4.895923553088573632e-01
7.082249587609920627e-02 6.771836466450091921e-03 4.898616778424362272e-01
4.833574137707943169e-02 5.543116165830485470e-02 4.750974033225824900e-01
7.905335017177253509e-02 5.975775372901962618e-02 4.869268075431064102e-01
8.341296644370746471e-02 3.053519047072592030e-02 4.861651258295120459e-01
7.795535767480384071e-03 4.474938883899578362e-02 4.564610699694748308e-01
8.106309557232008189e-02 4.332737482945110685e-02 5.064214906603407007e-01
1.568732824226526032e-02 7.319018106723542381e-03 4.455194722431163878e-01
4.787360117121069319e-02 -5.045121073973262045e-03 5.286406818218242210e-01
8.352416148077707742e-03 4.699169676187711642e-02 4.579023010715270181e-01
8.943393356527035154e-02 4.668345447358385886e-02 4.951427652895001863e-01
6.203933041217399996e-02 4.348682547914910906e-03 4.682709065291963402e-01
6.736273576741402813e-02 5.097787825823545116e-02 4.741496390919160975e-01
6.741955068756097513e-02 4.808200333107972083e-03 4.771723194731387618e-01
4.726896596614968415e-02 2.958767117109882896e-02 4.618727718896644130e-01
7.269254107770323214e-02 1.699811374672571124e-02 5.124603114985122332e-01
-1.139168862690319479e-02 4.028431456671699440e-02 4.536951694206609043e-01
4.948246754004007042e-02 -1.216971747552406981e-02 5.301868084561551786e-01
6.355182054919948642e-02 3.092243465702011057e-02 4.684374424086483191e-01
-2.071780513822903125e-02 4.381248089060269489e-03 4.419947595166766607e-01
5.851588043122334798e-02 6.372531310303660226e-03 4.632743300766548056e-01
7.933282433216719276e-02 2.778380631243445448e-02 5.067502397467430475e-01
7.626472773828613105e-02 5.755075857992159039e-02 4.971528881405465339e-01
8.369658198678531225e-02 4.851601886003017311e-02 5.021135356599283339e-01
2.711756514025293746e-02 4.005559134408483851e-02 4.589173901948030432e-01
6.802275535765471559e-02 1.357144206071529344e-02 4.725577243045525067e-01
-1.438921763298597195e-02 3.026924646570191765e-02 4.509089769721337237e-01
-2.303802391745828071e-02 1.571220911175053025e-02 4.483023084251711032e-01
4.718860218641040410e-02 5.495750872701038459e-02 4.708801331693995285e-01
6.687333587814064950e-02 8.147510664103643774e-03 5.095424291850895182e-01
8.470772229999343206e-02 3.611235448589125013e-02 4.952766975913478475e-01
8.770948043247424331e-02 4.056754469907441346e-02 4.955163798566485367e-01
7.926101630159386457e-02 2.775610619422830619e-02 5.073722572565396716e-01
-4.597585974707501730e-04 3.250883243408924511e-02 4.514994263673077768e-01
6.697078716551106703e-02 7.764340576949000511e-03 5.083862970128237846e-01
6.394648438983542571e-02 2.714234478781233501e-02 4.686685908104052944e-01
6.086098698321538991e-02 2.796765725333177736e-03 4.671343586875945642e-01
7.574577055993927943e-02 2.373600493407511738e-02 4.779505826132167123e-01
5.681813750738349406e-02 3.782227131050394653e-02 4.671211004613423090e-01
5.487708021331000330e-02 3.305690583303542984e-02 4.657075181376703621e-01
5.486809054572650002e-02 -2.599896474411561229e-03 4.609192445237178526e-01
8.418560047609616181e-02 3.722947621330856272e-02 4.989804011941351147e-01
8.317748476684048986e-02 5.635586770079018676e-02 4.868270868061771450e-01
2.368520190479641088e-02 4.156567028758248461e-02 4.585875322401500309e-01
7.307716838954099459e-02 2.661164547982195275e-02 4.742169578791565199e-01
4.330360799116345083e-02 1.246365727895791878e-02 4.551706657997516836e-01
6.838832298752242633e-02 3.710927029832938352e-03 4.962059224507793243e-01
8.968219936144496141e-02 5.077340040367214757e-02 4.887250608741632307e-01
5.131851228672018594e-02 -4.385707365981298192e-03 4.585121027888124368e-01
7.132162389971513639e-02 1.289056415961285784e-02 5.083352499928788237e-01
3.709790324143618506e-02 1.479226342785244265e-02 4.533542861750540776e-01
7.166717800134810024e-02 3.666283106542113368e-02 5.191010644684088682e-01
9.418123035928985948e-03 4.880906084255844102e-02 4.594073868589500509e-01
7.131852113717444819e-02 8.252051809071681010e-03 4.871485204946501280e-01
6.598952489734895288e-02 5.747701336511861804e-03 5.075219780299428107e-01
8.421209085694394969e-02 3.590512155671979344e-02 4.814970655530430022e-01
7.400069559156760568e-02 1.738491147746549018e-02 5.099214436516231741e-01
2.230965441680372082e-03 1.907361113240218717e-02 4.472436705259761336e-01
4.453243106440291782e-02 2.992428917134156915e-02 4.608972963852709936e-01
7.338650641561977883e-02 2.319298175687494953e-02 4.754261783891804427e-01
5.668039147273969125e-02 1.767944946609920076e-02 4.630992492275888828e-01
6.456178740517048986e-02 4.513084348704360371e-02 4.710109469369764268e-01
6.478659574679525301e-02 -1.683124870848666434e-03 5.020155770243861504e-01
-6.393101722008819911e-03 2.602878281086894521e-02 4.492674268443689889e-01
6.868684742830551138e-02 6.057276316458628726e-03 4.793344133656615158e-01
5.815212052974219614e-02 5.718397082345889199e-02 4.773047613210047446e-01
-1.946182520675307850e-02 2.973741266990136828e-02 4.520386090464055262e-01
5.314414326119408505e-02 4.458395078625031205e-02 4.670335887145418696e-01
7.384087272378996036e-02 1.891096783289616251e-02 5.130582172180532252e-01
7.795499730922604564e-02 3.900340323215931160e-02 4.761788251587769083e-01
7.565460235257487343e-02 5.851710955129475755e-02 4.836171440105842545e-01
5.060190607974444921e-02 -9.768567656430296106e-03 5.283764601077090006e-01
8.045915974130717074e-02 5.865368070543289236e-02 4.871761783909729360e-01
6.879090761245615360e-02 3.790228425259743739e-03 4.947624270605928132e-01
-7.863944127659394656e-03 2.144318591373402944e-02 4.474663219635466316e-01
