3.049721428358785624e-02 -2.229808955758144726e-03 4.454115688159416830e-01
9.094030466993810458e-02 4.523777532318939976e-02 4.860300885393740722e-01
7.644163415068473688e-02 1.990312001789601784e-02 4.829287375626853396e-01
6.529024065940851329e-02 7.698914444540576503e-03 4.712157094708743221e-01
6.776457081387074477e-02 1.233407284789663459e-02 5.149941056459435007e-01
7.661006036506780303e-02 2.580447722191540200e-02 5.141119145527126566e-01
6.458884764237664278e-02 -2.839407016194930335e-03 4.770483747528977414e-01
1.704085535038559265e-02 1.324908308574427457e-02 4.478575777201400099e-01
4.780973869732162845e-02 5.133060705053407030e-02 4.675809683426132013e-01
8.192251121441959660e-02 2.797327886496051366e-02 4.913676860229039267e-01
4.431490881248256741e-02 5.601018412708700517e-02 4.755429462362381621e-01
3.261710379392326192e-02 2.739866886416305464e-02 4.557537916861174043e-01
1.122538796484801385e-02 4.710218268061999725e-02 4.583789229110986629e-01
7.253239506445897933e-02 1.110694838765864841e-02 4.858470945569764998e-01
3.076350815227265820e-02 5.624542146393594899e-02 4.671116977121539948e-01
7.687399144309364774e-02 2.041645373849895403e-02 5.052171430020856446e-01
8.011514946397381431e-02 2.525448951875117198e-02 4.956039232209402123e-01
6.868896697927015516e-02 7.733857846721646154e-03 4.774986603896029802e-01
6.246531220087490899e-02 7.356413734033845006e-03 5.184718568716903953e-01
8.607349137159682473e-02 5.405458802979976746e-02 4.923766071701748959e-01
2.347909698153563540e-02 4.058864555420151760e-02 4.583447844791472825e-01
7.287556714160491056e-02 2.791065353032631813e-02 5.223537713131389815e-01
4.328507053257926729e-02 4.429707717418099322e-02 4.644680325726225356e-01
7.284685544805967472e-02 1.513306219916433701e-02 5.085813524476527903e-01
6.632039626936667154e-02 1.341131066031220863e-02 5.197058192903952767e-01
8.111416723262049322e-02 2.728877570398444488e-02 4.834702444682881239e-01
6.811777752765539595e-02 2.522681609752267656e-02 5.282558133971060332e-01
9.358230548221424527e-02 4.364361619129975001e-02 4.892038419157450080e-01
7.542511601940724009e-02 3.813044863736277795e-02 5.156204259452816796e-01
3.991523714017059313e-03 3.119072090281940421e-02 4.514660396695116540e-01
6.669327201989158627e-02 3.489150284316022872e-03 5.010611143288274949e-01
8.101501255269048796e-02 2.713215022922862638e-02 4.833825759378649334e-01
4.420192363596825436e-02 2.156443234524216268e-02 4.581247371371378607e-01
7.919259478266921226e-02 2.537350940074185879e-02 5.010360227748165141e-01
7.030894141027292654e-02 1.956217995992063502e-02 5.207798101846767835e-01
6.663340762935930639e-02 2.315437111785913216e-02 5.287630909275307101e-01
3.848423806800853331e-02 3.352288589268007102e-02 4.597568101818740871e-01
1.858588725164586272e-02 2.005756038202997221e-02 4.503106894013451100e-01
8.273518088480415374e-04 2.391925778516513709e-02 4.486714892759697815e-01
6.473417125631604485e-02 4.874536882675784000e-02 4.721283448512412773e-01
3.637243184674893853e-02 3.507452540124487289e-02 4.596877211725589607e-01
4.539402444573691076e-02 5.564303981335873284e-02 4.743825498418833275e-01
7.345533557709363337e-02 2.297803123137963366e-02 5.184161964473789075e-01
5.025254074087167483e-02 5.181504951566556424e-03 4.575648968975019049e-01
4.738371338819988982e-02 6.008304986698772068e-03 4.559340219628536528e-01
7.635279044162741890e-02 6.238956826294073804e-02 4.899258728423304121e-01
2.790504357302300842e-02 4.945712060167812424e-02 4.623535617704679912e-01
7.824559094910422952e-02 2.642379255197564725e-02 4.793955589946614637e-01
8.044372945476145620e-02 2.445995316798914646e-02 4.909360759150354081e-01
6.775816840525686335e-02 5.082329950936244692e-03 4.781518613051196631e-01
1.762915086334977677e-02 4.942541438698920542e-02 4.607128849085643796e-01
4.600414474938210874e-02 3.640476862835508032e-02 4.633529785827132375e-01
8.222721604014224250e-02 3.685366850106863712e-02 4.794727998680448078e-01
4.417828474259322818e-02 3.194549657209543037e-02 4.615011160198103091e-01
3.752527546390772850e-02 1.829354328021613046e-02 4.547591046651277558e-01
7.927852345988226079e-02 3.427797964713812096e-02 5.101167399527086754e-01
5.751184278740448935e-02 3.493777635063134712e-02 4.669657843689865584e-01
8.848091144196298941e-02 4.681206549407006950e-02 4.834941486473678385e-01
-7.951708249857645031e-03 3.058763000858516143e-02 4.507321616494523453e-01
5.749616496853746789e-02 5.253342925621607568e-02 4.712510921462376712e-01
7.851033935717827150e-02 3.515225099858951263e-02 4.761644378973434732e-01
6.630283138678837174e-02 5.544757192296732168e-02 4.762925471684538725e-01
7.764028702016843864e-02 4.432916001359805958e-02 4.777847904545198254e-01
7.580051767111584127e-02 2.622681963535818464e-02 4.770413112507909115e-01
8.846075054245992886e-02 4.179396521672010256e-02 4.845231227999322599e-01
-2.537661632111265497e-02 3.786738427832279583e-03 4.420916483972188726e-01
6.850743796422771592e-02 1.286961620709200713e-02 5.143406102931745716e-01
7.835212932211894910e-02 2.039173119759480832e-02 4.887393901779257810e-01
2.792590139871008875e-02 5.436965825053449719e-02 4.646114901872931413e-01
5.708921059273915251e-03 3.074277829258109662e-02 4.515091623937206311e-01
1.209550081837329309e-02 -1.648898125323499178e-03 4.415963809202669843e-01
8.284057448953580094e-03 3.282178286204651824e-02 4.525948843498351359e-01
6.740512095115658298e-02 1.332310194676715465e-02 4.719423969491912674e-01
6.039634663932106490e-02 4.942028131254562993e-04 4.674180627412726219e-01
5.384901811812194128e-02 5.275553363309111454e-02 4.701023991025968241e-01
6.455724142953918332e-02 3.880850584770964562e-02 4.704261760037901086e-01
3.847607039877420226e-02 3.729515745287096534e-02 4.611103954037921726e-01
6.302256566676920670e-03 3.681415269219252828e-02 4.535907721370578960e-01
5.250330297714365935e-02 1.499766785814564928e-02 4.602799294441626832e-01
5.608710761697036778e-02 4.251743430809805380e-02 4.677620641875602225e-01
2.804716603048286461e-02 5.743185595609900940e-02 4.685521106118677448e-01
9.251284650071843474e-02 3.958640894993133846e-02 4.885347723207882908e-01
-3.909915950322027586e-03 2.795561689124725566e-02 4.499916265416442629e-01
6.978656173621319847e-02 1.344622983255840121e-02 4.753448250146964371e-01
6.713886522016258851e-02 3.404569696503384479e-02 5.243368291975093465e-01
8.403961131094608850e-02 5.253096856541388665e-02 5.002733491089955686e-01
8.389432796738695297e-02 3.457824580805893971e-02 4.955974818793471570e-01
3.153765661344960086e-02 -3.323003299188958051e-04 4.464264036599589480e-01
6.087447154808912908e-02 -1.336723522528898787e-03 5.126195010763044957e-01
8.697242131704688295e-02 5.147091099523723456e-02 4.941344177146139161e-01
4.370766663131604723e-02 1.794687282999880493e-02 4.570824112829551256e-01
-2.275000300327928784e-02 6.857261705153043507e-03 4.433401212704417560e-01
6.393405843122959564e-02 3.734519994515332619e-02 4.695470308836134365e-01
3.735827471970619429e-02 3.339056779383289819e-02 4.593440233710037734e-01
2.663915900087053881e-02 2.212947343885824161e-02 4.527391306097162671e-01
8.650350534345313536e-02 5.336838757731518501e-02 4.912693384071068481e-01
4.629852387066988456e-02 3.800534722240462432e-02 4.637448578410187650e-01
8.232095904478684695e-03 2.315599880528522794e-02 4.493810331952131087e-01
1.398433758742933727e-02 2.813440047064698010e-02 4.517460474802962311e-01
7.516172921443710353e-02 3.551952859332498796e-02 5.179687267735695322e-01
5.579223727112874592e-02 8.889499628866606717e-03 4.612391264409377856e-01
7.570134320699310748e-02 1.559270024864620359e-02 4.888788310695189043e-01
4.902128526166794203e-02 5.557209191347482757e-02 4.755594266626239075e-01
7.359519449418924775e-02 2.694352289212786564e-02 5.208824967219866098e-01
4.459286778735770812e-02 2.118540683724862497e-02 4.582018308059083167e-01
8.453890350952991684e-02 3.689187661541131619e-02 4.966082015559555307e-01
4.881847800128349263e-02 2.865140669195305467e-02 4.622681881533504122e-01
8.799056014695696981e-02 3.932186096065744957e-02 4.846321771341148277e-01
3.550068375305744095e-02 1.739250565670351009e-02 4.538107383583809828e-01
-1.485951731195352295e-02 4.275111882858633611e-02 4.574655258989737128e-01
2.682146901698816491e-02 3.237156028615267161e-02 4.560804622717340995e-01
6.711533853599623012e-02 -1.763061208247030526e-03 4.895827765114954544e-01
1.372883264042434187e-02 3.095368578651306116e-02 4.527274432093008061e-01
6.031108196857971893e-02 4.554084540164290811e-03 5.198475636812892597e-01
5.143158941063021711e-02 -8.083512971000950814e-03 5.270403780364055768e-01
-1.165984669546807698e-02 6.283145417056720285e-03 4.426454225675557352e-01
3.882972947533471636e-02 2.527370387458233864e-02 4.571362986084794855e-01
5.963464674854811187e-02 -2.285391740777667838e-03 5.151959166537380952e-01
-1.037532518852740497e-02 3.183205322627301326e-02 4.511822532243625616e-01
5.061390353056225561e-02 2.947310744531831533e-02 4.633106522350646239e-01
5.479148203420772939e-03 2.346912680550188382e-02 4.490742112019907584e-01
-1.781131323134570524e-02 2.471664213333022407e-03 4.413869304029612861e-01
6.268246704488283916e-02 3.840497808603801633e-02 4.692215849023618768e-01
6.053371269989444442e-02 2.030333205488882471e-04 5.145300686056931694e-01
1.504785365905447758e-02 1.441047980588295446e-02 4.478768282727715322e-01
4.215679953086092641e-02 1.610966924849315668e-02 4.559100375621822354e-01
3.519710272320730055e-02 1.465635062438801380e-02 4.528144547848657053e-01
7.615492615011916488e-02 1.859481534485496815e-02 5.045926862143007563e-01
7.541766891871233558e-02 1.518810435259659863e-02 4.989333189640624555e-01
5.769259053210345350e-02 4.343889013989178649e-02 4.684510653251189316e-01
1.165585763726936092e-02 4.286070357957366683e-02 4.564804263240743731e-01
-1.302592592814708419e-02 8.209838838691873447e-03 4.432195174688503547e-01
6.475696886998419388e-02 1.776342017381869060e-02 4.687786644323759799e-01
4.018099310156671156e-02 4.855257664178450755e-02 4.648466576256994887e-01
4.719424592990081185e-02 2.569690900092860830e-02 4.605415039535144528e-01
7.077245328587560003e-02 7.365126700243249287e-03 4.934289015273175538e-01
9.763329541895553881e-03 1.529362942573647514e-02 4.473026360686576108e-01
6.939550131680749523e-02 7.400208739185316388e-03 4.803628686952677862e-01
2.379544659499085654e-02 5.406457278987310613e-03 4.464467657964861780e-01
6.031897105707895168e-02 4.288370342538011526e-02 4.691624758911490667e-01
5.132069943730576539e-02 2.688771777204340685e-02 4.626417899483836194e-01
7.422988291060650390e-02 1.352527714112037455e-02 5.002394224373726273e-01
-7.977676253693478936e-03 2.121742416422402883e-03 4.413165312613808178e-01
-4.373194578480716840e-03 4.299233706061562216e-02 4.542552974906085561e-01
3.550320032822967126e-02 2.316637920162490163e-02 4.553764665804889145e-01
6.618142983182245809e-02 5.581889908725712335e-02 4.764616826650878711e-01
6.569287516290668594e-02 3.811665061258924514e-02 4.708186222238707197e-01
7.579787460674233812e-02 1.911815527768213896e-02 5.071041107004615744e-01
7.037718816285222501e-02 7.124084964164121951e-03 4.960174778354243807e-01
1.967305355431480177e-02 4.083705588374411666e-02 4.575828684522784129e-01
7.156551329870813882e-02 1.072509271578411111e-02 4.829010304478704163e-01
8.340129002225994681e-02 5.620148949970031615e-02 4.956269453890754795e-01
8.972785475755748474e-02 5.049893964527609608e-02 4.895061876817984325e-01
5.517638518422900151e-02 2.900473030482825579e-02 4.648908132971370510e-01
8.050363454943398889e-02 3.481276220598260307e-02 4.783069079776933186e-01
7.836938711592965345e-02 4.653527552961771868e-02 5.094844689970701168e-01
5.777740420131032006e-02 -3.341921404818957303e-04 4.639406603684670949e-01
6.771539566540195343e-02 1.761753250858788533e-02 5.223575617634653723e-01
2.929970983220241826e-02 4.987163946552505139e-02 4.627635641511996800e-01
4.016238966705002605e-02 5.284169708238478647e-02 4.661919393817990920e-01
7.536135815623854275e-03 4.617254324378523150e-02 4.572603265814461637e-01
6.634939304365423951e-02 7.053168373394205597e-04 4.981320680088966446e-01
5.351564029775108394e-02 4.377930884888985713e-02 4.671692167974376697e-01
7.071039540447919547e-02 7.682282532837620727e-03 4.860591895131636808e-01
7.305995936264947366e-02 1.251816661384172989e-02 5.025192774454352307e-01
3.074038024635958669e-02 1.985625698567982517e-02 4.530767291627569859e-01
4.694195727185553058e-02 1.141167150275667827e-02 4.566791129454498832e-01
7.417366545485021279e-02 2.792065525339128620e-02 5.197927363528169753e-01
-8.241278860345408949e-03 2.091763955381112025e-02 4.472936443616657431e-01
5.496347375598445960e-03 4.070846323777414094e-02 4.547450057153183400e-01
5.184899940639860205e-02 2.865619557937091472e-02 4.635102541609034676e-01
3.699203154228460078e-02 9.884421872618870397e-03 4.517802509769951458e-01
-3.256153811577557761e-02 2.025243239953859221e-03 4.419178920879905381e-01
8.928099721746096673e-02 4.520668105644188445e-02 4.843855148800494947e-01
7.950609374466550971e-02 2.973632934907489631e-02 5.078416312524285381e-01
8.235529929532819926e-02 3.204772420328339672e-02 4.995211571230959713e-01
6.275638417263988689e-02 1.059213055253411737e-02 5.227929160337204673e-01
8.016261918728263824e-02 4.581635722617298512e-02 5.073343138230144156e-01
-4.410716247749864316e-03 1.615096717386220460e-02 4.456430522704031838e-01
2.449307072724874260e-02 5.346562253245880358e-02 4.637281887369703037e-01
7.859264405533962494e-02 5.529400719604250780e-02 4.999314391852689443e-01
-8.795426003682986493e-03 5.712303897023394104e-03 4.425363234905723697e-01
4.137367326583575589e-02 4.888902666463618846e-02 4.652727625137204615e-01
9.441831854592741546e-02 4.109122354955856149e-02 4.892936575394296050e-01
9.110975557534030378e-02 3.936579748972589970e-02 4.898303534441151852e-01
8.641827056889844760e-02 5.115917683656990428e-02 4.974052895416565812e-01
6.854286855109920085e-02 2.808399019199347979e-02 5.290360608944341125e-01
7.724335594196533872e-02 3.723685503187159490e-02 5.136957101604107123e-01
6.639999108573264863e-02 -3.330543237647195804e-03 4.944799164444433903e-01
7.409154615442513359e-02 1.316976114450733003e-02 5.000504460775885285e-01
3.169496183631510811e-02 5.116118841224465141e-02 4.636043376516775227e-01
1.465465689551015242e-02 3.126855344125661906e-02 4.530022816164453459e-01
7.730687249360121416e-02 1.883074825299750968e-02 4.879530166873681796e-01
4.630677786037350890e-02 5.479797155209351761e-02 4.696778331779907223e-01
3.904764292275607340e-02 -1.632000892788282743e-03 4.500943871747700720e-01
7.736037509098393772e-02 2.411743157784025995e-02 5.100338988673281948e-01
3.384851018290475910e-02 4.247021109181714493e-02 4.614467081054212660e-01
6.603871959791617063e-02 -3.798049243061858357e-03 4.955245923049629297e-01
1.098318133767870949e-03 4.934231944117553614e-02 4.621981837881720678e-01
2.601540020653643481e-02 1.931961670485295157e-02 4.516125175044459206e-01
3.371229536830450124e-02 1.019882065183116103e-02 4.506846216483775258e-01
2.578192247946510529e-04 2.270467700370741235e-02 4.481968159658058504e-01
7.732693056418742106e-02 5.057748151500621875e-02 4.777368508454156171e-01
-1.428979110494081953e-02 1.457439542558411523e-02 4.455770473583728353e-01
8.521232458172951774e-02 3.322864016810726795e-02 4.838531841440938952e-01
6.433619625808525977e-02 5.763355490074403148e-02 4.821594495016896520e-01
5.014638081524896984e-02 -9.741836635620219897e-03 5.288351909513012705e-01
8.131184809089397891e-02 2.697127028812642754e-02 4.932562124578488971e-01
-2.986021929952167170e-02 3.184911152904464603e-03 4.422157841515163557e-01
7.982788959214334734e-02 3.634417047045966631e-02 5.093758017436614827e-01
5.301963844479663096e-02 3.547321984994819544e-02 4.657487601899646945e-01
9.216008033222494733e-02 4.554395522294683862e-02 4.928583181709920713e-01
-2.092342236078346615e-02 3.515128396795316398e-04 4.406793240856571314e-01
6.773220427902969243e-02 1.141228044208535131e-02 5.134394633357357574e-01
8.893222127928368526e-02 5.071084077301681037e-02 4.898646423325344612e-01
5.825457113350748783e-02 1.491785190225129211e-02 4.634708990090448677e-01
6.365350351151942421e-02 5.129605070061648946e-03 5.123689742274123438e-01
7.314297158164570489e-02 3.744305276034447932e-02 4.736732225702646182e-01
7.498468519659025333e-02 2.546002915507076386e-02 4.766034764185119732e-01
3.238759500528445162e-02 -5.027609535835503296e-05 4.469062538685920072e-01
1.524843704497206437e-02 9.579153760669022535e-03 4.463453418876056622e-01
8.827469467716862750e-02 4.513834034520116528e-02 4.960833297429338984e-01
-1.452065844824110448e-02 1.004998798481813831e-02 4.437629043172779952e-01
8.585614956557831301e-02 3.420581015242821904e-02 4.854248551615344964e-01
1.614584179343833692e-03 3.330275346068065079e-02 4.519304486997808845e-01
7.469411874334920542e-02 5.188416300285720456e-02 4.773104215767009495e-01
-1.469594973057384776e-02 4.110012707129224313e-02 4.560555625604671426e-01
6.090992565899354394e-02 5.361678239006503754e-02 4.733500398581775848e-01
9.188115166885008067e-02 4.993484340558618922e-02 4.884856025172233940e-01
9.635906860605617658e-03 5.129367112309597687e-02 4.643622991146931223e-01
3.383311583545221650e-03 4.966507131563285826e-02 4.642871714146960538e-01
5.351194516610768143e-02 -7.529572973846064554e-03 5.249084821291680747e-01
-4.368550635701759499e-02 1.454044490609840120e-03 4.456900282137254421e-01
6.778727778023857509e-02 3.871270859942001295e-03 4.797529053200004778e-01
-2.552752161268442149e-02 9.416745095332669513e-03 4.459018668095421356e-01
5.906796005604082050e-03 3.294013192942683160e-02 4.523005989466222232e-01
6.686304551428984277e-02 -1.396256102462629760e-03 4.935812628433557947e-01
-8.076008050920058939e-03 4.387002977516311214e-02 4.548071648677943224e-01
-8.782215171530334541e-03 9.922343634578344868e-03 4.436854638113090776e-01
4.921723626349325253e-02 3.086046593448345428e-03 4.567069171933036409e-01
6.252696040970014135e-02 3.261829064753821866e-02 4.682774707065791020e-01
1.278368019953883029e-02 4.023346104989791033e-02 4.559033818319769837e-01
7.547351852037521847e-02 3.518211470334448032e-02 5.174894534951187675e-01
2.701581573127304764e-02 1.150233014916050237e-03 4.454166467290452958e-01
5.542773026283842608e-02 1.467252825355018497e-02 4.617463134818834414e-01
8.266618238526277085e-02 3.596694516790823609e-02 5.019995374397858701e-01
8.240716793661143069e-02 3.424429525044813544e-02 5.016393884935604897e-01
-4.792727887671266451e-03 4.671781399593955691e-02 4.574498651464662391e-01
8.513540248324943938e-02 3.977521446325502780e-02 4.980275948179350154e-01
5.407159980853451509e-02 -5.024773257432196827e-03 4.612408471972458401e-01
6.629230952332823557e-02 3.438191459498197988e-02 5.238229784361105867e-01
4.244665876495985063e-02 4.372019347930305305e-02 4.641175045776794739e-01
9.092147198556579241e-03 3.880056236619353061e-02 4.547242255165546698e-01
2.766211630206002678e-02 5.687527225402395220e-02 4.675826922027718768e-01
7.338965202943349697e-02 2.417337539821845516e-02 5.199451449371149669e-01
2.066514118403859485e-02 5.013800953593400972e-02 4.616395066548567017e-01
-2.379592994845767390e-02 1.297718699218750223e-02 4.471773566033572789e-01
6.888469485231690781e-02 5.666211150240869215e-02 4.779276642572828360e-01
5.268425557116779984e-02 -6.952989075699262528e-03 5.254866444240081647e-01
6.978494749992399104e-02 5.041504837576447212e-02 4.750045427653015739e-01
6.707261756229887517e-02 5.051923958675555437e-03 5.029055618446161002e-01
6.188918755185122966e-02 5.719484280628493039e-02 4.820018418040094010e-01
9.353871685665507418e-02 4.092910604752640624e-02 4.886879490294044337e-01
-4.503860188189408656e-03 1.835634464859362339e-02 4.464426191301605340e-01
8.896077793886306151e-02 4.591632076013929531e-02 4.838911399954606840e-01
4.266008614497604490e-02 4.585157003870349995e-02 4.647649761202468643e-01
-4.344784050673482223e-02 -2.248327388820069075e-04 4.414145334763359130e-01
2.074703032027919170e-02 2.376962821217477873e-02 4.518072140212249788e-01
5.978771882888102990e-02 -3.287770571210537826e-03 4.681536241910224105e-01
3.516097142979712070e-02 5.443439943141009651e-02 4.660960407660748595e-01
-1.428309438120022382e-02 2.939470729761611487e-02 4.505294936234538472e-01
-1.892815738796990548e-03 1.000071651806176340e-02 4.441763795228179101e-01
5.217111339000254228e-02 2.198692793146301769e-02 4.617538374882905194e-01
6.461296751012184092e-02 1.992609020171835343e-03 4.734436541682804367e-01
6.899822135696768999e-02 1.509242312586438033e-02 5.169990220693073679e-01
6.020006497164168136e-02 7.869990580263152083e-03 5.236123795379954426e-01
7.313111723032537925e-02 4.498184519362843914e-02 4.757638819594455226e-01
4.096528160454479539e-02 1.201977087508377534e-02 4.539030074352268240e-01
5.459759643150517705e-02 4.418215398026250490e-02 4.675928517818253027e-01
1.647240032755543926e-02 1.713081276715342979e-02 4.489619285092659173e-01
7.274257589993862738e-02 4.996365148175761772e-02 4.758949945964549011e-01
-2.361384323570742128e-02 1.407723197384534546e-02 4.477728067942299828e-01
6.288772929952565760e-02 5.632592095403447796e-03 4.689819828122817058e-01
-6.289168231015294062e-03 3.936067634927850611e-02 4.531739171799371579e-01
1.586273323661666762e-02 1.809347847058765529e-02 4.491517070972491643e-01
3.333405104965075222e-02 5.725353331254158518e-02 4.703103124449540262e-01
8.483330045568912570e-02 3.780532307143086301e-02 4.968193613469950587e-01
1.212731883497469940e-03 2.597732459442765596e-02 4.494589783329751564e-01
6.194576189624038942e-02 4.998218836760980749e-02 4.712753362048085481e-01
8.572063073681332468e-02 4.331600251268019619e-02 4.984130779047019066e-01
6.858371911757083286e-03 5.059876868434517311e-02 4.644232078701082123e-01
5.018900165552166170e-02 1.474891646829776248e-02 4.591564252098615517e-01
9.233424494438610686e-02 4.967359801656009294e-02 4.882534130377734205e-01
6.480233924995887351e-02 1.971522744284969278e-02 5.287106303258813922e-01
8.372976489460907945e-02 3.157590334358947176e-02 4.901669746214327716e-01
8.316317342059989515e-02 5.649350327886647899e-02 4.872337010014187175e-01
6.307090168051440737e-02 -4.083122621390373845e-03 5.056318995790072268e-01
-3.676262299024495722e-03 5.248324809297820123e-03 4.428255511555978519e-01
-1.159476652728081390e-02 2.742187198152135422e-03 4.413949127852157539e-01
7.284120900121546227e-02 1.458391187957937957e-02 5.076210961921464593e-01
3.265478916306033957e-02 2.226249677532046722e-02 4.542644332862360024e-01
6.958314330259005032e-02 5.099394273280820344e-02 4.751453896659534881e-01
7.554428948895898499e-02 2.677723443876274534e-02 5.165461030030460421e-01
-2.852040455024328069e-02 4.871650883941146780e-03 4.429223609873793599e-01
8.610831095336074492e-02 3.812401659375758839e-02 4.928775376080202775e-01
6.699210762259122376e-02 1.092252593893115742e-02 4.722208072633534148e-01
8.679927686165851697e-02 4.191245961805339926e-02 4.965593548604343987e-01
4.610793436077062490e-02 -6.977707855596114450e-03 5.308210426734781828e-01
-7.035963507900874249e-03 2.106081920830104107e-02 4.473654508315340061e-01
1.325989361697646127e-02 1.392388971410610243e-02 4.474275421877698111e-01
7.008862266694711185e-02 5.888775124717132194e-03 4.936401169968555047e-01
1.185796381666040858e-02 2.394793079389148649e-02 4.502056299817692731e-01
-2.308429690326817968e-02 1.106364837929731462e-02 4.458483974760264479e-01
6.920259762251197710e-02 5.257963290208450199e-03 4.834369442545321527e-01
1.279506769397232950e-02 4.578412447949669478e-02 4.579052920989640230e-01
6.788612084875675357e-02 3.360775273559941934e-02 4.706094797494374538e-01
5.569518635235708170e-02 -5.946455439725065184e-03 4.637589391238558512e-01
3.773734956567929844e-02 3.081215691243609570e-02 4.586891460402734988e-01
6.614351766972535740e-02 6.659402661525879244e-03 4.732943072178951716e-01
7.170483134326804953e-02 5.872681380001655571e-02 4.832490725398696507e-01
3.087934439458759478e-02 9.318340361170103850e-03 4.496551932005297680e-01
3.829738671470574868e-02 1.449321025126892350e-02 4.537171966852112104e-01
8.928110459467043791e-02 4.391883965328151340e-02 4.951980792056512315e-01
4.884402771377512747e-02 2.287323741402325084e-02 4.603533436041843396e-01
1.049825077340106605e-02 8.942511817701639248e-03 4.453533601485504256e-01
3.361834414372305568e-02 1.640906767966918839e-02 4.528706057186138723e-01
-4.186671015229886939e-02 -9.559637041062338161e-04 4.409046017735908096e-01
6.908781736040066346e-02 4.461711869824832102e-03 4.947406641581221232e-01
6.943979736752205201e-02 2.146473572863503987e-02 4.719661662490697851e-01
-2.217053273369456665e-02 3.066698862626408145e-02 4.536060847895930226e-01
5.415273717133078230e-02 1.408111991070880829e-02 4.608698647904809764e-01
7.047361405336134699e-02 3.777094163505032021e-02 4.725808284505418899e-01
2.985459244739108869e-02 5.452908204611729009e-02 4.650399862577685450e-01
8.995613958971776514e-02 4.261666640327466810e-02 4.857214467286312121e-01
6.004411677666981334e-02 -2.736969425423003369e-03 5.138931248006258778e-01
8.799838690268348140e-02 4.836466305123885562e-02 4.965079711270466434e-01
5.666520996515544278e-02 5.706881345185385590e-02 4.785324461397195694e-01
5.954724145853870082e-02 1.838164563977673794e-03 5.176994310645995911e-01
6.095897487220622302e-02 5.160863761733290936e-03 4.666620200771047222e-01
5.965002479489728976e-02 2.891496330154905148e-02 4.669689670984970564e-01
3.595975577867516204e-02 1.189300612341377163e-04 4.485792513756480804e-01
3.337455276239959662e-02 8.328968729215759786e-03 4.499919469167707464e-01
1.624230346180117329e-02 2.593536912746625955e-02 4.515373266828837662e-01
4.724474130640838460e-02 1.440925170096275625e-02 4.577116568548135755e-01
2.751787024666602424e-02 3.017369157697922383e-02 4.553291280833427490e-01
5.899308150599482520e-02 2.978907505495581587e-02 4.667600232274123906e-01
5.238265098045829377e-02 4.034978147850442481e-02 4.661552261305001998e-01
8.266413089744699405e-02 5.302510326488314718e-02 4.820307092696370366e-01
6.341702427646692120e-02 -1.635104142245012932e-03 4.732482624359979351e-01
3.530114224979104785e-03 4.449725384859634647e-02 4.558098256844784202e-01
8.235012901043864408e-02 2.962464044884149592e-02 4.947417357385755499e-01
7.877785748291081525e-02 3.443161243274717176e-02 4.765929956189907113e-01
2.916431509807135974e-02 4.777726450579753564e-03 4.474922341460729758e-01
5.097361860588948967e-02 6.339851264363045857e-03 4.581551811304103161e-01
7.676468105264075414e-02 3.969050178171554255e-02 5.130562384615193761e-01
7.516620155970406281e-02 3.040401059484328095e-02 5.183132643753252111e-01
-1.121320649241999354e-02 8.766446495624646146e-03 4.433918653383478459e-01
-9.534711972923303955e-03 4.971489751081735811e-03 4.422620097358704316e-01
6.298145331286547632e-02 9.417670697614154325e-04 5.086074161018142581e-01
5.745552609739015132e-02 5.417610024609014613e-02 4.724068476425737351e-01
-4.255736156488166590e-03 1.255476429601354998e-02 4.445708927375614516e-01
5.834728393675889940e-02 -4.295456970311421936e-03 5.173899509831033638e-01
1.913799936492165815e-02 1.354939314365339806e-02 4.483284725945111404e-01
6.865175503084640363e-02 5.097385201618117451e-02 4.748032399929175140e-01
5.827736404533116754e-02 4.477317652515004631e-02 4.688627700252678832e-01
3.205692523976109293e-02 4.318156791665578309e-02 4.611682066739297703e-01
6.718867491993488206e-02 8.697400283150890851e-03 4.738832376020670756e-01
5.695237775117287932e-02 4.576696698920164341e-02 4.686293698646841754e-01
8.170368115409674947e-02 2.713008827988049390e-02 4.875179421416460102e-01
6.467167390486394662e-02 1.453109291234340635e-02 5.239568727688920236e-01
4.123740116902262914e-02 1.850765979271149289e-02 4.562142243876815551e-01
5.551895103835285950e-02 -1.108747686489292700e-02 5.238307515782366641e-01
6.047152119437661233e-02 2.262983110140302789e-03 4.669148815235207861e-01
2.787302483868898256e-03 4.923857558329720191e-02 4.596199586013018368e-01
-1.460153073043658420e-02 3.285934383954543236e-02 4.518741167745347065e-01
5.330376493792547687e-02 2.881253711538033641e-02 4.641549149651948980e-01
3.358814188114578325e-02 9.577896913748579211e-03 4.504306212370284834e-01
6.889728595810518108e-02 3.947121225485725887e-02 5.169585705221829697e-01
2.234114011634956085e-02 2.167066338339135659e-02 4.515603475650326604e-01
2.750710801846235898e-02 5.561981147441926593e-02 4.659671248567190949e-01
6.693545047064765330e-02 6.521007643818235375e-03 4.749703990166821987e-01
6.459166501105242930e-02 1.150583689275736995e-02 5.205769763078391676e-01
4.546949183393228511e-02 5.561912655116547227e-02 4.743193366582560966e-01
4.304063351112757951e-02 5.422704094147027393e-02 4.681352686461525137e-01
7.700070202627877503e-02 2.302540534868358080e-02 5.094772077085955031e-01
7.420995656296242027e-02 4.713037851833225267e-02 5.116792891334854820e-01
2.542844442189420157e-02 5.237521793415719079e-02 4.631494619281316116e-01
8.338058447397482531e-02 3.389121770859675198e-02 4.815595487842739275e-01
6.249135878297856078e-02 -6.309687955190004804e-04 5.091663723276039777e-01
2.494818179696752652e-02 5.190900095148860000e-02 4.628234521089114040e-01
5.416394740010119224e-02 6.675493432929423439e-03 4.601391322786627103e-01
4.263917761067338025e-02 -3.365680158765472357e-03 4.519551162943177269e-01
-1.677680597914702268e-02 8.760554961198796162e-03 4.436060302315237847e-01
-1.406574930553246630e-02 2.837529334229919441e-03 4.415810303544843718e-01
5.898883411032644630e-02 -3.050984385175991437e-04 4.656508060719718456e-01
6.819953529315088414e-02 4.538103642112148971e-03 4.982323870357026618e-01
5.063758519882770315e-02 2.165429090582889418e-02 4.609350270029886620e-01
7.437278834511096282e-02 4.843258752552728752e-02 5.106066805591444879e-01
4.312263653581717426e-02 1.726441630024617979e-02 4.566829055211270028e-01
8.979873277670064047e-02 4.783800847953230406e-02 4.927059590185396964e-01
2.164509455134735680e-02 1.402033018848867357e-02 4.490376391962152547e-01
-1.150832783427048651e-02 4.151966381684948915e-02 4.542254750194101298e-01
6.703048362007765770e-02 1.239277894143660068e-02 5.166758119650811665e-01
5.272679761939135651e-02 -4.093961163268287039e-03 4.598206774286811571e-01
-1.751628855354510350e-02 -1.145597209981804449e-03 4.401247612221488303e-01
7.876222477902987407e-02 3.433316259634647954e-02 4.766097193772711460e-01
6.628211745417415812e-02 4.915539233126876330e-03 4.748947955430583567e-01
5.609778877407391173e-02 -3.317335599682291487e-03 4.631123279783764257e-01
1.683833812673160568e-03 4.933152628359139397e-02 4.613400249230832917e-01
7.195918351129851342e-02 1.499925064323829119e-02 5.103963037991534613e-01
6.831050829738287422e-02 3.082950417837364634e-03 4.945943087538423599e-01
6.378434405326403878e-02 1.389115213846105722e-02 5.247960190345559717e-01
2.256576799705150085e-02 2.898661637841624950e-02 4.538221602141251920e-01
5.342388111425386277e-02 5.101901751342585722e-02 4.689012309078284813e-01
6.268179981401486578e-02 -3.015985394976139142e-03 5.073323850556569203e-01
3.816954853120569507e-02 1.068715597715511924e-02 4.524466090722759626e-01
1.686450587614500563e-02 2.754759497129636789e-03 4.440230215956730286e-01
6.608909014677524785e-02 3.415761694589793118e-02 5.242809220995747754e-01
7.501315764880071846e-02 1.698449652656082789e-02 5.056050671705251132e-01
8.337960631802694700e-02 4.155078799114432508e-02 5.018010157779483338e-01
-2.236188143421493496e-03 1.372323447889774173e-02 4.450956583339195638e-01
5.014003492935162343e-02 5.423809601503812826e-03 4.575286484819271471e-01
7.432555821141899333e-02 1.664020251141923659e-02 4.823715782349675685e-01
7.913332239102729981e-02 2.130273027927028634e-02 4.924524727508627908e-01
2.546487254368288294e-02 2.921913621364009145e-02 4.545298310898782113e-01
8.503452301024475024e-02 5.404248406729579568e-02 4.962400375867224711e-01
7.427169157709397583e-03 2.193933639726692100e-02 4.488995773939187250e-01
6.796270226433007156e-02 1.635136103824031545e-02 4.716524452092896169e-01
6.997907913301899818e-02 7.470431096680777566e-03 4.980871543386922173e-01
-1.897927527528856656e-02 2.469003094445512692e-02 4.498266523236352787e-01
4.330120995177393767e-02 3.383339983149898263e-03 4.534180832882471202e-01
1.052315021811343898e-02 4.553089102063548332e-02 4.573783743041651695e-01
1.552303250583682813e-02 4.918650847255041925e-02 4.603408347835586389e-01
4.827562318086140586e-02 3.064524769327928166e-02 4.627726914295774430e-01
2.313855682562977788e-04 3.487144785624503307e-02 4.523001194271953906e-01
8.722960491450661158e-02 5.216274296035205982e-02 4.896911610380854651e-01
6.747410317913203615e-02 1.988667460570592467e-03 4.813164650162166658e-01
4.699239340334681464e-02 3.844545114918257456e-02 4.640528106456048851e-01
4.549319269955409695e-02 4.878912205319711759e-02 4.663198276615699855e-01
8.333391836167630684e-02 4.992991337296330545e-02 5.024120978084871680e-01
9.069003687124027602e-02 4.310266264530766833e-02 4.862874785439693093e-01
2.179752704591636156e-02 2.428035578039515821e-02 4.521632073779902061e-01
2.408007796795881561e-02 2.013497420345852426e-02 4.513662680714521369e-01
8.488106242401377566e-02 3.825204258809906249e-02 4.973755475979184659e-01
5.165959412861542699e-02 5.512459178122397496e-02 4.732165485225410251e-01
-3.755699625042924900e-02 9.255019499352121030e-04 4.412608950696292331e-01
6.309846502514362965e-02 2.129057551958773303e-02 4.680761626087134863e-01
8.906553784171350463e-02 4.901004090139432501e-02 4.920411477135317457e-01
1.421916996581224640e-02 2.502353863349524726e-02 4.509218671315064486e-01
6.717545838727799479e-02 4.237591044808270563e-03 5.009893099649742609e-01
2.154719532065579868e-02 4.953163166967201186e-02 4.614338011857610500e-01
7.385110266343516972e-03 4.761990738683026525e-02 4.583516811815423475e-01
6.680267723251587242e-02 -2.502744374940196834e-03 4.905557956663912922e-01
5.904187950963334097e-02 1.756973735837944958e-02 4.646873814700192007e-01
5.575089641401361623e-02 3.394866589096880855e-02 4.662647291055000420e-01
7.688958917854458314e-03 1.254175558956448222e-02 4.461202302310080525e-01
-2.419641311506447179e-02 1.449412033654241469e-02 4.481842174632104658e-01
6.162281259412088347e-02 8.220424890943356031e-03 5.219839544070641324e-01
7.799158847596017463e-02 2.319155218882187203e-02 5.059878501378083371e-01
7.925043119434203864e-02 3.384685020219675017e-02 4.772907635237142454e-01
6.206759864880599664e-02 1.139410749035063737e-02 4.660105719238967215e-01
6.425783259973130712e-02 4.751957061197965154e-02 4.713681136960931051e-01
-2.436312044443710717e-02 1.589316154588140545e-02 4.487242326676487703e-01
-2.615036662220535449e-02 1.108205885976549024e-02 4.472074941377767177e-01
6.434729691646119687e-02 1.002601433464583858e-02 5.186385313652349671e-01
5.135524845056096098e-03 4.010991733633787609e-02 4.544842470515982336e-01
6.099609466138154745e-02 4.922030757970836251e-02 4.706498239068644951e-01
-1.918059170682478304e-02 2.372404449053685041e-02 4.494720122615704638e-01
2.608397849144808434e-03 2.502879197625621291e-02 4.491417118047333901e-01
-1.018901616053533715e-03 4.198333066836119204e-02 4.542446411470427159e-01
4.291242064131266937e-02 2.338799587191583984e-02 4.579973912564421767e-01
4.759496607770705850e-02 2.353811319062186838e-02 4.600237177850126091e-01
7.046161504941947373e-02 5.710402881963328597e-02 4.804329112981810534e-01
1.192315126809198600e-02 5.212709232369797802e-02 4.638257222947896885e-01
3.601029907694850568e-02 3.336600187034579126e-03 4.497460089435418862e-01
2.478800702993892019e-02 5.076953103513970333e-02 4.622823649657836209e-01
6.519246255821437019e-02 4.855581939216662216e-03 4.727123121848678111e-01
-3.648084989961102899e-03 1.674734133197375990e-02 4.458811095071141817e-01
2.761595513618369385e-02 1.964153375906247485e-04 4.453044678055916306e-01
5.270982765687736576e-02 5.141327197859347185e-03 4.591190894024041458e-01
5.785093060440461149e-02 3.211220498374346005e-04 4.639045536441293582e-01
5.322402444780564845e-02 4.002915209420250531e-02 4.663651347836105798e-01
-4.182106265858534511e-02 1.367612489651367233e-03 4.416677052478371057e-01
8.008152690937532514e-02 3.694035421280104925e-02 5.087569485385264878e-01
8.033642433580112652e-02 4.641350705500118384e-02 5.069323692691224403e-01
1.781965529178827085e-02 4.772271819684163752e-02 4.598016774492248993e-01
2.402415081678929698e-02 1.114270812646263667e-02 4.486645362947135340e-01
-1.781283551879358357e-02 3.371932709145843143e-02 4.529220005467911037e-01
8.660622089478763053e-02 4.147350853955915351e-02 4.822099803983939115e-01
8.998516105154048816e-02 3.846890617475544338e-02 4.857462560798223583e-01
6.100876884152188484e-02 1.179357310514871950e-02 5.266008969332824918e-01
7.375660631654858135e-02 5.608219052715990999e-02 5.004085947455600980e-01
6.831408293328672388e-02 2.079833540913475845e-02 4.712476246431872573e-01
6.314665666129833099e-02 7.429483301759326475e-03 5.168114702109258829e-01
5.264436664625823242e-02 -8.684980644220963164e-03 5.260990236945551901e-01
2.681645193878231040e-04 1.357356310573248556e-02 4.453668082325453192e-01
7.218911957308978000e-02 1.578949047604478670e-02 4.780281945591013937e-01
7.465596791846472458e-02 2.528454591606161053e-02 5.182210846103395552e-01
6.223110236323457084e-02 5.725646074720261436e-02 4.762099296112479729e-01
7.101486691519370842e-02 5.654474409494501808e-02 4.786568811756163888e-01
