5.367053512742690768e-02 -3.815068029111927297e-03 4.604571274831402716e-01
-1.606733058936672676e-02 3.537348192700645599e-02 4.529441773761914702e-01
7.302898759381074023e-02 3.829704175172424924e-02 5.170914747112673737e-01
7.029921065668741365e-02 1.383781183511528443e-02 5.120454634597804144e-01
3.237608322335505662e-02 9.928685617595302618e-03 4.502711374203136052e-01
3.180812195252250701e-02 5.608533126253908985e-02 4.671489216856259952e-01
7.012300955627154275e-02 3.758421893922039153e-02 5.188963754032601683e-01
2.456743029863490968e-02 4.337746452592313590e-02 4.595117868737430000e-01
6.740126579366925719e-02 2.174904330508564687e-02 5.267805852307667625e-01
7.413255042987426657e-02 2.687438511240725775e-02 5.196155938592568191e-01
6.665445067498050602e-02 -3.782930712969033091e-03 4.879986077142419165e-01
8.737640763675127986e-02 5.140336387385924938e-02 4.919973686509380717e-01
7.744085689101130876e-02 2.466839668925406917e-02 4.798205567439974839e-01
6.408538490369045104e-02 2.838840444158482329e-02 4.688239141472228533e-01
3.337377415304691730e-02 -9.651742592965755971e-04 4.470441239820522328e-01
1.815985491555348330e-02 3.495793352002853072e-02 4.552328304903776601e-01
4.171883780823704840e-02 2.517454948144584592e-02 4.581813109412645191e-01
-9.057559433167010690e-03 2.756090165954512214e-02 4.498621223910840849e-01
2.969192354191928576e-02 -3.061153834839019146e-03 4.449541886968438331e-01
5.061963496029021903e-02 4.631919070879406131e-02 4.669050534682652742e-01
8.281188759961409518e-02 3.267620988100619628e-02 4.980726017815680917e-01
7.603382461976503082e-02 5.072468415843840728e-02 4.774318890119750303e-01
-1.411759773965674467e-02 2.741476762699444208e-02 4.497657051035154341e-01
8.867205001016496835e-02 4.135597739549768531e-02 4.953462211125004844e-01
7.936707736813812530e-02 2.656012314509206482e-02 5.013880350591024548e-01
3.135083931454567957e-02 5.140802393704827292e-04 4.466823328766888479e-01
1.946673968278392688e-03 2.733168333544679432e-02 4.499618173029707457e-01
7.840220827701459283e-02 3.560322609350164563e-02 5.123290227428901611e-01
8.304327216294404845e-02 3.944371395134729785e-02 4.791505619541294725e-01
4.339679965428227398e-02 5.372824687718540104e-02 4.677725044407604060e-01
4.609019736609588219e-02 4.984311874092138550e-02 4.668391798980171536e-01
3.599481636679607854e-02 9.099978935599703500e-03 4.512474877015974495e-01
-4.508672163119913437e-03 4.193218640723438140e-03 4.423926005428762687e-01
1.879612073805442957e-02 5.081316644942129868e-02 4.617541071293761457e-01
5.293986636739847138e-03 4.012522856463299897e-02 4.545505689195590837e-01
5.095386672626615876e-02 4.346841712262814600e-02 4.663546492854444003e-01
6.784755950671289559e-02 4.514282843884506041e-02 4.730593483563234058e-01
3.955946595679856598e-02 4.875497245099687238e-02 4.647900716861345094e-01
7.792855939966984724e-02 3.222250941636550098e-02 5.127472773859795829e-01
-8.907689146364389243e-03 3.237504542744887304e-02 4.512359112657107207e-01
5.404567802674283689e-02 5.129659512688349021e-02 4.692238502653437449e-01
7.721367964736536305e-02 2.358696868445350064e-02 5.094737366475923235e-01
5.779603695523144458e-02 6.891877749025091329e-03 4.628555322739694167e-01
7.554612635063041870e-02 1.509580836894141090e-02 4.960615545672669713e-01
8.419806851196638686e-02 5.629900058280683933e-02 4.901311483385357159e-01
6.906103868704437099e-02 1.766434278979645001e-02 5.204278800202979394e-01
8.468132410400684706e-02 5.564441082984243614e-02 4.930397269329020449e-01
5.815983561097386179e-02 4.390069317021997979e-03 4.635305424659340034e-01
9.800098886672482107e-03 5.119934477286954000e-02 4.637029409105076772e-01
-2.630678760421885018e-02 6.140602942535829112e-04 4.407031337963840945e-01
7.814504536243419008e-02 6.100907627406012418e-02 4.924612264238812931e-01
6.405965206343346152e-02 4.870786035114234303e-02 4.718609755284028928e-01
7.838540699126507472e-02 5.480262242660995098e-02 5.011549745862984295e-01
-1.271595858459597522e-02 3.072396279502754082e-02 4.510240728997995663e-01
9.216104833456106871e-02 3.941130619086864739e-02 4.883836252327510841e-01
4.268971194994282403e-02 4.511237323237028696e-04 4.525002490132096766e-01
8.356163429773200146e-02 3.715966341217763480e-02 4.998298269063454202e-01
5.110824663788877953e-02 1.218226370599036212e-02 4.589930402601149484e-01
5.397922305841534873e-02 3.896837040406353394e-03 4.600335374127909049e-01
5.120950352259544952e-02 4.798817065392948361e-03 4.581337314181960219e-01
-7.111235184116125596e-03 9.158269398150630652e-03 4.434726842889030185e-01
7.577057730625634535e-02 1.791377387320504389e-02 4.847260694285208116e-01
-2.244744994762492077e-02 2.078921835669224338e-02 4.497314586265211966e-01
6.423988993663734548e-02 3.487985467710535276e-02 4.691626791796773555e-01
7.527187310200682269e-02 1.871495180809671505e-02 5.079532870233766095e-01
-1.041714798346778104e-02 2.738402582839878641e-02 4.498145587384759780e-01
6.726788110355569339e-02 -1.177862199797253834e-03 4.861482322492025610e-01
7.713305761814716333e-02 5.817023334069503643e-02 4.966716932425912501e-01
7.791332923527044541e-02 4.097892637968688495e-02 5.113231728353463401e-01
8.707237125649157361e-02 3.851972806992156467e-02 4.840095329174404770e-01
2.464642620773080731e-02 2.110317099091901447e-02 4.518897452692987038e-01
6.370576618116051415e-02 1.117051837258366785e-03 4.722158861628182325e-01
-2.625542807671256765e-02 6.856689318343362968e-03 4.439024002100033783e-01
-1.716631313737971079e-02 3.792917959776417880e-02 4.541239507177447510e-01
7.311833541410983975e-03 5.082555231816840435e-02 4.647346124859111915e-01
4.457981020833010066e-02 -1.448965056979348298e-03 4.534241500604931918e-01
8.674699862178475440e-02 5.281836632370686541e-02 4.910476443195438967e-01
8.872375702754067839e-02 3.925251025656061737e-02 4.917261837665631852e-01
-1.706527816821137855e-02 1.069228156097800156e-02 4.444924417589877774e-01
8.788665250275910779e-02 4.447903722442008573e-02 4.962380386381203823e-01
6.819329773809074124e-02 1.265552215245518801e-02 5.145601838346361978e-01
8.558272051080610676e-02 4.331190268733700610e-02 4.985730037329040853e-01
3.229887169607176256e-02 4.600903449673589968e-02 4.620901771001507119e-01
9.020057472291584388e-02 4.559088047354951240e-02 4.946781911434730561e-01
4.546349105947587038e-02 6.126428912622249208e-03 4.550893567474734724e-01
8.557913494571388335e-02 4.659886476167948016e-02 4.999399869538435071e-01
7.281421143297756027e-02 5.511667201219489637e-02 5.033414581607185134e-01
8.656626988981094839e-02 4.188676877601174575e-02 4.821956159707763145e-01
6.150760649369925448e-02 1.572319163548066556e-02 4.658423498426375597e-01
-4.417897244566856840e-03 2.271813654936093163e-02 4.480819842723582358e-01
8.587782222418237354e-02 5.372019921083077271e-02 4.940216738718101741e-01
5.402411057712282888e-02 3.933559442394889138e-02 4.666081774827888773e-01
2.040559614913804026e-02 1.826512037234340191e-02 4.500573594161614843e-01
6.605114003146185520e-02 4.982506724642069007e-02 4.733269353411669322e-01
-4.128780944660970231e-02 2.617269674211303299e-03 4.442524764027743767e-01
4.655612271615242742e-02 7.559343480573397535e-03 4.558185924410139700e-01
-1.980760301996975156e-02 1.310719856070874205e-02 4.461205057691574050e-01
7.980399855706801771e-02 2.881357003616304840e-02 4.798816397994318250e-01
2.308608206662420004e-03 4.363871695246366450e-02 4.553433067637517317e-01
3.471824339962866629e-02 2.861578749066145608e-02 4.568926211603609455e-01
7.747800570710680623e-02 3.775172255943706062e-02 5.131508657841080678e-01
7.108576202195131255e-02 2.183563886793655345e-02 4.735677879174984284e-01
-1.162959513214650333e-03 4.085282578302440459e-02 4.539192213240687002e-01
3.794015230335828770e-02 1.950400844428696462e-02 4.552684662473334698e-01
-2.442889149933345425e-03 2.516004374127182863e-02 4.490617984689476150e-01
6.616461508960876092e-02 7.719251493953363345e-03 5.102328043442011518e-01
7.516034283776999725e-02 1.721141220065354471e-02 5.053239044969676241e-01
2.966951187957253891e-02 5.458751346707049756e-03 4.478935623174347125e-01
-2.219068809017684177e-02 3.887210871366192193e-03 4.418948047095289655e-01
6.581735050853732005e-02 -4.617363680747128135e-03 4.955533247469047220e-01
7.232177723592191076e-02 1.009810344083918003e-02 4.973655638195351725e-01
7.743161296962057516e-03 1.110435532081626570e-02 4.456960244427657925e-01
2.578486534104625083e-02 4.676643068906469192e-02 4.608822676244804795e-01
3.738762262138887321e-02 3.193269293011602450e-02 4.589472337439128302e-01
6.779243419613092958e-02 4.352481495503444237e-02 4.731610855851841602e-01
6.942375773825472211e-03 3.584342788682182840e-03 4.431443449241631583e-01
6.661912722262278153e-02 -2.693417268509452553e-03 4.926061912300028767e-01
5.192877563167826865e-02 3.793902692006231869e-02 4.657195261380990825e-01
3.923595736847292764e-02 3.054527172871458057e-02 4.591635353955966226e-01
1.380704307251477345e-02 2.703682016077496239e-02 4.514408379934427562e-01
9.292965305142615595e-02 4.611958195993452747e-02 4.914090399366861095e-01
7.684765323216444233e-02 3.168230795758669727e-02 5.152419528361732448e-01
-1.430868487271475496e-02 4.263935346053079195e-02 4.569334436416903067e-01
6.525357333418585482e-02 9.980627708276269827e-03 4.699984471591329149e-01
7.354328032271217896e-02 2.284925567487903347e-02 5.179916449390835620e-01
8.195554937072309365e-02 3.039932165494261748e-02 4.812470349880661469e-01
2.498036833189956965e-02 2.324958230908811055e-02 4.526638706341067908e-01
7.411058875567007320e-02 2.206378572234746205e-02 5.158919818321774375e-01
6.151180438121266886e-02 5.747156794677453495e-02 4.805350873086278174e-01
8.653366917938420944e-02 4.099294367231744868e-02 4.826289642364015586e-01
2.060408448634045916e-02 -1.598525977784421952e-03 4.432979730831794196e-01
8.701217545904046946e-02 3.849592991354353760e-02 4.923666610563592894e-01
7.690848060888066939e-02 3.374643566591815219e-02 5.152522536416297427e-01
7.405754524426926000e-02 1.565813768915403498e-02 5.059106202501022498e-01
6.945129554364781743e-02 2.211730916441070546e-02 5.242163344556289850e-01
4.919610310202567754e-02 3.579438849195114292e-02 4.644888626781327190e-01
1.161399550280564977e-02 4.453724907382855536e-02 4.570950850520576481e-01
1.318101343615461080e-02 5.229103502075786725e-02 4.624072781217600792e-01
7.258543869762053291e-02 2.793461918331737945e-02 4.737583862359792120e-01
6.848698206706020641e-02 6.288806058762986748e-03 4.789153668785989248e-01
-1.313598114759256807e-02 1.285934830025222721e-02 4.446786774319875790e-01
-1.839439093579165602e-02 2.698789311102418875e-02 4.505888162924430174e-01
-4.376463404955885372e-03 5.794510782719837841e-03 4.429285123374691047e-01
7.401858638216889108e-02 1.517985825532567473e-02 4.843469655683649289e-01
-1.122027293441726914e-02 1.400718821871228641e-02 4.449744253252690407e-01
6.884600753399031103e-02 2.371721409324291027e-02 5.262010074036834739e-01
5.987277880535407659e-02 1.841837235115148302e-03 5.168153262171949480e-01
9.220606207843276558e-02 4.014963381116638114e-02 4.899289436757222060e-01
7.268302367225408511e-02 1.825920807999749373e-02 5.142463188497201632e-01
4.333586340889566957e-02 2.317195414814410617e-02 4.581657945641784413e-01
4.873256697817515692e-02 -9.311645423536043381e-03 5.299445970246106086e-01
5.454713264662250372e-02 5.003712468388046841e-02 4.689574366331983324e-01
8.602152732474867280e-02 3.449985627274726463e-02 4.856918281491385270e-01
6.536201030476666840e-02 1.132973432243871738e-02 4.694297830720134956e-01
8.315018421491994494e-02 3.239580765485153280e-02 4.959477943482457074e-01
5.814652490579980126e-02 4.263337185348151787e-02 4.685196630109798588e-01
1.776934165585668593e-02 2.003357596259163972e-02 4.501758833988880881e-01
5.176002064690772564e-02 -1.363118392504063248e-02 5.282998510925716040e-01
6.458261383013244594e-02 2.968350125184632260e-02 4.690736829384586359e-01
8.538670350016207278e-02 3.979237356383193841e-02 4.973037607978920138e-01
8.015297906896604041e-02 5.591139919164885008e-02 4.823420506452766876e-01
2.783767924615363973e-02 2.120940929876832803e-02 4.527939129069700752e-01
3.827402022928372977e-02 5.721293775589698927e-02 4.734114481504771987e-01
-1.354705023299235429e-02 -7.119276589581946535e-04 4.399258304917029738e-01
7.452430173324008089e-02 3.914542383398180586e-02 4.749355197747504587e-01
7.024753058497018587e-02 2.439641273681702333e-02 5.247406244592706104e-01
4.418367302298970012e-02 1.774147992682958974e-02 4.572615373423181695e-01
7.520681597845814415e-02 2.927771002608548639e-02 4.752372797837564056e-01
-1.847060774907212377e-02 2.167211792655615588e-02 4.487713599113694607e-01
-1.398939903098200474e-02 4.112534957499119209e-02 4.555056193066554515e-01
2.459785586216906364e-02 2.647403976741109083e-02 4.535222647603620039e-01
3.718503802859303431e-02 4.365372771899778820e-02 4.627461376546763705e-01
7.906504462951004231e-02 2.144864015959081424e-02 4.927826108084470413e-01
6.650220931358781506e-02 -3.014898230327921029e-03 4.849924109771026615e-01
7.470480370293024197e-02 2.263163338214406115e-02 5.153164300179785551e-01
5.293450642047461963e-02 3.981822787931513924e-02 4.662975173937035089e-01
7.070901082993376330e-02 7.001920088280060364e-03 4.909260465435821286e-01
7.392060729295965582e-02 3.129111253102059842e-02 5.209340341797897844e-01
7.110137977638303353e-02 3.374259629065909372e-02 5.223886338775111104e-01
-1.021621390101423721e-02 2.318188248816116862e-02 4.482417776696900891e-01
7.385631625799932154e-02 1.212466705531700314e-02 4.920427233018292990e-01
3.871094128042423810e-02 -6.066540065229326754e-04 4.501688451494577081e-01
-1.587384243209120221e-02 2.235178520021205081e-02 4.484172453516871992e-01
6.689633886627444070e-02 1.400126393537751320e-02 4.709286826572114948e-01
6.872895929042918683e-02 2.339104210976248460e-03 4.878265203877888423e-01
3.241535197925157069e-02 3.697211951802473195e-02 4.593774117269239787e-01
3.985926378865838754e-03 1.448333659179825567e-02 4.461662158015105573e-01
7.919371467734984127e-03 4.876300477781145976e-02 4.593279764315881253e-01
1.072837306827721313e-02 4.454773163260580121e-02 4.569456872228956357e-01
5.767758960784940409e-02 1.400157820256352909e-02 4.629147322576426249e-01
2.007784057671218800e-02 1.030960705996308326e-02 4.475341511121208038e-01
2.219396811273816744e-02 7.769324949244700400e-03 4.470426712339704012e-01
6.756425788380146513e-02 2.779714083770794958e-02 5.300463045209768964e-01
-2.705609161425638967e-02 5.110053424227229552e-03 4.428791582530150484e-01
4.389785397989440230e-02 4.160587803177614313e-02 4.639032352506483603e-01
6.430014278793685922e-02 4.228690585314893134e-03 4.717140462099020937e-01
8.208272885188673540e-02 2.890256661247946057e-02 4.935376965844244235e-01
7.691773155577909249e-02 3.138867293425445099e-02 4.760656503390060523e-01
7.799532584961367532e-02 3.620221520569228552e-02 4.760496748338069462e-01
2.440058049844207738e-02 2.531986819780899720e-02 4.531286358935197600e-01
2.737174732772317681e-02 5.281911030634318244e-02 4.636762281827417898e-01
2.305871769244636355e-02 3.501479428922581877e-02 4.564427803574973574e-01
8.103393742301848168e-02 5.661696044002248462e-02 4.847487235378235004e-01
9.432360646727710324e-03 4.161562602945247102e-02 4.557795609430635442e-01
6.690915271821408494e-02 2.164647496670683152e-02 5.273509598479512173e-01
4.730627266787822832e-02 5.565843855607623125e-02 4.757402249907281000e-01
7.382761934572908136e-02 4.718979832143516129e-02 5.117914458898390473e-01
6.306901625092495300e-02 1.403551637357039125e-02 5.259972515912918478e-01
7.405007875657278194e-02 5.088379562452485794e-02 4.767966708018029354e-01
1.823160222951700909e-02 -5.624124649906080652e-04 4.431788052263260225e-01
-6.791304026205494115e-03 6.856510579232010134e-03 4.429994508449122681e-01
5.587348937476183802e-02 -6.100603093332752566e-03 5.217985081288141203e-01
3.321673134311517450e-02 3.237350953997900765e-02 4.576581578022801966e-01
5.260026796185725273e-02 1.366040676328797877e-03 4.590118315929441195e-01
6.740827757575058865e-02 1.808587867570418325e-02 5.233180733926003914e-01
3.805197064214355107e-02 1.210716838378435994e-02 4.528430275048007658e-01
6.719326320730588387e-02 9.370982179026645861e-03 5.109241327104939723e-01
7.502443734572207534e-02 1.686255880155162687e-02 4.843381310663856798e-01
-2.446409305547715685e-02 -1.085185957073742102e-04 4.404019649504007927e-01
7.080026770040698247e-02 5.865409524999067731e-02 4.846310927646920175e-01
-2.850764524533751579e-02 2.114072174406347697e-03 4.415950528337547754e-01
2.583095514914875504e-02 4.615946598466214024e-02 4.606626089634487942e-01
8.279872860620850206e-02 3.033290669276991758e-02 4.928667801085911959e-01
6.517026081507400204e-02 3.107783660843860263e-02 4.693932895827028218e-01
7.705482096182852958e-02 5.763285225603356765e-02 4.828675022140042628e-01
7.983413071119722926e-02 3.124312103798011775e-02 5.077885684549076073e-01
4.563599110258192981e-02 3.628161391453064294e-02 4.632402628308252002e-01
8.049015078330860884e-02 4.398065112812032940e-02 5.071890016329220208e-01
7.972239867457682483e-02 2.446463142769630950e-02 4.847347816786374830e-01
7.892996026324448910e-02 2.065464458503822945e-02 4.917250950835260759e-01
2.644567776262707337e-02 4.628250314841142465e-02 4.608547520208872705e-01
1.746502728864432474e-02 7.322537368286306456e-04 4.434553091842078354e-01
7.951436098949507536e-02 4.260926986255092475e-02 4.781074862214352295e-01
7.727390809278607275e-02 5.852450139670026946e-02 4.962599906851855036e-01
-1.319216492761892019e-02 1.310099604328553678e-02 4.447880638578434742e-01
5.661694561620893990e-02 4.719200317910573345e-02 4.688433271768458477e-01
8.466854993988233435e-02 4.932269625313721179e-02 5.009633934572932379e-01
7.682055228347726972e-02 3.916080577359729725e-02 5.132297386836974784e-01
2.432702955994394192e-02 1.870079030745309262e-02 4.509692769785774713e-01
7.447518602103796181e-02 1.372382737776585079e-02 4.886210712766393960e-01
-6.132597031178859889e-03 4.475451307692526748e-02 4.556093147637627072e-01
6.500142031763923509e-04 3.778910317327411478e-02 4.532370010300870722e-01
1.630402027021063405e-02 -9.963939019621793555e-04 4.426524051640113866e-01
8.492462554331696445e-02 5.550385510443649195e-02 4.906278377890050391e-01
7.819988646790201892e-02 2.290327985566845137e-02 5.030764395133583422e-01
1.842755557162821262e-03 3.251517667166005376e-02 4.517373181506594837e-01
7.649121289872393148e-02 3.414874951589629698e-02 5.158928786482882556e-01
7.829388085369506922e-02 2.389537665100343114e-02 5.056773618478083154e-01
8.269760401571937813e-02 3.039599041693642756e-02 4.841051576078304608e-01
7.387382825673437237e-02 1.701727839773728088e-02 4.807302745152438050e-01
3.259385821664716187e-02 1.148687370897642085e-02 4.509307777985464005e-01
7.800394472631765053e-02 2.872910501628466590e-02 5.115513476925382941e-01
4.462776260808207218e-02 2.057066688657586961e-02 4.581176473027487317e-01
7.955285627288981309e-02 2.426640995000257234e-02 4.842573406379610534e-01
2.995541814855455856e-02 2.989710459014530836e-02 4.558923791320441676e-01
1.336776902651654400e-02 3.462545456825161933e-02 4.541411074039764517e-01
5.107811737547045261e-02 4.063431549036941592e-02 4.658546498765345212e-01
5.231856723994196545e-02 3.629765356719508174e-02 4.656655100735921926e-01
7.324990023779941184e-02 1.790494487466641471e-02 5.124564353682959927e-01
5.597598221022182657e-02 2.933765869760092404e-02 4.653742559483594055e-01
2.581750047470144846e-02 4.169982168452286003e-02 4.592491067524755444e-01
6.344469935885960199e-02 5.418033183175173864e-03 4.699234834540569894e-01
5.738436840167123604e-02 5.097016468901818809e-02 4.701502626443054833e-01
2.556781736261569404e-02 1.087266984320665007e-02 4.489304019734273177e-01
2.192816080170264734e-02 4.429286755241242102e-02 4.591921211255770574e-01
6.799558366406943666e-02 1.631922079957870246e-03 4.853079317609399479e-01
-1.373896971580347917e-02 1.469275043775574406e-02 4.455234705571214926e-01
3.150478858929995490e-02 2.826111877243796949e-02 4.557773199883102255e-01
7.371248216708971290e-02 3.071392389907869058e-02 5.212774168730393010e-01
7.918651490795956815e-02 5.701698568402134570e-02 4.832794448123373665e-01
7.309400676558022725e-02 3.610258276224279084e-02 5.188274614698462628e-01
-1.062016285680230515e-02 3.630344718022213146e-02 4.525766869391207869e-01
7.539004769692354835e-02 1.471132235665016837e-02 4.936337227588101229e-01
7.144497176927457061e-02 3.515569678275761584e-02 5.205978441880324548e-01
6.759878077964935617e-02 3.043852934176389385e-02 5.295374160195051028e-01
-1.669714549291839711e-02 4.065532960517948685e-02 4.564699138349615493e-01
7.442912617650286611e-02 1.628222050040700752e-02 5.059375247983429746e-01
8.191311617974510184e-02 5.213888612079435603e-02 5.030248454625829702e-01
8.208265170192385884e-02 2.864880297146868426e-02 4.925237100143207147e-01
6.444083443892209551e-02 6.728553682789892298e-03 5.127727891808941951e-01
3.860722744914108287e-07 1.970150511599110671e-02 4.471570867095172597e-01
-6.240787961857785504e-03 -1.810495225439851755e-03 4.399816511578935052e-01
1.603269417350811944e-03 -4.804338330264327182e-04 4.412284328383528353e-01
1.978837100611125985e-02 2.877019254708743784e-02 4.531870351281207521e-01
7.100441892173393887e-02 3.762870122904303505e-02 5.187399711832565430e-01
5.135773354664992935e-02 -5.036063520652788589e-03 4.587522651370389282e-01
5.481322498161050882e-02 3.779201383663924330e-02 4.667040949021210583e-01
6.086258459372585056e-02 2.979182731685011114e-03 5.159771064558915654e-01
-5.137599213590324752e-03 2.407809891140880176e-02 4.485746340155821743e-01
7.362549818875062380e-02 3.972814304414824110e-02 4.749865578561915935e-01
7.545872162252841020e-02 5.315002611620200240e-02 5.064016919614130474e-01
-2.973660438837322315e-03 3.890135866455745467e-02 4.531964841882860084e-01
1.585922079811940069e-02 1.096843721456297258e-02 4.469593857259201997e-01
4.115282196435893214e-02 2.043812088516685360e-02 4.566576230050788388e-01
8.435629929801746751e-02 4.173868662094493143e-02 5.001857276818052478e-01
1.575582125806396575e-02 1.057455567985894802e-02 4.468063281098947903e-01
5.439761729346949404e-02 2.634739012946543668e-02 4.639520088480519888e-01
4.556128920141077482e-02 5.284148445927693005e-02 4.675927415656540576e-01
3.799833143840690430e-02 2.110695297691524835e-02 4.557371126326230093e-01
8.210864030895605181e-02 5.401571475042900999e-02 4.824346308862634269e-01
6.000384534682235566e-02 4.899648381767663513e-02 4.703507957146610963e-01
8.902691899680360843e-02 3.990225001788180736e-02 4.855427750398726428e-01
7.435331457420989165e-02 1.992101446977820670e-02 5.128666866295333859e-01
8.694780767217946682e-02 3.457713587366322699e-02 4.840706447510637611e-01
3.020156827309465955e-02 2.142676651093421147e-02 4.534596698040805340e-01
6.991882151307904358e-02 5.576643102294430790e-03 4.932742054123691045e-01
8.033489937505282341e-02 5.897323119441418710e-02 4.877415050660744988e-01
-3.130403970228361112e-03 4.613838289145865551e-02 4.568201916889840231e-01
5.941398438636791290e-02 -3.160204661444255061e-03 5.151406084045351275e-01
8.102034842356950484e-02 3.181401675483683245e-02 5.041146772235066686e-01
8.364743089030320100e-02 5.649706562598443005e-02 4.928279172793486596e-01
6.529673466777916047e-02 3.873049165540460616e-03 5.058676964759375450e-01
7.750953559252624081e-02 3.166729758282834511e-02 5.136387558622808047e-01
3.808340908426524618e-02 4.715745411271447113e-02 4.639360044094495428e-01
3.311502404890751677e-02 3.509928587197118366e-02 4.587156115721077732e-01
4.710219206416593751e-02 1.604280162712342500e-02 4.581482107166933715e-01
5.132226564100946659e-02 6.544728723751070017e-03 4.584283476350191067e-01
5.184131768989878875e-02 1.601728942894187907e-02 4.602749090327865611e-01
6.954647721101799018e-02 1.193347625102300288e-02 5.100845069503380236e-01
3.626437556335395523e-02 5.742014730387302174e-02 4.730278646160649414e-01
5.844399641251229321e-02 5.549588429556792657e-02 4.736119325087690402e-01
5.913244720427278389e-02 -5.437874639385428810e-03 4.683471724934877289e-01
-2.135966089622402808e-02 3.621504351724118796e-03 4.417077987877853218e-01
8.715484414677050762e-02 5.221325659969899141e-02 4.897342406198326170e-01
6.438447761672784486e-02 2.000641182415215102e-02 5.294522871968222466e-01
3.458627624242596732e-02 5.756517323970852806e-02 4.730822190364338820e-01
-4.686809160283230552e-02 -1.857394863268797651e-03 4.462705389992287497e-01
8.643696507960750564e-02 4.120498148498895341e-02 4.823151515907980746e-01
2.587752844438915775e-02 2.439236014745186504e-02 4.532226758098880093e-01
-1.532862584530524791e-02 3.255801063763849243e-04 4.406139258688751559e-01
-8.790031765759995577e-03 1.396272187041332387e-02 4.449364434202373597e-01
6.217621417602668676e-02 1.409345292178756232e-02 4.662476682484924528e-01
-1.497013827702531026e-03 1.883373053723921484e-02 4.467138875907734619e-01
-1.224832446310266526e-02 4.293318973668441840e-02 4.558449777291724847e-01
5.220207011917148837e-02 -1.303048489043804811e-02 5.277250552758327995e-01
-2.790636070206158580e-03 4.027647657644031765e-02 4.535770916084879700e-01
4.637728401644423265e-02 5.555340357811211494e-02 4.745540226882460355e-01
6.706205662464045925e-02 2.099457930998368388e-02 5.267045728910231261e-01
8.543684914697284583e-02 5.078880193580651015e-02 4.827359530959128286e-01
-2.826217062853820378e-02 1.011496959391072759e-02 4.479595212386691672e-01
4.400322168184837152e-02 5.571742861853187789e-02 4.716466725880583133e-01
2.696941843879082507e-02 2.597893853053016670e-03 4.460312923927349238e-01
7.663846680286323654e-02 2.837550258686769716e-02 4.770326535612843255e-01
3.708340248729211086e-02 3.991125935486704301e-02 4.614932125854888101e-01
8.414915223813977663e-02 4.893308541743626727e-02 4.814206887049574668e-01
-9.792805289268987148e-03 2.258781559173574788e-02 4.480023242622574453e-01
9.284426804610594608e-02 4.030740578791784656e-02 4.896135328921721319e-01
1.490471891099801396e-02 4.712595063315368898e-02 4.590026361383698905e-01
8.371251138102966949e-02 3.149359033490220505e-02 4.883242430382206400e-01
3.288377555958947596e-02 4.135116550129942781e-02 4.608830981333219556e-01
1.775984232047985931e-02 3.652828569935558795e-02 4.557000483684460757e-01
3.037289526449353863e-02 1.199561094460797894e-02 4.505714150866124701e-01
5.907831622754431550e-02 4.235832454193477065e-02 4.687688148920958753e-01
2.691220644369049508e-02 2.470217694937171596e-02 4.535708883004861969e-01
-4.213150680795681169e-02 -5.664732780691066494e-04 4.410785912946973975e-01
-3.612844844156913680e-03 1.501872619601664002e-02 4.452871575822167638e-01
7.855505980040763947e-02 5.152573703947772171e-02 4.786372983119442925e-01
6.969087508145763166e-02 4.134571192835828635e-02 4.743267160501917212e-01
1.784588876089628767e-02 3.459977623167386634e-02 4.550215558412422090e-01
7.571124863508547909e-02 3.003423078330834384e-02 5.170576445312676794e-01
7.553782474406443848e-02 5.465783067458966638e-02 5.028902988507418792e-01
-2.226388063205549800e-02 1.161757939486286924e-02 4.459439339497099364e-01
7.181522673407023105e-02 9.132037987435023471e-03 4.958651120001175139e-01
6.609459784783988656e-02 1.644278798403185637e-02 5.236122151822639736e-01
5.375582132391163587e-02 1.481892089853205016e-02 4.608808275349920436e-01
6.561263627202662541e-02 5.790998500588615677e-02 4.829252595268536119e-01
1.413401466893376111e-02 2.918249999152684997e-03 4.435684934413322567e-01
2.613547150049167975e-02 2.204585211834966113e-02 4.526164034387254453e-01
7.462996962438482595e-02 4.119868755053759241e-02 4.763081898735779807e-01
5.277803722405789710e-02 6.134293085092034845e-03 4.592573224774288976e-01
6.874869051086132665e-02 1.355647027094977058e-02 5.149289033534436566e-01
6.600041863505637374e-02 6.520080085631590507e-03 5.085743863064694503e-01
6.563698075246056363e-02 -3.748916016229021306e-04 4.779788847990791290e-01
2.816319949264772110e-04 2.334127992384928477e-02 4.484545142053192324e-01
6.018282713624480140e-02 2.479417956667118866e-02 4.666928879032491428e-01
-4.380656186441164723e-02 1.163383389592643992e-03 4.438672018969249122e-01
6.187568652746863046e-02 4.309387772130791883e-02 4.699738177441264431e-01
5.640147618144375485e-02 5.693620635096229010e-02 4.776506373175943287e-01
8.015734982428118771e-02 3.732573297293995118e-02 4.775121303083421087e-01
6.128376925624400007e-02 3.901814670943001828e-02 4.688445732534505250e-01
5.685337593286950847e-02 4.187190669566435985e-02 4.679586680579261859e-01
2.644367156729843238e-02 3.515413607678380403e-02 4.572576004945106964e-01
7.874497011009556902e-02 6.103215407799494202e-02 4.882084534529957387e-01
4.254704422221426696e-02 2.873835901283669156e-03 4.528892762012275419e-01
3.842463796343141558e-02 2.978162234889734222e-02 4.586078458132692992e-01
3.487215881341439866e-02 -8.995837918240922118e-04 4.477441027126145556e-01
-9.783840530101169802e-03 1.482513791747472678e-02 4.452282464942449169e-01
7.451514727233241042e-02 1.808730018199219969e-02 4.809377166665156356e-01
-3.370329866974512700e-02 -6.546233902402710976e-04 4.403621626518499643e-01
3.341236638821319660e-02 2.535029284370483166e-02 4.553625660265251396e-01
6.406545935349174103e-02 8.583603989214936072e-03 5.165142588982499783e-01
5.990299459847072544e-02 1.081086268555168754e-03 4.665642565773598927e-01
7.804208481538243980e-02 5.763948974609432729e-02 4.830903986906658898e-01
8.321537019829954029e-02 3.710282200962483623e-02 5.004425541299111213e-01
6.570807255467642216e-02 2.653539775025579028e-02 4.699341377315550683e-01
5.197567829282375568e-02 -1.151173914399061457e-02 5.275263272428930561e-01
8.416322048434216052e-02 5.338206937697005661e-02 4.833734620188763209e-01
7.913813054962695603e-02 5.447422873756830458e-02 5.015154600388677109e-01
4.350463153447745729e-02 3.573262561719883074e-02 4.622276246856558135e-01
4.660772160851668622e-02 1.127441892698180341e-02 4.565155475635786497e-01
1.047798641149275470e-02 6.057946231541676274e-03 4.443553411004092513e-01
4.756202222083025233e-02 5.094916560331092664e-02 4.674840430785583978e-01
8.094305547764318876e-02 5.018584803433250724e-02 5.053946338266548377e-01
1.615729240691153243e-02 1.339723876738189469e-02 4.477719607517629541e-01
6.451191405513097277e-02 1.757008069694851460e-02 5.273149566436811098e-01
7.541705169307000300e-02 1.475768294009452766e-02 4.931063725782612317e-01
9.561414508898536876e-03 4.919334851057615560e-02 4.598304775138484790e-01
-5.111908915106867096e-03 6.687107455588035473e-03 4.431151598076256137e-01
6.451409176655355238e-02 9.726290186333974574e-03 5.175486918241289924e-01
6.672827039379655711e-02 5.125332376423810329e-03 4.756877769745955220e-01
1.499221273708104159e-03 4.945974171896592303e-02 4.639206009573594858e-01
7.515602374428030641e-02 2.144436780938812487e-02 5.128309398633573712e-01
7.084741972325724058e-02 2.215360889214831874e-02 5.221768100741176477e-01
1.003056603275979952e-02 1.632615594907299919e-02 4.476864407814027391e-01
-9.126856091956710507e-03 3.796618955243122751e-03 4.418457599957800186e-01
4.423597027036692275e-02 2.121034650671061589e-02 4.581000015502699751e-01
3.069506846396037256e-02 -3.623288527279107211e-04 4.460738447938449869e-01
7.405830804391712319e-02 3.837978510574270585e-02 4.744716239645748179e-01
1.728415713683214075e-02 2.673025776095454970e-02 4.519736268433434123e-01
7.932752109754237502e-02 3.688400304489772297e-02 5.103181238847268597e-01
9.814641357506344657e-03 5.050064474192345748e-02 4.612403168940351628e-01
3.540349918835586362e-02 6.703649005562390718e-04 4.485420164638394547e-01
-1.814769482336759179e-02 1.960639819642529674e-02 4.482828726498380711e-01
4.765512194908622795e-02 4.883096439855988402e-02 4.669061247745199261e-01
7.804713609536455265e-02 2.256210734653678676e-02 5.036219388814326958e-01
7.462445293764774501e-02 1.654961177843911752e-02 4.836284136940463552e-01
6.685452827092537575e-02 3.352112366698480062e-02 5.254459085616732805e-01
4.984275582861250053e-02 5.338053099420259073e-03 4.573702678007686151e-01
9.211947008824519778e-02 4.168264490745139661e-02 4.878321932073580447e-01
6.232374120036229814e-02 3.517951306557372954e-02 4.684705366535303894e-01
6.860688831620066763e-02 7.405659572578595848e-03 5.025349440557637104e-01
7.574102694818386772e-02 4.617818556118039736e-02 5.122470843963243814e-01
6.240671877293417491e-02 3.120326772535592444e-03 5.123920040445497648e-01
7.451808823316959096e-02 4.653895288016710041e-02 5.121914684295393316e-01
7.368691953097475378e-02 2.993988364052894979e-02 5.211860293189773952e-01
4.386902498480600709e-02 3.003162454982903629e-02 4.608213918886508442e-01
5.502255928861370105e-02 -9.037904891145033884e-03 5.238319069335964917e-01
3.487714695285548672e-02 5.606954050513610066e-02 4.677750878125759848e-01
8.621102527606480659e-02 5.185547399641352029e-02 4.966591483750605329e-01
7.786894181207774934e-02 2.296978712419113153e-02 4.815201963729627277e-01
4.881709055956195975e-02 -5.627164113191029070e-03 5.281884634079271335e-01
6.678691704563134712e-02 2.005944638998873736e-02 5.264192231823547896e-01
7.827028853395552599e-02 2.522071258363123292e-02 5.080499090984595956e-01
3.201254774287278643e-02 4.626728201960994546e-02 4.620987843116734495e-01
6.708561489551155554e-02 -2.698287514766295296e-03 4.875321087311088042e-01
1.279965326085353433e-02 4.872280594075734800e-02 4.598260157795003855e-01
2.691173457704744768e-02 1.819785385938732514e-02 4.515033543173515573e-01
9.278742366164566963e-03 2.949323966744376788e-02 4.515596203892097149e-01
3.545946036253083689e-02 -3.543474514078456903e-03 4.472617285499491668e-01
2.223649715579476688e-02 3.284992958956947651e-02 4.553266280715989600e-01
8.320111300343197014e-02 5.606354561836918160e-02 4.864575597734671630e-01
-4.890625646701856136e-03 2.982927801172362628e-02 4.505893608952524221e-01
2.448848274209397893e-02 3.480519938428322524e-02 4.566853660886145971e-01
9.003712037923357336e-02 3.839358805860250412e-02 4.892371161649503586e-01
-3.382022558925648105e-03 2.076882782403079164e-02 4.473759671291081541e-01
7.005447486098387300e-02 3.838865108563382228e-02 4.728640020836023528e-01
-1.131547437765718922e-02 2.796981380617927226e-02 4.499775295630623617e-01
8.059899414672547224e-02 2.510735649108623846e-02 4.916435713328933255e-01
6.212795416746465238e-02 1.008492949964677823e-02 5.232651015863787336e-01
1.053377035503677214e-02 3.508748147192135985e-02 4.538542340793509378e-01
7.933922767217888028e-02 4.452627728549520686e-02 4.784541009854492155e-01
3.485155725499110291e-02 4.194870465738854970e-02 4.615959850766751527e-01
3.770687210135986039e-02 4.191136413299344221e-02 4.623268564114909052e-01
6.035580863168325122e-02 -1.066735434877099254e-03 4.679612264659902543e-01
-2.876827005243237645e-02 4.456628428108847656e-03 4.427146688057815305e-01
8.976914115147748008e-02 5.115322899391663847e-02 4.885185067871143927e-01
1.817149525776161345e-02 5.115819847123501130e-02 4.618263652602536129e-01
5.164727215207455535e-02 4.965326062502983806e-02 4.680738407766906195e-01
3.141846832893335772e-02 1.451622839850793233e-02 4.516728614315141943e-01
2.359066031477295971e-03 3.947151895277916517e-02 4.539669275566404205e-01
6.688486532131604489e-02 -1.172807674019013015e-03 4.935846410605946866e-01
7.137807160044443155e-02 1.366189987152851074e-02 5.092674926644729094e-01
7.132837035802663816e-02 1.966315915336674588e-02 4.748323124007606255e-01
8.472875809386193335e-02 4.850790312842779423e-02 5.009574568491924618e-01
2.685034019412925119e-02 3.560838799353736872e-02 4.575429802417583236e-01
7.856224306250930711e-02 2.145782292169719566e-02 4.876604618504435940e-01
4.591013440244187671e-02 5.545948529484847483e-02 4.735725759479201824e-01
-1.664844935556106589e-02 1.469892628275894925e-02 4.460534410477614009e-01
5.612605228524376877e-02 2.377913930328657763e-02 4.643466647700907335e-01
2.941129584365615585e-02 4.949157594764723445e-02 4.627086472908426562e-01
-7.687622080307565144e-03 2.911575213274661400e-02 4.503018366000517969e-01
4.186290540597398246e-02 5.442684905526901096e-02 4.680325143873030891e-01
3.907162940257230543e-02 9.261458789844361980e-03 4.523892293879742676e-01
6.133551420939239301e-02 4.983825296372379476e-02 4.710074393675166560e-01
4.692295545445261673e-02 1.042702419013768686e-02 4.565111180667666413e-01
5.538375461149457751e-02 4.298856400530448423e-03 4.610843534536728794e-01
6.256876702348543318e-02 7.946461459357045606e-03 5.190324494756708429e-01
2.987831404495255166e-02 1.591857858544393038e-04 4.459969324407345725e-01
8.113931062709106579e-02 2.647074690502305983e-02 4.868340015969099821e-01
4.332452931407299729e-02 6.574701431074699877e-03 4.541610222798532770e-01
1.156133628379519065e-02 2.172966805654879402e-02 4.495505861645129886e-01
7.601651358498950906e-02 2.243276273710734237e-02 4.796351058658682720e-01
5.687164778280221281e-03 4.178259750927177524e-02 4.551812502783089687e-01
8.469094886053038507e-02 5.402339833059001395e-02 4.844679674574201567e-01
6.230715492563404512e-02 5.433157621416293513e-03 4.683961532915149606e-01
-7.870436263567731627e-05 4.918837199707357111e-02 4.604011202674590519e-01
3.280981949933917119e-02 2.074217364762107399e-02 4.539673033549175285e-01
1.565184543398172659e-02 3.822141659657579682e-02 4.559428032513044293e-01
6.767935570990318839e-02 2.525152878580678995e-02 5.288217381888244972e-01
6.634359413436721753e-02 -4.167856143646723154e-03 4.919676599373453141e-01
