5.329375877140955786e-02 -4.981460005703323285e-03 5.242751499717240860e-01
-1.918643142390995954e-02 3.117050404929271046e-02 4.525289838913829077e-01
-1.425315617956175208e-02 2.265269175936782814e-02 4.483114711847994704e-01
6.237296221953810699e-02 5.767877431635077407e-02 4.802153407644491057e-01
7.531591577052164366e-02 4.042381724501382945e-02 5.146838894921345053e-01
9.450485361285133543e-03 4.506172520689579603e-02 4.569909785132157953e-01
-2.522219389675775178e-02 1.218392283642465157e-02 4.472522305527472652e-01
7.647025526435731468e-02 1.713142116386356592e-02 4.984309129135341410e-01
7.711409893218176825e-02 1.852628655099399987e-02 4.882432768494513464e-01
3.080745095736663053e-02 4.102609673524500872e-02 4.602386019994643140e-01
6.675838491667260288e-02 3.076145746701584166e-02 5.296460095467170337e-01
2.349232354497652817e-02 5.212918765592339243e-02 4.628572390370902512e-01
6.060138041173918771e-02 -3.511696125766687777e-04 5.139195025364088343e-01
2.138519818860983718e-02 4.255267633256398091e-02 4.585358492687028886e-01
2.606164632200000039e-02 2.810764318524885171e-03 4.458928853156368111e-01
5.856577906479237122e-02 2.275935633059184698e-02 4.657233983373276764e-01
4.444880668492793424e-02 3.106217261878734676e-02 4.613914226622347625e-01
1.365078358499374755e-02 1.355120500213815443e-02 4.473986149752541830e-01
5.920130950511586637e-02 -8.172977004854953785e-04 5.165419909301659507e-01
4.215705955534737592e-02 3.340740928017297152e-03 4.528134164732600664e-01
2.110745624317422048e-02 3.811179025951000506e-04 4.440548534447927853e-01
6.931020820917944969e-02 2.358990136092447773e-02 5.254621797070102573e-01
6.748389968276670425e-02 1.040382943203584792e-02 5.121102386794562644e-01
7.241890963636991863e-02 2.365876326993965328e-02 5.211026382128166601e-01
2.729455516767093082e-02 5.762222100581549517e-02 4.693746437118694881e-01
5.466553948591430095e-02 5.510028557247040326e-02 4.733761966272739818e-01
5.859175227850753342e-02 4.858691478327387125e-02 4.697983246543097624e-01
8.246136231497593061e-02 5.763147970685056354e-02 4.907943339896753687e-01
8.147260300553191281e-02 2.945976534273478734e-02 4.982292246301084360e-01
3.895912681652557302e-02 7.091180970128164313e-03 4.518266661377668969e-01
1.241808955276169774e-02 1.723000131875010790e-02 4.483363849674320001e-01
4.944724904117466652e-02 5.610723314735878431e-02 4.768121383088644305e-01
8.612386977163218049e-02 3.709632137925251982e-02 4.909796212171338436e-01
6.013130594051866590e-02 -3.371643830667557865e-03 5.133484895475426413e-01
2.383016226902884456e-03 3.842992341946998430e-03 4.428471171886793623e-01
6.864575648034697275e-02 5.038413013920769318e-02 4.746751459547330909e-01
6.822559582549531099e-02 1.162901647668454150e-02 5.126716645834283881e-01
7.457524388019537431e-02 3.077802873575127135e-02 4.742453660484561850e-01
7.115536165113794942e-02 1.019012872373611933e-02 4.825765348536168453e-01
3.733730704623091506e-02 3.312231725146361216e-02 4.592863880285426026e-01
1.584551076720645477e-02 4.313518360510451913e-03 4.444165992347924310e-01
5.550728793027585178e-02 -7.480158387748500615e-03 5.227071048524425390e-01
5.062826092648995552e-02 -3.154049738033644964e-03 4.578519177032544518e-01
4.349834451991469592e-02 2.735684499351902915e-02 4.596990663749102590e-01
6.780949373172079353e-02 1.964068755683377222e-03 4.835879559413597817e-01
5.345843272925552420e-02 -2.959777657352679042e-03 4.601785433439196105e-01
1.841331836899963437e-02 6.306522101088020069e-03 4.457122912005080373e-01
7.808643136588735989e-02 2.736130155776975853e-02 4.788931250649798299e-01
6.528009928791922434e-02 1.045227949422749061e-02 5.170881331725469821e-01
7.753806378128899959e-03 2.746380607320462325e-02 4.506344105771555864e-01
7.262085535704813910e-02 1.302232422296278197e-02 5.052379661138494127e-01
1.296252321577704564e-02 5.050673390245800920e-02 4.610697611759922432e-01
7.489618615166901416e-02 2.658301928449599213e-02 5.178648681701533141e-01
1.130094032812965776e-02 3.027014407698965653e-02 4.521511539795251555e-01
7.421095852445917795e-02 1.807833469953921274e-02 5.100767160046159043e-01
7.526314991579728664e-02 1.468636474873174537e-02 4.895216489905647728e-01
6.772863713519057527e-02 5.278397923050626162e-03 4.779917656101558832e-01
-1.881323400381432198e-02 -6.978711165761116927e-04 4.404693531216383184e-01
3.946798000956706909e-02 5.681510843418742518e-02 4.722999406772447339e-01
6.357290613758877218e-02 6.460144429153349271e-03 4.695360205866925818e-01
6.667865963650873584e-02 3.042184982039242494e-02 5.301089516080876862e-01
3.691668694850211430e-02 5.415084648939327144e-02 4.662824638519418308e-01
6.907306942470363420e-02 3.151464754423807801e-02 5.265711611144473503e-01
6.059834631946114242e-02 -4.430606219292976267e-03 4.699197290981733666e-01
1.696069977654193067e-02 2.037759915778028161e-02 4.501032538997627452e-01
2.924635078852626940e-02 2.511848725806170579e-02 4.542739417757513110e-01
2.566019897087225797e-03 4.306982777145915847e-02 4.551680139622069077e-01
6.762883140250242758e-03 1.812174313594117764e-02 4.476876350770105373e-01
6.083058758767277696e-02 4.449278566028381371e-03 4.667597919349545377e-01
7.904820014210554857e-02 5.369083519234840729e-02 4.800510250673447610e-01
7.262196003834825442e-02 2.681096743400943408e-02 5.225709984350642712e-01
-1.684653012135569131e-02 1.711588113316927715e-02 4.468888120916497675e-01
7.676680222307818990e-02 5.484376613808373407e-02 4.798683793338698877e-01
7.039311915972680522e-02 1.669406868952773293e-02 5.165383128661416023e-01
1.211446091376757253e-02 1.424894107884655536e-02 4.473531255996902045e-01
3.357768377714676067e-03 1.712295932814244040e-02 4.468985838142292000e-01
4.152591120525567225e-02 5.009545521603672030e-02 4.657179960385083861e-01
2.381937461472967074e-02 2.431977941420721684e-02 4.526932702994831415e-01
-7.348229419199126325e-03 4.049784964739403664e-02 4.535756195730434315e-01
1.210838076037499406e-02 5.214533889200571176e-02 4.635090790623556112e-01
6.127813160047671653e-02 1.438097488062638858e-03 5.133561581650497585e-01
-5.666330226804986055e-03 1.684225641645952648e-02 4.458740993580281309e-01
7.839985428854563676e-02 3.712064954224805757e-02 5.122588447456637439e-01
-1.113363197836375346e-03 3.734251233600573844e-02 4.529096527299541486e-01
6.459968209798909455e-02 1.247997934325033136e-02 5.216503674483953246e-01
3.995989215990328886e-02 8.247259300407370694e-03 4.524650442811444240e-01
6.437173334401619096e-02 1.926273012642778365e-02 4.687192151281784347e-01
3.058557074092989325e-02 -2.134046970207242790e-03 4.454813362123307141e-01
9.251847600525248128e-02 4.613664770193528358e-02 4.917979956679186526e-01
5.846952095026294177e-02 3.115567661773683758e-02 4.667036713723687336e-01
7.322888483465490872e-02 3.771743035661086901e-02 4.738868085485691828e-01
-4.319341270485064013e-04 2.040726970962985880e-03 4.419572163593750713e-01
8.848054057690243890e-02 4.554526111001225980e-02 4.959619601566460090e-01
1.115453204475973410e-02 9.385042932853429609e-03 4.456302214141943940e-01
4.644685803099513760e-02 5.549813634104133059e-02 4.740994934410913686e-01
7.107218712445900755e-02 5.710231145806511643e-02 4.947483149205977315e-01
7.414239186406894333e-02 3.985215586774547292e-02 4.752531160404356303e-01
8.954413287389978438e-02 5.014800729026366866e-02 4.904337828485113571e-01
4.938802072907620688e-02 4.484100266323979428e-02 4.662498576956409235e-01
3.507386282242293263e-02 5.486459768274217635e-02 4.665671946201054299e-01
6.968119159065047641e-02 7.221111970626613481e-03 4.821009206637978939e-01
7.742135070623060167e-02 5.181399610045615139e-02 5.069165378300537483e-01
-4.155710647073836833e-02 2.421928206306441390e-03 4.420551921556980512e-01
1.224044233797437313e-02 1.631414454754515075e-02 4.480198854914228535e-01
1.119055055644795592e-02 -2.411033150143218097e-04 4.420916731838348546e-01
8.324966654780184550e-02 4.024313601035845595e-02 4.791294594602421020e-01
6.304978431280243434e-02 2.021373493509012655e-03 5.091710000440929917e-01
7.360703881548200100e-02 1.378591776756083603e-02 5.030952334227765110e-01
-2.268698565557895896e-02 6.167958864372501820e-03 4.430010670427930175e-01
-6.396943250431687961e-03 1.073592447337835300e-02 4.438943318052613884e-01
-4.436693882599323721e-03 4.605084483742571955e-02 4.567068148841075814e-01
7.529015439620692640e-02 4.747262350528875380e-02 4.764204090981426498e-01
8.342064391867889950e-02 3.211611338998088955e-02 4.926591961071326575e-01
5.059349853688895060e-02 2.996542663668191539e-02 4.635420720207492074e-01
4.772450300140942264e-02 -1.183540192108272805e-02 5.316907074137263711e-01
6.473901923304352379e-02 5.237139309678476989e-02 4.740185766816161772e-01
5.508030116366573192e-03 3.207878128305101384e-02 4.519788100964510225e-01
8.923717177617557228e-02 3.744543911776969380e-02 4.853170425758472351e-01
6.564354119159147849e-02 -2.970893602534669352e-03 4.978606396348660978e-01
2.569487269894749765e-02 4.932146093559786060e-02 4.618372585247504936e-01
6.794443581553440137e-02 2.258521370394785469e-02 4.710703939921309646e-01
1.280566308490980673e-02 3.440071350612167178e-02 4.539560019521915457e-01
1.979741354405917600e-02 5.273548164153660234e-02 4.628747106691768476e-01
-1.664552261009662540e-02 3.421992432355337038e-02 4.526856762922846222e-01
-2.466863476648487735e-02 5.103625292643693655e-03 4.426486125553710238e-01
-1.048782703591927962e-02 3.344951273237976863e-02 4.517261498370969686e-01
3.903199801914778583e-02 5.497922070100291075e-02 4.677568172411444292e-01
-2.590362058208580884e-02 1.153434767657347468e-02 4.473075367202516972e-01
1.860144891102199355e-02 4.520098039499521880e-02 4.587103101786983439e-01
6.651306427507064356e-02 -3.077267620592209416e-03 4.929894575913549293e-01
6.944580217321061344e-02 5.445778100659583870e-02 4.769417724626817123e-01
6.338539279202277943e-02 1.625428527121879074e-02 5.276426566363561221e-01
-2.769533994395094283e-03 1.982870049908383794e-02 4.470424125619388289e-01
6.984862268194788615e-02 3.789660522054833641e-02 4.724719875109047451e-01
-1.896777704781930571e-02 2.356980431607238677e-02 4.493251818108421891e-01
8.007756144314512325e-02 2.376257496689411844e-02 4.921269121408902159e-01
6.700556804124707666e-02 -1.169428273593527308e-03 4.848686782374116433e-01
9.103401903906675752e-04 3.092368740446466840e-02 4.512048131918565130e-01
3.469912289967358454e-02 5.342404020388386542e-03 4.497604382506802390e-01
7.049319805409574868e-02 2.235971389958293573e-02 5.228870497176354437e-01
6.405919049566960455e-02 1.221459875077357538e-02 4.677029917563989558e-01
1.806482397251923510e-03 1.168926382976983279e-02 4.450749288675792115e-01
6.695469902379758143e-02 8.131497184582621440e-03 5.088983265062041461e-01
2.453599152178033080e-02 9.144306276655814192e-03 4.480543385754161001e-01
8.494163764767098668e-02 5.530642906160623123e-02 4.936917371570494484e-01
8.424949762890564242e-02 3.419008261108600483e-02 4.926687726799497402e-01
9.241631509840869674e-02 3.933351385437074133e-02 4.877034591497083627e-01
1.862356580944900600e-02 2.384307097659136426e-02 4.514097475668473192e-01
5.810458944041384244e-02 2.090491997574570049e-02 4.652417589680477583e-01
2.163825299860368256e-02 6.918623962959383721e-03 4.465982287942804052e-01
7.691766443553571531e-02 3.812303653637644230e-02 4.757451498112799659e-01
4.657340544008670841e-02 4.826957750427182670e-02 4.664865535845747480e-01
5.052080554717253841e-02 3.715107525677863870e-02 4.651470931921754537e-01
6.079181115826267495e-02 6.750874662033277615e-03 4.658921880692127870e-01
3.109066925525804520e-02 7.389584588993993591e-03 4.489861323057033338e-01
4.800774101657574733e-02 3.337834423700904857e-02 4.635004684009717546e-01
3.175854279116761131e-02 4.617358413514145721e-02 4.620289236674823830e-01
6.580923818450853946e-02 -3.655226435777224336e-03 4.825169637969900505e-01
7.436807885988831746e-02 2.209805936694071715e-02 5.153865150353753588e-01
7.192374929981139309e-02 1.586538407480881513e-02 5.119011017292149912e-01
-1.520983370840867620e-03 2.627021460423963409e-02 4.495101173437343611e-01
6.939628331123237626e-02 1.572389522620322444e-02 4.739368708975432165e-01
5.576856823034912619e-02 -2.942702165192720778e-03 4.625491924069138339e-01
8.142594085115567593e-02 4.210496995276852283e-02 5.051252775041683574e-01
6.091092810398683610e-02 3.554533538176527559e-03 5.167145523023908282e-01
6.391411875988854685e-02 2.778411988176698183e-02 4.688221310295108690e-01
9.526876155851239994e-03 2.852426436347518107e-02 4.512383125728803845e-01
3.177624341964632032e-02 2.236680062032530419e-02 4.541121726275396120e-01
7.155490598173219752e-02 4.173827361744388009e-02 4.755333693378341331e-01
6.377487135994031053e-02 9.537139810897972067e-03 5.190459495351282815e-01
7.772398754391725284e-02 2.185423150108373874e-02 4.821202068635542792e-01
7.113418102477654659e-03 5.502674729496309647e-04 4.420858113929663769e-01
3.697828081516576354e-02 -3.514136454954879928e-03 4.482644845421485669e-01
5.000564929418119947e-02 5.510793132335068539e-02 4.721627518583988437e-01
2.643762094064381306e-03 3.773353102491609073e-02 4.534747257075923965e-01
6.383239512454313980e-02 9.206654538170681076e-04 5.060206738305710328e-01
1.630266546945568704e-02 1.276239892558009813e-02 4.476042514867772937e-01
7.083241529757497434e-02 5.107910302534815483e-02 4.757198998970099124e-01
5.215324016008566349e-02 -1.147017007450603851e-02 5.273495074027068075e-01
6.636614369606642916e-02 3.845857150711813090e-03 4.759599513238071955e-01
9.374951771920818355e-02 4.447491177264761841e-02 4.905281281638152469e-01
6.772582281450857666e-02 7.519823118950132862e-03 4.757693314145925445e-01
4.823498536263694236e-02 3.815494848065425354e-02 4.644692429888298557e-01
7.243487980941018534e-02 3.939094192496873925e-02 4.743568332920077846e-01
7.311324360844555226e-02 5.510853550673329437e-02 5.032093332470045643e-01
8.136810212533783504e-02 3.198116731751177166e-02 5.030072353712916611e-01
7.940396703399567324e-02 2.890068681913914375e-02 5.064230109700523785e-01
8.516607529424294332e-02 5.077948776975479972e-02 4.825777391045449338e-01
4.198113261472917468e-02 1.691516186863453036e-02 4.561742605258887195e-01
1.950726770675192262e-02 1.574535588372051598e-02 4.491055520169723314e-01
-4.853055500736501091e-03 5.515641840135610333e-03 4.428153347922555993e-01
7.356182559045763847e-02 1.157548910885409545e-02 4.899892102431512853e-01
8.931046770965053727e-02 5.065875832706759341e-02 4.897817595782743005e-01
6.125302766682367422e-02 4.785151777790969813e-02 4.704323024271544473e-01
7.704379621290784186e-02 1.836167106781361538e-02 4.987515828349410318e-01
-3.797395594959269635e-03 4.128442211212755841e-02 4.537812504450128848e-01
7.088628720002462802e-02 9.952601826418529252e-03 4.820001181311532323e-01
6.690090933872169798e-02 7.453187166619142968e-03 5.076238814834956870e-01
5.513638553835361472e-02 4.179865750097148253e-02 4.673975322651736652e-01
6.582575628045185534e-02 5.578286724318805984e-02 4.763969701412320568e-01
9.006750478673490601e-02 4.156871336519851745e-02 4.941242780381375210e-01
7.999552935680979970e-02 3.939090977855987108e-02 4.777706426702084674e-01
-6.160655552703397063e-03 3.268134973348030964e-02 4.513510938916485138e-01
5.680281902571227004e-02 2.960570408631587463e-02 4.658705208903419770e-01
3.834440846951623488e-02 5.685073777889963764e-02 4.705319897049878852e-01
7.688985935821213147e-02 1.797580791829755248e-02 4.972928534739492479e-01
7.678978465165749168e-02 3.951030095662381308e-02 5.130891718672148105e-01
3.725653294668627991e-02 8.456497198466663562e-03 4.515467417156630581e-01
-1.604866188038264058e-02 1.681463967069427023e-02 4.466445145297757158e-01
6.462949831529850309e-02 3.953020144900523669e-03 5.079822134557093749e-01
6.258602818353012354e-02 -3.166376017066182061e-03 5.074789594541851967e-01
6.494286400523989478e-02 2.809272045524382252e-03 4.737300698776311103e-01
3.100167131687536770e-02 4.249796860836419637e-02 4.607402576078303280e-01
7.651160441229765130e-02 1.985435578687462857e-02 5.054708537146580527e-01
6.701600213299063746e-02 4.786699683369543407e-02 4.730317385688413978e-01
3.302533087764460053e-03 -2.826271223989743411e-04 4.414515770031840480e-01
6.478771724016785249e-02 3.714426371206309974e-02 4.700404412359800443e-01
6.576127460726120810e-02 5.343635696963428168e-03 4.736277698787533796e-01
6.659843902427588225e-02 3.304806297762055700e-02 5.263900999138654280e-01
-1.247498920233777037e-02 3.262849838676887965e-02 4.516487510936104122e-01
5.502627584979835618e-02 -2.543560800381881263e-03 4.613149940183303710e-01
3.118645819213282724e-02 4.312210301458276746e-02 4.609720238823943328e-01
9.213646461493880946e-02 3.939283198118805063e-02 4.883446692162881630e-01
5.230199863660422305e-02 -3.418239205485979794e-03 5.246777653382229678e-01
9.223815149953044912e-02 4.279607654144470391e-02 4.879208180184913535e-01
8.061436546209442555e-02 3.910760952834437670e-02 4.780030335291807764e-01
5.834369113898163484e-02 1.555969881455014983e-02 4.637430058838585833e-01
-1.937770941368713307e-02 3.705185292590049140e-02 4.546303942343145055e-01
-2.597377035766045006e-02 1.277515799736836551e-02 4.480396176933880148e-01
8.187479609008989356e-02 2.894910184709013207e-02 4.951000438190746311e-01
5.397366043780892075e-02 2.625324296369335730e-02 4.637117542038750040e-01
4.515675887545670536e-02 2.447495016404367674e-02 4.593188975049514178e-01
5.586929296327444727e-02 5.601925514234346037e-02 4.755616085170997764e-01
-8.874423733882325777e-03 4.449323339789850590e-03 4.421330490770083443e-01
7.932164942821762210e-02 3.124189545441109425e-02 5.091215724547712984e-01
6.310113791986544929e-02 2.731891505457294256e-03 5.101695685446751005e-01
-1.213330281052152348e-02 3.514705481675108132e-03 4.418254212306882978e-01
6.723960786724758609e-02 3.373053967967220255e-03 4.789659011645490128e-01
8.071354530304362951e-02 2.603123809262227611e-02 4.854184519997968295e-01
7.128111465391978596e-02 5.878136055155388368e-02 4.838065967776852272e-01
-3.926636184948633507e-03 -1.612647715215592518e-03 4.403129211836920853e-01
1.036797365918158513e-02 2.609184779791664036e-02 4.505988017694121939e-01
7.866026282654418889e-02 2.192181056972430930e-02 4.960682316131351799e-01
9.416672986166500087e-03 3.290587404057610660e-02 4.528351619872622580e-01
6.004173639938543972e-02 3.139051590205474418e-02 4.673268230780007748e-01
9.345110482377144701e-02 4.427042247161015742e-02 4.897932815274397278e-01
2.317424388575718350e-02 5.225064897252127555e-02 4.629012759242164821e-01
6.473308224263922550e-02 1.248179692509918635e-03 4.742672123442048249e-01
6.615734148188039121e-02 3.074519796806936614e-02 5.300238818335084590e-01
-1.031850973790922332e-02 2.239608332272616242e-02 4.479687257420220670e-01
3.323864266228433555e-03 4.952459114894330189e-02 4.630985754606058435e-01
6.694641069257727117e-02 -1.746038355645132371e-03 4.853938592389616113e-01
6.777374326785137737e-02 4.620167830830632094e-02 4.730374670527687786e-01
2.365283151640730497e-02 -8.229639759798953319e-04 4.441345443391918613e-01
3.845381593061957676e-02 6.564033580838323986e-04 4.503396253634156521e-01
1.954940091577470410e-02 4.257255014597353254e-02 4.581199294569870961e-01
8.575597398652497205e-02 4.842723172781364382e-02 4.823389276687348182e-01
8.063333723412988152e-02 5.913966172952214023e-02 4.924038604237823691e-01
4.364146263023881839e-02 -4.311775375917224762e-03 4.526977634158735886e-01
8.092242551191586308e-02 5.040743051903624761e-02 5.054265432017446269e-01
8.006046281093623374e-02 2.560228355466470304e-02 4.831589984639543256e-01
1.644276574228870427e-02 4.747290165968001685e-02 4.594621161069261106e-01
7.535543795910885911e-02 2.960066906088526170e-02 5.176388110235002893e-01
7.285844170847914636e-02 1.491089770193267453e-02 5.080387389476128668e-01
-1.489021009808196710e-02 4.515067439664915798e-03 4.420418416425881958e-01
6.684293334994953484e-02 -2.644757319751570024e-03 4.892340465425947804e-01
7.640100984672028306e-02 1.952392933152508753e-02 4.838629871343668176e-01
8.897233781937742558e-02 4.333348420807991985e-02 4.954475141535582550e-01
-3.621976690062479742e-02 3.258663788437090540e-03 4.443188575022410380e-01
6.811002767614869613e-02 7.113066564547841988e-03 4.767970362633413006e-01
-1.303598918729053854e-02 3.759015284646461535e-02 4.531194402578007097e-01
-1.759613280082393191e-02 3.882224967156281542e-02 4.545493388059494988e-01
3.313050029097472371e-02 4.486671083626692091e-02 4.620066491420725674e-01
6.606401584692961348e-02 -2.630937353377536293e-03 4.964527471655961754e-01
1.433569890503568964e-02 3.626391325031731727e-02 4.549888316927791498e-01
7.759557827933180607e-02 5.524229337603540901e-02 4.804242176614115234e-01
9.192803939492916188e-02 3.983124840691885937e-02 4.896951708963792060e-01
5.373678414694614547e-02 1.255032196389814676e-02 4.603945346851696652e-01
7.065175492314405836e-02 1.945427940547372198e-02 4.740736182059162029e-01
8.051554025411759852e-02 2.754279424028862472e-02 4.815093593963385987e-01
7.955594788923767147e-02 2.415269671053561079e-02 4.849949695934119842e-01
5.684838587068644089e-02 5.396365461913580491e-02 4.720888457397593441e-01
5.152984780569706130e-02 3.195783983572225706e-02 4.646744136694757610e-01
7.580703689151573055e-02 2.603194083127641917e-02 5.157466529898672158e-01
2.929057786946731579e-02 3.021518776661397121e-02 4.558255557303945160e-01
6.680310122098227776e-02 2.947363680458630480e-02 4.701485830150171075e-01
6.024347045135073492e-02 2.542296458192281478e-02 4.667813536676062580e-01
3.459285624520722774e-02 2.849670402856582796e-02 4.568106962116796899e-01
-7.228606255535758619e-03 3.091609468125063043e-02 4.508714569275584227e-01
4.508411226352050660e-02 2.973785783411557471e-02 4.612073398715075823e-01
-1.681585622171563599e-02 1.989476596229833999e-02 4.479536279343555583e-01
5.343779383435021818e-02 2.952920321231113782e-02 4.645114844087366857e-01
5.500581893137749395e-02 -1.148952691917848844e-02 5.245880691674564833e-01
5.297288126062030256e-02 5.044481979860696019e-02 4.686741607566978773e-01
-3.337775930429458596e-04 2.813706449725256187e-02 4.501650732805768107e-01
-9.966334774114193190e-03 2.646975512772014802e-02 4.494796064650289358e-01
6.442068472766585008e-02 3.507134922709351232e-02 5.228657570457646564e-01
2.756431081637708211e-02 5.727838440141643644e-02 4.681541909484437936e-01
5.092863496891353314e-02 -7.286138275737618665e-03 5.272420679806338883e-01
1.169809510147237774e-02 -1.660366192892777631e-03 4.415743979282495957e-01
7.421367484885862953e-02 5.236386764157039547e-02 4.774564444349859715e-01
6.155756435698526985e-02 -7.513413369768370473e-05 5.115839696018025240e-01
6.667286463643720684e-02 1.027063479473296070e-02 5.136239064493197670e-01
-1.448583250081433675e-02 4.191514787197540143e-02 4.565124902822844666e-01
8.797236780201229955e-02 4.053073106287259642e-02 4.846017869686521928e-01
7.153526833759374370e-02 1.464452427368341351e-02 5.106354621528161886e-01
1.184671847880564705e-02 3.857341286101954002e-04 4.423829650353010567e-01
4.736807771450600446e-02 1.379217465204862769e-02 4.576100811566506943e-01
8.471834984810816538e-02 4.463481823145739463e-02 4.806984014581247577e-01
6.931893932765566778e-03 -1.809546679702864289e-03 4.411760516851293001e-01
5.403753638127493236e-02 -5.744356739376210372e-03 5.238469327007987397e-01
4.270782042788579674e-02 1.797928608585961513e-02 4.567234675489899032e-01
3.749676243384261060e-02 2.588138757956353481e-02 4.569141049260853626e-01
7.735165059966456202e-02 2.324565823443158069e-02 5.083809385911416401e-01
-3.311330648972905105e-02 2.099385758785883137e-04 4.408820353721693563e-01
8.313485165002855448e-02 3.212807652329717489e-02 4.955593993679583975e-01
5.004927045912039435e-02 2.308934204386703035e-02 4.609922796982345861e-01
1.064578439328332099e-02 4.650173283574851602e-02 4.579412397307119909e-01
6.098065851311633423e-02 5.084997804134083060e-02 4.714668899050034057e-01
-2.226439811521179271e-02 2.623778088143920509e-02 4.519375629426155561e-01
6.200492303771355795e-02 8.071835446893722843e-03 4.666999962478154962e-01
4.835427252867428860e-02 5.601267923050481240e-02 4.767416474646053448e-01
3.127566738643416944e-02 2.974751223192270699e-02 4.561759017716741083e-01
6.990185193454262480e-02 5.022844927836966206e-02 4.750698282816135931e-01
7.810332829340482785e-02 4.029086810134210883e-02 4.769364814978184208e-01
6.093786112844378627e-02 7.190670219138494378e-03 5.219917201125668926e-01
8.230424213902515218e-02 5.868452005864654292e-02 4.891986072291692467e-01
7.079728839061472101e-02 3.452838828278559369e-02 4.720094555795000257e-01
7.865883765180430032e-02 2.308616785212468103e-02 4.987093681047896077e-01
4.592085556524382745e-02 2.312384728170701134e-02 4.592356149227824758e-01
-2.131212998454292198e-02 1.478293632911661243e-02 4.473473444073037264e-01
2.045260497382088774e-02 2.791341761662236021e-02 4.529821857188465750e-01
6.384946267116341223e-02 2.302351385801919281e-03 5.073070520679876516e-01
6.959501306833519585e-02 4.498151366359148806e-02 4.739720782617553585e-01
8.332130855790342849e-02 3.368971715631248476e-02 4.967845519065245963e-01
2.630112233247988707e-02 6.279668548093671546e-03 4.474043473600420873e-01
2.958912286548766313e-02 3.936416883204305051e-02 4.595049787136405439e-01
6.653821213982491489e-02 -7.858966491062933588e-04 4.962842321075159324e-01
-3.160795725844495196e-02 4.220597969010012399e-03 4.429256542380786144e-01
1.149694325847056692e-02 4.764644860827794287e-02 4.588618386899936397e-01
-3.491825373319830395e-03 3.152070806222192351e-02 4.511162734718488498e-01
8.339650414654675714e-02 3.854161693055829785e-02 4.801930357223999080e-01
4.197239180131275005e-02 5.275305050201663237e-02 4.666629164922627693e-01
1.822503890400208049e-02 1.729753707597968607e-02 4.493574813359336173e-01
6.752272669668117622e-02 6.997382693741104401e-03 4.757793843723430172e-01
6.507280044165569821e-02 -3.912541036982984666e-03 4.993054020145021310e-01
8.449595114822064379e-02 3.712162388513513822e-02 4.968054712046598431e-01
4.501068330625310893e-02 5.572448082847178408e-02 4.741194368530126657e-01
6.655358438152965406e-02 3.126484504823542898e-02 5.291521714234610485e-01
4.812439153156067989e-02 4.238168220094173932e-02 4.653189096324539809e-01
7.638323067384701626e-02 3.114143604011415656e-02 5.160205906480481719e-01
6.950867221951559372e-02 4.705750007816998648e-03 4.926416311494103972e-01
6.637439699595579223e-02 2.848080065011416185e-03 5.006957793881154917e-01
3.066909393028235866e-03 4.670780835761217248e-02 4.575284382720637422e-01
8.157451698023789055e-02 5.251589961842418469e-02 5.027877102303537349e-01
1.358755171549341084e-02 5.082368923527275789e-02 4.613446162264520645e-01
6.791358114086716580e-02 1.962758909516577194e-02 4.711043077364512333e-01
3.426456517906258277e-03 4.808559000263101617e-03 4.432797426888880898e-01
8.110950150293001759e-02 3.172283698442298489e-02 4.799820982929070556e-01
8.639792776531039775e-02 3.844757621818602894e-02 4.835955108838951855e-01
7.284078865072134146e-02 2.475125090730087921e-02 4.745208739567110534e-01
8.482739657365057084e-02 4.225111811875906231e-02 4.798876771029991217e-01
5.715418971281976263e-02 -4.961480256960732090e-03 5.197919403344902767e-01
3.962796821911265810e-02 8.412622741181451091e-03 4.523860841685959921e-01
2.719860576534406660e-02 1.518787553411907187e-02 4.507231235459849272e-01
8.030755714779429233e-02 3.705044236272217462e-02 5.081034996090463274e-01
7.831074408327054481e-02 1.962672124988986896e-02 4.907971687616279888e-01
5.511419075879955831e-02 1.329523382863262264e-02 4.612379321099584484e-01
4.945085053999644098e-02 -6.454888381156782123e-03 5.280146159172235398e-01
-1.676122173718826158e-03 2.667226126300510820e-03 4.420705425872914485e-01
4.363228597088103511e-02 4.353752318888680362e-02 4.644484737133216523e-01
3.519400528327912975e-02 4.633094802066262813e-02 4.629530452267738294e-01
1.080940060683805055e-02 4.285005820445315916e-02 4.563985238426957469e-01
5.629302239851182582e-02 5.637133479116102769e-02 4.763299695370584175e-01
6.700846868800199030e-02 2.273008936990447010e-02 5.279629154460037110e-01
5.037340959353515252e-02 1.745360650145403453e-02 4.599813578165024563e-01
-1.013238984409066401e-02 -1.239947989878685888e-03 4.397466813851705902e-01
8.417925090905904739e-02 4.632274675777461187e-02 4.804679457453570057e-01
3.975425461893488527e-02 2.310136961463222713e-02 4.568465825742996089e-01
6.174527585007831554e-02 3.024656063329967184e-02 4.679261972397156244e-01
7.402251745660398674e-02 1.230487609876551071e-02 4.948470346853919843e-01
5.131136651666894088e-02 1.797432891767909366e-03 4.581339323898780957e-01
-1.165441876328939669e-02 4.499894059288655351e-02 4.577711352347763052e-01
7.290303962185767928e-02 2.448807380176185391e-02 4.747122710063602091e-01
7.820482987437472888e-02 2.013396437029348410e-02 4.891150600476987242e-01
7.049296168944618746e-02 2.383368616011535476e-02 5.239939143555909506e-01
8.750211499530737014e-02 4.810835710416019873e-02 4.833536899771595508e-01
-3.170123381367274951e-02 3.894602844292638887e-04 4.409910965259261628e-01
7.801907363856616651e-02 5.612203756708706442e-02 4.811219461166345579e-01
6.120342024840395162e-02 7.471880362608928315e-03 5.218725842239912982e-01
6.700425369104298645e-02 2.114251494873639267e-02 4.704556338868343124e-01
7.012013442389736229e-02 3.369620339143244298e-02 5.234141055799497178e-01
6.907460114702118625e-02 3.365302509757771982e-02 5.243774713142705934e-01
3.609023568684017330e-02 3.873857862846876582e-02 4.608620442214729218e-01
5.179506570127923731e-02 5.631679593198097092e-03 4.585978483781212311e-01
6.368288441546765891e-03 3.515631134192690604e-02 4.531220522386362193e-01
7.656639665497670666e-02 6.223026939005880248e-02 4.891868730466383819e-01
6.711338848229554677e-02 7.250174961453789702e-03 4.748865744336566164e-01
6.772645186574167975e-02 6.508095314487118838e-03 4.764778939744155895e-01
7.420613409392591564e-02 5.651432888990041287e-02 4.799331137079862475e-01
7.114862909770736099e-02 1.631673197729524918e-02 5.143057663200720775e-01
7.864404488212332900e-02 5.314732518471858291e-02 5.045625353121054868e-01
3.863249810622343145e-03 2.521780890235652758e-02 4.494012282795489810e-01
8.345894817850385561e-02 4.402228721580392357e-02 4.797416710228684655e-01
7.718407522486983585e-02 5.785134352916847938e-02 4.831545262529195472e-01
7.655437569097164885e-02 5.644597911463209577e-02 4.809499839471269578e-01
1.223588361437184802e-02 -1.979979884815331881e-03 4.415205013557180758e-01
2.120467508837040396e-02 8.454858203592728605e-03 4.471163417425393916e-01
2.400812969571769137e-02 3.872539282581075049e-02 4.580284590229634079e-01
1.436915441576320021e-02 1.583822740062888756e-02 4.482192412150637351e-01
6.669488554023321469e-02 3.074967552838557897e-02 5.296982431457734064e-01
6.765915558055253520e-02 1.330638347238997585e-02 5.168507188127862140e-01
7.149177027193294454e-02 2.776682861423163812e-02 4.730767945429910637e-01
-3.474876014194073007e-03 3.589441434386845403e-02 4.523540903088285603e-01
7.760175519467948924e-02 2.213588514601947180e-02 4.817659788758866801e-01
1.736665559088534233e-02 4.595205189670368597e-03 4.448311954160659720e-01
5.275615541773476941e-02 8.319920790428940796e-03 4.594103939299790107e-01
3.861286898571979903e-02 4.951179317784286382e-02 4.647406942747609460e-01
8.102635103619233725e-02 5.742466855703750456e-02 4.963478518455086697e-01
4.002770103995063888e-02 2.925738947977341714e-02 4.589993563663506970e-01
7.625675424895880794e-02 2.647729541436225076e-02 5.149603475943501651e-01
4.558872030419579280e-02 5.552377276906859255e-02 4.734424355338411883e-01
6.546538177002293735e-02 2.187457962914643103e-02 5.293714728442018291e-01
2.896347933572393854e-02 2.659879227942303984e-02 4.546535727419798723e-01
7.041603066079533957e-02 1.645750349878379037e-02 5.160987161207880591e-01
-2.090595027138677717e-02 2.716064290567011055e-02 4.515575259925953544e-01
4.439037241758057861e-02 2.366175259806378023e-02 4.587494588936550932e-01
2.636995445919265713e-02 5.229532649232656455e-02 4.632355855608092932e-01
4.599803927683004945e-02 6.612896077209870493e-04 4.544934644462799711e-01
2.074301517244580770e-02 4.206644104095085684e-02 4.582401642335245939e-01
7.596746921061478530e-02 4.326916289009097999e-02 4.774968678714611170e-01
1.172015950375515300e-02 -1.057107321136091949e-03 4.418112379276221136e-01
-1.091146959699086129e-02 2.202616322110892075e-02 4.478742438837477469e-01
4.260100684489635803e-02 3.831222292470155746e-03 4.531701913674779370e-01
6.534057137956915395e-02 9.035436431914272348e-04 5.015188147641366223e-01
7.241336569424100880e-03 4.257629419489692563e-02 4.557489659070474985e-01
8.220675364807089602e-02 5.126726459398385505e-02 4.808443001503385217e-01
4.612202555777845936e-02 1.492148339400306556e-02 4.573955757930390220e-01
7.674854260170559106e-02 1.901363009514144692e-02 5.021218721970451826e-01
3.457959501815962428e-02 5.716559774396545029e-02 4.702813903186414124e-01
-3.627197339485795785e-02 -8.592766474597359622e-04 4.402338957204763870e-01
-2.049344486433884310e-04 2.580779561949993542e-02 4.493739591580408477e-01
1.054192407502371927e-02 9.359225722275540255e-03 4.455191081535477826e-01
-1.036429379298662440e-02 4.454363549868398109e-02 4.564415341867613662e-01
8.466020465294836483e-02 5.525836191437411005e-02 4.876868614535893043e-01
-1.459431620370944815e-02 1.990396479674815238e-03 4.413336643830035877e-01
7.459068789749247197e-02 3.532686701594930229e-02 5.184804517470151808e-01
3.221949080876779226e-02 5.691176964297488261e-02 4.683181761463446335e-01
5.891306779699689855e-02 3.845960215214549310e-02 4.680645621361697040e-01
6.591042701703561657e-02 -2.045518488854323851e-03 4.976560297790559861e-01
6.676064069006967805e-02 5.814449257249829084e-02 4.822647108020094442e-01
2.527191782059339670e-02 6.307918925351009391e-03 4.471679548268635562e-01
7.878000435370910437e-02 4.003470889986068815e-02 4.772200723759951191e-01
6.666716649359764879e-02 5.334500473183441047e-03 5.044841189169358975e-01
4.426173025235029257e-02 1.880788420473648512e-02 4.575520056920530654e-01
3.591866864966392070e-02 2.041137193748380346e-02 4.548796036310003288e-01
5.623184309656901331e-02 1.740341474821432283e-02 4.629335643035269454e-01
2.908741627332208507e-02 5.172923485099950938e-04 4.458723753822076419e-01
7.861052487780403886e-02 4.077686466158988998e-02 5.104983718325125652e-01
6.427303171419615491e-02 -1.334886539189172883e-03 4.749185349930976630e-01
4.143099573635929816e-02 4.774128188738406553e-02 4.650413748594222629e-01
4.831683362697682116e-02 5.458494352766196656e-02 4.700877201108557002e-01
7.554134521374381017e-02 5.230366519340812204e-02 5.072122948787175511e-01
6.266502774805776665e-02 7.048952276187906568e-03 5.174175762788256749e-01
3.345782605360218820e-02 3.798493192312716454e-02 4.600008574961850782e-01
-6.317764610159690153e-04 2.892964049510890825e-02 4.504136785271867782e-01
6.707163047115800858e-02 -8.829018804483151212e-04 4.915949099615848916e-01
5.217019741573575287e-02 -1.250703041085966458e-02 5.276136329744711695e-01
7.663696361534218238e-02 5.737221838244329492e-02 4.976645483578776563e-01
7.872865011595343854e-02 5.738038614823367384e-02 4.834274969172057679e-01
4.574432022282805266e-02 4.846280049685100511e-02 4.663480250246203607e-01
4.100374792156135512e-02 2.961770537701096610e-03 4.521207621466402649e-01
-2.364246957829007484e-02 1.272228165587828766e-02 4.469879290294225260e-01
2.840431969610873741e-02 5.758696400954120553e-02 4.697259685099318682e-01
8.940098549152777907e-02 4.669743201975024016e-02 4.951732604337232835e-01
7.403685401991798309e-02 4.108590230282999772e-02 4.760341354481571474e-01
-1.976445236659985991e-02 1.063721142036242254e-03 4.409296291182971950e-01
8.056564417544316570e-02 3.969904692630450704e-02 5.071335390877720339e-01
7.378825176562167631e-02 1.343224221951712372e-02 4.866342770478528923e-01
7.263558862223368218e-02 3.766654153045812664e-02 4.736027358876682136e-01
-6.018648007905460715e-03 2.086306897714388514e-02 4.473364105881881825e-01
5.930817431460076034e-02 3.255642917784531964e-02 4.671301981709582996e-01
3.402176334393756246e-02 5.141710274898846772e-02 4.642337406469307926e-01
-3.850137413959606875e-02 2.819794121503020785e-03 4.427965727015976682e-01
6.344889912303626478e-02 5.525325318916934209e-02 4.752327074178345767e-01
3.590222647795009159e-02 1.300999041669706653e-02 4.524166909143568227e-01
7.473631922266736616e-02 2.389508046410467740e-02 5.167134847075868231e-01
3.765809136400847384e-02 3.131113218366982087e-03 4.504433301534987999e-01
2.406548593066533404e-02 2.973853206242061537e-02 4.544697666383160084e-01
5.779084511306858962e-02 -3.412238621601226818e-03 5.189224298917556322e-01
3.454667537576449482e-02 3.939725816031765943e-02 4.607063623711612488e-01
7.105541962463012007e-02 8.032106328916776422e-03 4.944614589799929960e-01
7.124955491062569257e-02 2.072429650642035326e-02 5.203229977458996292e-01
5.085820717452056716e-02 2.197757480455954371e-03 4.578367185534857331e-01
7.496794704183497304e-02 1.734229437050104072e-02 4.832873241710660683e-01
8.064597593298951372e-02 5.346239043787357620e-02 5.024625281030896673e-01
3.224948595204673446e-02 3.509962669578028938e-02 4.585230718835647257e-01
6.786788709280647258e-02 1.215879012369499267e-02 5.143770574455122091e-01
8.479849751798787527e-02 3.643737383402748803e-02 4.940515203430248525e-01
-3.086140128937496507e-02 -1.000517688430604870e-03 4.401569868918231432e-01
