6.725595050907182126e-02 4.417799510912700373e-02 4.734585132364757531e-01
6.389160815209267430e-02 8.313946665099611680e-03 5.160304675483061709e-01
5.069866937053694317e-02 3.338394247743401572e-02 4.649460738224881484e-01
3.291181929933453820e-02 7.537954486768990055e-03 4.497377845820589859e-01
3.700259766923286869e-02 1.174164943934570549e-02 4.525054643415480915e-01
9.091495022053441843e-02 4.639353487492653416e-02 4.939347702936362494e-01
7.413378316318385008e-02 4.740035091171750092e-02 5.121381864376581827e-01
3.560765878435147996e-02 3.113445316305198454e-02 4.583541373683751585e-01
6.377041295188382031e-02 3.222857696735624555e-02 5.297333569705842127e-01
7.343321844340681970e-02 1.706285621200673286e-02 5.096874850752050046e-01
-1.259260307431031914e-02 1.519983600520051145e-02 4.455313455708208026e-01
2.824359394215907731e-02 -2.059914775600286616e-03 4.449754839455958288e-01
6.054038303737829807e-02 2.080906292513913514e-02 4.670133356268985625e-01
6.618648227956075436e-02 -4.183741244690061985e-03 4.921551702699017983e-01
7.153769876978272046e-02 1.778789776103575221e-02 5.153758752643811114e-01
-2.245542680233049426e-02 3.120529753492288019e-02 4.539939556831882883e-01
7.126187696390619275e-02 8.860780815547527473e-03 4.945380750707805140e-01
2.119832051458709482e-02 2.334140198068206454e-02 4.519856909674192513e-01
1.800751109100276470e-02 1.273022660391328817e-02 4.479941564763477713e-01
3.652843295401005802e-02 3.837034165117276380e-02 4.611516103037555658e-01
7.647603055128267269e-02 3.230684685255136301e-02 4.761230612806992002e-01
4.816068685101183855e-02 -4.231562000337216710e-03 5.282244940579066128e-01
-2.711390170710941197e-03 3.446867452431277151e-02 4.521431321084262156e-01
-8.010998911409624931e-03 2.314782642698607912e-03 4.414337967226605874e-01
6.577393648210715094e-02 6.974199441873546804e-03 4.731125340692264314e-01
4.864073818619296663e-02 -8.165620264923449667e-03 5.293533989315758470e-01
7.929204624356649134e-02 5.302434359905867228e-02 5.048489567149621049e-01
7.013369981992674529e-02 6.256464337342042964e-03 4.902862898656678570e-01
-2.765065446446912135e-03 1.039373360958801944e-02 4.442699085018502192e-01
7.391211871639151443e-02 4.018392443874901909e-02 4.756958683776871255e-01
6.847368021901778512e-02 1.275572220318451147e-02 4.743634134399428159e-01
-1.812253468888996508e-02 9.367041482647565573e-03 4.441564586115572810e-01
4.917707991838334014e-02 1.778696404722715507e-02 4.597503863987364991e-01
4.876193969572706344e-02 5.592113233879991013e-02 4.760974413824225482e-01
5.675923157221707954e-02 4.332830752400804175e-02 4.686442140923462452e-01
5.687474374703868629e-02 1.205253397868445188e-02 4.622944849003011170e-01
-3.106813438601371737e-03 4.637933799979200578e-02 4.571918712711866561e-01
6.522759665038378729e-02 9.179212753076648745e-03 5.145139986609703620e-01
6.424499553320828227e-02 -1.959085675621344627e-03 4.760657286913814179e-01
4.358398660340978559e-02 3.989284219881609334e-02 4.637297781205689251e-01
2.313418781595326379e-02 3.680210151307562044e-02 4.574238337868796189e-01
8.302151631990312142e-02 4.134372075023417387e-02 4.797432429676631860e-01
2.040504133754205904e-02 1.721781840538057912e-02 4.498613437783463009e-01
4.109829267983792361e-02 4.848893528981469692e-03 4.528091980257717974e-01
6.057988705309770572e-02 2.969291455351480424e-02 4.678386242711085052e-01
1.528155633547269125e-02 4.238749164726081375e-02 4.573663133876620379e-01
5.696546632972770280e-02 3.425559945113169913e-02 4.670942056125811925e-01
6.113886327849622770e-02 1.572967968269762748e-05 5.124776936683793638e-01
-2.055397252715952371e-03 4.445361883455533486e-02 4.556730452611935100e-01
6.194507188567272699e-02 5.358361418753989497e-02 4.741792335088801380e-01
4.420702752436382610e-02 4.218098243596065527e-02 4.645048143358205261e-01
-2.518167736200831175e-04 -7.631691490629505248e-04 4.410009009084934206e-01
1.671060156244282002e-02 5.583848120293529241e-03 4.451713812031833362e-01
8.032866312419512100e-02 4.327036371823765604e-02 5.071335338874671805e-01
4.736813016802892545e-02 4.911127035674856672e-02 4.672992105017097497e-01
8.285567390102077656e-02 3.104163920163012860e-02 4.872595323841192871e-01
6.309774977657034434e-02 3.414461757722628971e-02 5.251872093731335678e-01
3.305145122532408830e-02 6.689910340807495373e-03 4.495589145913060913e-01
5.755480504914019940e-02 -5.192469675580645150e-03 4.663516417499461442e-01
1.301805230613211489e-02 1.478109886140363365e-02 4.477740820281108647e-01
5.120877500100461110e-02 2.940195442374474860e-02 4.638601412685051106e-01
2.057421590155357818e-02 9.869912545581203261e-03 4.475987261589211008e-01
-1.696796947406904732e-02 3.256843631550063178e-02 4.522655258849258009e-01
5.104875661347251653e-02 -7.338998129168807817e-03 5.271570764259940756e-01
-3.170922849484354711e-02 5.512898685060420301e-03 4.470484259938619087e-01
8.980190846495044940e-03 3.359948894765949629e-02 4.531670920436853822e-01
7.943081238739835293e-02 5.295629416847855847e-02 5.048402276541485989e-01
3.271219812108774883e-02 2.938251206812603905e-02 4.566983009220018097e-01
5.312106655918405473e-02 -6.894968478550452320e-03 5.250668246479172074e-01
4.835143623741408603e-02 4.664637842422072328e-02 4.667829464363518199e-01
4.812034458328598441e-02 8.809628055833167853e-03 4.569981396515719885e-01
5.834186624951184785e-02 6.433974420911869017e-03 4.636611429666874784e-01
7.075209636902227150e-02 5.739797193735782233e-02 4.957677805236737623e-01
6.630298236331082229e-02 1.761823533125975172e-02 5.243463972282933483e-01
7.183595219747263005e-02 1.388741698001073020e-02 5.079529240327653739e-01
8.353570172528980431e-02 5.432210890644861151e-02 4.842461605759224574e-01
-1.925956222078665375e-02 1.324693210612655839e-02 4.460812918579920017e-01
-6.674161557523199118e-03 4.231803732931032486e-02 4.542794382814665521e-01
8.288840562406875334e-02 3.912868139696139280e-02 5.013223230508428996e-01
6.516978165596191974e-02 5.402658826715301538e-02 4.755828820306681748e-01
1.963840184171367770e-02 4.811901994573339857e-03 4.454533731245897688e-01
3.452935913593798561e-03 4.786884853754991287e-02 4.586886659988152481e-01
6.693744060924783357e-02 4.430993735260842920e-02 4.732477247487635874e-01
6.621192126924049792e-02 -4.298392005729653569e-04 4.803323964205700736e-01
6.011775115841620776e-02 -2.536399724142936966e-03 4.686846879394784282e-01
8.009346055734763159e-02 6.022340234839943657e-02 4.893747467340526236e-01
6.647564098197095150e-02 1.913771935081672341e-03 4.979022657360697712e-01
7.635296407440228528e-02 3.573199874067787413e-02 4.755989158036583730e-01
-2.582166605122635655e-02 8.043378205490375049e-03 4.448127169878296483e-01
8.828478925212053519e-02 4.019412776360564710e-02 4.929831526120244667e-01
1.389545062707943715e-02 5.269906655495715242e-02 4.631366122942154884e-01
1.311294972736486500e-02 4.927360583974207953e-03 4.442651236754880939e-01
1.491299728863396817e-02 3.152328838344386347e-02 4.533674312895045189e-01
-6.345649750386008620e-03 2.678396885784492185e-02 4.497212797276972651e-01
-3.937211799116757671e-02 -4.718993216231862162e-04 4.406433225190636849e-01
3.403237903518401691e-02 7.574772371331753990e-04 4.480644706222388085e-01
-5.516430972546519998e-03 3.285747318206663770e-02 4.515442884378174093e-01
-1.588250523251950874e-02 3.507093249025333703e-02 4.528648324204415099e-01
-1.125304963335828357e-02 3.883651000832936961e-02 4.534680844687142831e-01
4.877591205255973200e-02 4.627694787996763232e-02 4.668073787266731611e-01
1.812748264128101819e-02 1.902158034354441141e-02 4.500138097591155351e-01
-1.664939193658961786e-02 2.166243661166650583e-02 4.484801341443883094e-01
6.292631398051409808e-02 4.362605374265556696e-02 4.711413782058368471e-01
4.711491914268124692e-05 4.797437063743731356e-02 4.586886805372903386e-01
1.407315030586220317e-02 2.770895018786662806e-02 4.518417052423212565e-01
5.786374450983252510e-02 4.357444966371797068e-02 4.690533969813308057e-01
1.887626147969742943e-02 4.035914975405186129e-03 4.449980098323449429e-01
3.338019074151260535e-02 2.145425087590331625e-02 4.545293662578722693e-01
2.396037034192196463e-02 3.256137127218185212e-02 4.557830473109450997e-01
8.171759719861224069e-02 5.317117555636687032e-02 4.821586470397413726e-01
4.434181576812318282e-02 4.827355369025349528e-03 4.545255237668096027e-01
7.886885842604142438e-02 2.381135344800149392e-02 4.966464059233748896e-01
7.681196586179415975e-02 5.150013031482401915e-02 4.785381349283757690e-01
6.695883881341609112e-02 4.467209738853825107e-02 4.732635569498549466e-01
6.455518070627480620e-02 3.734425510418488969e-02 4.704305211439505641e-01
7.166253032373343101e-02 1.185755395669218712e-02 4.829747254837007397e-01
5.483778137847920148e-02 5.219405252303656317e-02 4.704155521793179640e-01
4.683773437977641063e-02 4.011498847501534376e-02 4.647731866643300402e-01
6.533704920453788090e-02 5.747189160568406952e-02 4.782651406263572214e-01
-2.175272057138646215e-02 1.944495446051244109e-02 4.489912860899428204e-01
7.157305794241261565e-02 3.906713798532855664e-02 5.173166450041232212e-01
6.845202457378625482e-02 1.327881881036244854e-02 5.146098452217462427e-01
1.427452086669884698e-02 1.536859143016788484e-02 4.481697039129663440e-01
-5.718938026508752458e-03 1.902948798884323937e-03 4.414950649599624355e-01
8.403879340183352531e-02 4.365103993827056800e-02 5.010091962592005954e-01
7.766265267194955024e-02 3.259059806500388262e-02 5.128830755376032613e-01
-2.882620507187014409e-04 4.671961502189116155e-02 4.575441766572431734e-01
8.216054370011149910e-02 4.304525208067475073e-02 5.032080589471386034e-01
6.567925958327305858e-02 1.079043068471396277e-02 4.708707080560151081e-01
-2.095085327309964898e-02 2.777817858269917770e-02 4.518529995377484898e-01
-1.767581779090486582e-02 2.861499917363034828e-02 4.510226777644438800e-01
-3.132160503320125747e-03 3.046077096723068256e-02 4.509672104660925607e-01
2.272265946135066522e-02 2.565752128250467154e-02 4.529952057486676398e-01
7.519557576647784014e-02 4.617890713702697131e-02 5.129216531540979895e-01
7.206215306297225620e-02 1.005533958805478190e-02 4.940927506355334287e-01
6.281449992142490446e-02 1.631004685063003855e-03 5.090963329915721980e-01
2.844114355910106959e-03 4.939703070155498227e-02 4.600641391833155680e-01
5.014590468042352811e-02 -7.669161688852706507e-03 5.279384376735123396e-01
4.750389328227698493e-02 1.810009898907934123e-02 4.590385010329032789e-01
7.410314146319434137e-02 1.294962100124397858e-02 4.962278002321270365e-01
5.496904494118719231e-02 1.279794043633988680e-02 4.612909876321010239e-01
-3.611863064678329845e-03 2.417570257054255795e-02 4.487565433491984002e-01
-1.485791962402682916e-03 2.728527668430034275e-02 4.499735243465308732e-01
7.731860112454033707e-02 2.192174387894227361e-02 4.828408001589399312e-01
3.540560524703632167e-02 3.506348305830173095e-02 4.596810547148110215e-01
-1.021114208768245969e-02 4.242466850581886467e-02 4.544437003668542197e-01
3.986750267042664386e-02 3.288063157989698504e-02 4.603691765832882421e-01
7.179126916345424103e-02 5.723369435832499630e-02 4.978228481686430840e-01
5.244012687378371562e-02 7.951932954384456978e-03 4.594576561331047970e-01
7.919907763479265561e-02 3.959568763049299556e-02 5.098774429112010731e-01
3.865837949917635963e-02 4.859310196934302217e-02 4.648654825060105633e-01
-1.904885922013513713e-02 3.425584335674909664e-02 4.536285323618896026e-01
6.820918470296845337e-02 4.523785609091777668e-03 4.816369634706815783e-01
5.260285236188089880e-02 5.526878246437676862e-02 4.724699322260872969e-01
1.596303848913395787e-02 1.927670409037903192e-03 4.436567247501504441e-01
7.834818654649876313e-02 3.308845032503206218e-02 5.112539107977233099e-01
8.825571593015944794e-02 3.926353359691980155e-02 4.914292952890890742e-01
5.593393199015363193e-02 5.780292388092250419e-03 4.617518515195846995e-01
6.326253393849187723e-02 3.587388253785229325e-02 4.692909337964201733e-01
8.672385189000203498e-02 3.948284260534540291e-02 4.846851920562393889e-01
-3.070726312584055526e-02 4.420779019548988845e-03 4.429447422583599470e-01
8.757769712491157710e-02 5.016828566307223597e-02 4.932740432915121431e-01
4.642531116197517321e-02 2.866362548863606030e-02 4.616209223055169342e-01
7.831744459250074286e-02 2.343155249293346967e-02 4.994342228931651917e-01
7.154864461376062024e-02 1.505573104502824777e-02 5.107211583669929444e-01
7.566726791911981831e-02 2.508845398237917121e-02 5.154715923953573364e-01
-2.372111615670652665e-02 1.086485053672710775e-02 4.459367738774928092e-01
-2.136008647416968304e-02 2.297810514145852065e-02 4.500999112356625642e-01
6.083464564716138667e-02 4.993018464029955195e-03 4.670154632196816813e-01
8.657860920423426920e-02 5.297979874043427795e-02 4.852024837127954515e-01
9.247473414602207231e-02 4.216989414330086366e-02 4.890347373232595274e-01
8.362868254467469009e-02 4.413966766344225995e-02 5.017180911702017188e-01
6.020380824339469084e-02 6.795854723433589553e-03 4.656356127039369408e-01
5.865834272222230500e-02 3.864935837841923516e-02 4.684228855475707221e-01
3.205430793482846180e-02 2.840988427278886425e-02 4.561738914726228833e-01
7.116945795831382260e-02 1.629228579277310074e-02 4.769581924547778851e-01
1.400135644185588474e-02 -1.903614313205678928e-03 4.419657215438328457e-01
1.846371702166676662e-02 5.242696444104001652e-02 4.628078046757130859e-01
3.443713326914810829e-02 4.508114008353351909e-02 4.627463354737931245e-01
8.518427811632470203e-02 5.504880199609005903e-02 4.927351699781593042e-01
8.155927913599624046e-02 4.257550099495335805e-02 5.041646073195775735e-01
-2.239365630548337607e-02 6.215286239034371711e-03 4.430293659917177718e-01
8.603210309976662418e-02 4.016261485688236293e-02 4.955272821615484546e-01
6.781621975289046922e-02 2.732957857861212023e-02 5.295241759063347153e-01
7.884290084238633825e-04 1.849221698389898541e-02 4.470321913940082381e-01
6.202674012179622276e-02 5.379864054397601875e-02 4.743383977141145680e-01
-6.926302623747267011e-03 9.833086374002477856e-03 4.437069416824698798e-01
7.154167672495448382e-02 9.553551560842849996e-03 4.874420067870177120e-01
9.037802353541793399e-02 3.914662834223273796e-02 4.890566293703026979e-01
3.205473105839625608e-02 5.057346378741018472e-02 4.638479941804764528e-01
7.400823954100446689e-02 1.383296705069980877e-02 5.003473596355733077e-01
7.782526569550815565e-02 2.427233617959513590e-02 5.072109117256684563e-01
8.415281147666173189e-02 5.136417210803816830e-02 5.012213586552626277e-01
6.412276820220660922e-02 -1.233779637343367704e-03 5.036830363080309070e-01
1.063456560629659139e-02 3.842250784313987200e-02 4.551331297518523833e-01
7.181887316376403541e-02 9.598863209322607004e-03 4.924474591541488366e-01
-1.059172626554190540e-02 2.455251249923245949e-02 4.488398856056812214e-01
8.640942943225445039e-02 5.012355142893758914e-02 4.839605106211750662e-01
-3.437094389806432532e-02 3.061719329618190887e-03 4.425761356695129822e-01
6.176711886894317716e-02 7.946425777439015958e-03 5.207682878247223979e-01
1.045116795668440610e-02 3.670602754621031527e-02 4.545535733566721248e-01
3.966015030826990778e-02 1.077372169225784132e-02 4.531993543204836938e-01
8.085181262139146119e-02 5.781997999537725336e-02 4.873980559984013028e-01
7.770486430257474153e-02 4.511096328195294408e-02 5.107713012195200797e-01
4.644189934255098934e-02 4.847043219037053957e-02 4.668787468817576225e-01
8.216071720514663002e-02 4.783675091751551228e-02 4.796341199406861100e-01
7.101779617140246970e-02 1.015542132528487670e-02 4.835090725290971392e-01
4.417840926254863743e-02 1.367605748527066234e-02 4.562934073460901963e-01
6.010471004026839148e-02 7.603670478174796507e-03 4.651839802722707029e-01
2.508704029918335313e-02 -2.376822911001272472e-03 4.441295817494396170e-01
6.544814210935934184e-02 -3.187877762041575226e-03 4.810321353057916971e-01
7.513123561942279538e-02 3.856650664837021902e-02 5.156414144954744039e-01
1.428724573719133105e-02 1.395053660354846070e-02 4.477331738518000592e-01
5.323361619337218381e-02 -2.818126562557130878e-03 4.602167385227535767e-01
1.141974810332392620e-02 3.615784796394069800e-02 4.545926991804970507e-01
6.371011474450662126e-02 1.028166518489901683e-02 4.682000096183960847e-01
5.516801329491084760e-02 1.142400972280038438e-02 4.611656037345259196e-01
6.694386274560293337e-02 1.929630935660643296e-02 5.252189332607306582e-01
7.350146507388316541e-02 1.206352693647574567e-02 4.899566990721321291e-01
2.415746315027943875e-02 5.392400093415244955e-02 4.642721484581526226e-01
-1.620201748121019927e-04 1.661312172571507637e-02 4.463465234671815662e-01
8.655981391436428501e-03 7.165236701915583990e-03 4.446381312899148619e-01
3.168157579355653647e-02 4.690066501875009980e-02 4.625470632396316284e-01
8.822314150657184495e-02 5.021124854235832491e-02 4.922895246134490477e-01
5.266303824253181637e-02 5.657767880163890734e-03 4.593801910328554339e-01
7.268705627622003285e-02 2.476206482145986917e-02 5.213851947542843535e-01
3.091723363796558197e-02 4.143271134437568476e-02 4.606860135438169968e-01
5.159460316776216804e-02 2.281510343402075314e-02 4.619909033450246283e-01
3.214761696420037618e-02 5.080955166860275096e-02 4.639437846635189322e-01
-2.541399525768991453e-03 3.095935512970890771e-02 4.511241362129388976e-01
7.732154481760920850e-02 2.022225910347390937e-02 4.994435074515300998e-01
6.725762933612823569e-02 4.823633427692305964e-03 5.010727080844319392e-01
5.287237722321715822e-02 -4.810527149685582711e-03 4.602953690723715630e-01
8.650708776884134810e-02 3.963017867408318712e-02 4.845093314601133794e-01
5.936800736601139522e-02 4.964492045849299567e-02 4.707980607189714006e-01
3.128542556759049409e-02 2.805715892479283130e-02 4.558745518130033481e-01
4.452097718663804160e-03 4.359355821887399979e-02 4.558504188766461795e-01
4.146499880405247335e-02 4.636876497335071234e-02 4.650273132423216049e-01
5.860917265410803267e-02 -3.810800868420741606e-03 5.166947573462129517e-01
5.816653553382642589e-02 1.464808166296219065e-02 4.636460770587866320e-01
1.771852472334824527e-02 4.171658510547188170e-02 4.577209887586904946e-01
4.026625107190760777e-02 5.672440292258693756e-02 4.723904722934794687e-01
7.330898338226293776e-02 1.637805986554657575e-02 4.814432302108337947e-01
6.540089814841351656e-02 4.531242301531347022e-02 4.724570545069378680e-01
7.626828192525780814e-02 1.805011252068141822e-02 4.878324267277932558e-01
5.954427487229777688e-02 1.209610745287364227e-03 4.663995827730733623e-01
4.968721132711841071e-02 3.233623363016117219e-02 4.643068808973173089e-01
1.559626399995053814e-02 5.299685445267645484e-02 4.643092315589495422e-01
7.905821014517463996e-02 6.070721361185192622e-02 4.938619414431147381e-01
-1.357585676782151196e-02 2.206165288688162474e-02 4.481300736879019198e-01
-5.800171353807021674e-03 4.335224567802447443e-02 4.546665495259886725e-01
5.682131027768740072e-02 -6.976811405493297223e-03 5.208141523683339491e-01
6.371900166021821077e-02 3.711484974192105768e-02 4.698676986493893759e-01
8.296828413169442251e-02 4.488695895794942575e-02 5.025259007190980842e-01
-2.435920722719554093e-02 1.172014140773649724e-02 4.466242061674893238e-01
2.764974878909952014e-02 9.620840172568010523e-03 4.490869889079894817e-01
5.673276767440984386e-02 4.886508638543184124e-02 4.697296552603497655e-01
8.428369135275982915e-02 3.777956418544721473e-02 4.967360826084709080e-01
-2.113323659191700121e-02 1.355919560318222770e-02 4.467882945544406903e-01
6.966394410630341594e-02 5.259722757712926439e-02 4.763786598928898552e-01
5.317153240608652603e-02 6.442270911525494782e-03 4.597512818156196945e-01
8.381946056807428047e-02 4.117320806946238310e-02 5.004072329369007033e-01
2.982674548904964973e-02 4.928921282807035426e-02 4.630227184716028677e-01
6.449342839541410966e-02 4.643164097410559105e-02 4.719968481306975883e-01
2.121911479174642262e-02 4.138975392169714357e-02 4.583895716385064656e-01
8.187243837759212994e-02 5.244800140506546138e-02 5.030158897285063047e-01
7.700275862774580427e-02 3.458725670111965911e-02 5.148151402102574270e-01
6.915441396247719308e-02 1.319831837949024880e-02 4.752695325425851380e-01
2.100821327240526282e-02 3.070248265780204083e-03 4.450514354088258573e-01
2.428838795916154342e-02 5.574630162358772817e-02 4.669067445766754698e-01
2.635413101930408897e-02 4.251773229892141792e-02 4.599092895971680361e-01
-1.798137643006552863e-02 6.881121500025420834e-03 4.430206500860597307e-01
2.728283773834206533e-02 -1.473592965170747709e-03 4.448631221151075898e-01
5.250286491093485858e-02 5.572253058441589690e-02 4.749160259077738755e-01
3.488821210824180619e-02 -2.188118260915337260e-03 4.473948215507378978e-01
2.646518984241306993e-03 3.341186739940257139e-02 4.522443762747887508e-01
8.787201337659776568e-02 3.622999827423155350e-02 4.852890706735626392e-01
6.591227452069214898e-02 -4.446197522456115520e-04 4.794847155810429418e-01
-1.102791618533961911e-02 1.705762579876346496e-02 4.461030796221171491e-01
1.781821692714929267e-02 4.269313099496171299e-02 4.580241206076421934e-01
8.610708893439565637e-02 5.065810172261026728e-02 4.839133369455854150e-01
6.729582497656737272e-02 8.296013402766394540e-03 5.076080613297906385e-01
6.095399301379782198e-02 4.257356712858072212e-02 4.701009941275004489e-01
5.665311140687099428e-02 4.137291367521915564e-02 4.682256521933315097e-01
6.182341119995837103e-02 1.380998322792105840e-02 5.274342405417622448e-01
5.357938847736626320e-02 -1.281386850640776898e-02 5.263881116084493383e-01
2.522875884923950207e-02 3.451009984555067790e-03 4.460459262138201653e-01
-1.444847121199051634e-03 1.390902826262488401e-02 4.453372968012099253e-01
6.501061719265449623e-02 8.126336278897458576e-03 5.131302631529303104e-01
2.540462287676659853e-02 3.669258348587790125e-02 4.579273937733587818e-01
7.565896762203537518e-02 2.179995255600802179e-02 5.108610921423861750e-01
2.573072185528558001e-02 3.248163757488443937e-02 4.561243145165068680e-01
3.817451693276526642e-02 1.748009170848427440e-02 4.548873354806896030e-01
6.902159210775099529e-02 1.267263316569380155e-02 4.753444976466558169e-01
7.000809384013760572e-02 8.623239488075659306e-03 5.001516270481952686e-01
-7.214337463271051215e-03 2.233207045128743698e-02 4.479529913330648760e-01
6.979444323345379564e-02 5.648531793410045167e-03 4.915521136182693374e-01
7.612812500754588541e-02 3.264564871539595708e-02 5.163909146357344992e-01
3.577764796846774620e-02 6.932696538291881899e-03 4.507846008361157120e-01
3.815181372639331325e-02 4.693788893040326538e-02 4.642532069304837195e-01
7.605616342305701605e-02 2.468856037170762130e-02 5.143388331200280383e-01
2.348917840231723453e-03 -1.241426527649380253e-03 4.410690468388263619e-01
5.335858674825380565e-02 5.416334880611928249e-02 4.713576101280783637e-01
7.632880004065321911e-02 3.140241755059493961e-02 5.158005488386968596e-01
4.151373522184240855e-02 5.659304535604706143e-02 4.738579680575541464e-01
8.129182479124369420e-02 3.858179950965654609e-02 5.049423558106836962e-01
6.997948085382164896e-02 2.794436594454670006e-02 4.727455964245976805e-01
5.463315587780713523e-02 2.565655992930729410e-03 4.607145531056334176e-01
8.724542916219087119e-02 4.079735660327583197e-02 4.952107559418617577e-01
4.914843042496744308e-02 -6.727949996938303173e-03 5.283302481273011164e-01
6.003313705582334625e-02 5.373614438882352157e-02 4.735416458314872790e-01
9.106476196783749519e-03 5.115168637744831742e-02 4.640877988489851003e-01
7.626090289934536748e-02 4.030495059449986511e-02 5.134604884465679975e-01
-1.028893312188210521e-02 2.178404454559861383e-02 4.478230766637968374e-01
-1.001297754140295475e-02 7.002400095448014714e-03 4.429301578624816327e-01
8.307014637643832244e-02 3.638783057976197055e-02 4.817652488425172019e-01
7.632602187299858398e-02 3.579695358688334689e-02 4.755893217468644685e-01
-1.205551718329245410e-02 4.937315506762747497e-03 4.422672538237354400e-01
8.582147243271709414e-02 3.901409480784106404e-02 4.840022869120549909e-01
-1.575170621950693940e-03 3.083981703298408188e-04 4.412678755394331409e-01
8.281069115226361022e-02 3.903442232109477494e-02 4.804889276125721698e-01
7.912421231443091119e-02 3.007096877804076376e-02 5.081630963950916069e-01
7.131455679717316198e-02 5.730280108686869323e-02 4.969052422387906787e-01
7.336566867288583926e-02 1.511399243126511360e-02 4.837299999322958177e-01
2.708469616985289923e-03 4.949159206445635090e-02 4.622466415631883430e-01
7.789971352669658455e-02 2.523420340790929334e-02 5.083530862092793257e-01
7.060149651486939681e-02 4.140275200966928720e-02 4.753636898223633223e-01
8.303789790007946869e-02 3.522960037856950888e-02 4.983106711259348565e-01
7.175557595171928871e-02 3.196449043321022282e-02 5.232301880184372367e-01
7.933482254581283866e-02 2.518078619941789553e-02 4.970669419017463286e-01
3.701933254867795231e-02 3.382124680781183751e-02 4.597093671071322274e-01
7.426639761568157305e-02 3.976244007395881436e-02 4.755359492607833527e-01
1.261671655641379702e-02 5.244557817424708862e-02 4.632224502282292211e-01
7.475044834384191039e-02 1.604023039891909475e-02 5.019460269488785764e-01
-1.118026780956129021e-02 4.009762356567487390e-02 4.538312850293964584e-01
7.676802667006162040e-02 2.985895899819130533e-02 5.143299232591441728e-01
7.880856156630521026e-02 2.822749799649312483e-02 5.074579785222251838e-01
8.422834870104348171e-02 3.386778882578669186e-02 4.831668056128420319e-01
5.944366026495202099e-02 3.101461027069469037e-02 4.674791621633396788e-01
5.177052444750027127e-02 1.172233956309643235e-02 4.594494290909729717e-01
8.554276588593386077e-02 4.782659822918034626e-02 4.825308587788657011e-01
7.411691326756254805e-02 1.315641394752697924e-02 4.984572771131853819e-01
-4.080142751071482929e-03 3.580757434422465052e-02 4.524377542191314050e-01
6.247045259692127726e-03 1.536363551246231612e-02 4.468947201777654921e-01
1.247146088844859613e-03 2.775134840257024657e-02 4.502015961914321296e-01
6.086385700724068759e-02 7.786688313120468732e-03 5.225397948593374364e-01
6.222371343669467342e-02 1.200534734423347287e-03 5.103972845365449817e-01
4.182420389604714350e-02 5.652371810863596191e-02 4.738712447733472444e-01
5.616338005858491356e-02 -7.142353208911326329e-03 5.217255896220190925e-01
-1.098956418393342085e-02 9.007115808526073783e-03 4.435154459686055928e-01
-9.922233566296269347e-03 4.014566890809803668e-02 4.537579626519026577e-01
2.531689531433438216e-03 3.221162773271106505e-02 4.518427062501526592e-01
1.537314311945704726e-02 5.292958728346253139e-02 4.642335363339525345e-01
4.662787990540009919e-02 5.568246001345746737e-02 4.741483677231672633e-01
3.960968368260731759e-02 -2.984591166735009460e-03 4.502486238082292758e-01
2.111089519245748503e-02 5.483650744623180112e-02 4.665957653594301480e-01
8.272099250053462083e-02 3.216320235066155719e-02 4.952465208755483794e-01
6.842340441197818091e-02 2.446513329715705246e-02 4.718475627939389128e-01
4.185154501795148446e-02 1.235802280875405480e-02 4.546698185675960846e-01
7.255502783675750467e-02 3.894888686889480534e-02 4.744572832860750600e-01
6.829613922682273297e-02 7.137898857576101437e-03 4.782683825146681889e-01
7.791748110583374132e-02 2.234086464963038962e-02 4.841662826134475739e-01
6.042985324982128731e-02 6.911476250390601213e-03 5.222702859105687878e-01
5.387144379749442963e-02 -4.307542119133559930e-03 4.609777210111382639e-01
7.672416058808602390e-02 3.013195937431335097e-02 5.145174253840789635e-01
3.561894550504242363e-02 1.402466193408825022e-02 4.528361608688022955e-01
7.270492740886635996e-02 3.267526113693690337e-02 5.213071885592877042e-01
8.499697572234846121e-02 3.388396852872464088e-02 4.842416475815687349e-01
6.408114204368411948e-02 9.724407644469822143e-03 5.181902992551207232e-01
6.200187859496904264e-02 2.924737123255634688e-02 4.683669210922509762e-01
2.527887592219809146e-02 1.963926149719815925e-02 4.517063465878404238e-01
-1.518096497329970290e-02 2.254591332837596260e-02 4.484087206387374902e-01
6.579899943632476489e-02 5.760841121119247496e-03 5.072206762627721188e-01
8.324628828256259994e-02 3.278996022192740001e-02 4.843705741184258229e-01
4.816508514263309615e-02 -4.735428221691468861e-03 4.562476445404166081e-01
4.597250970135596804e-02 -2.810945511133337935e-03 4.545453517643190389e-01
6.361248712106176706e-02 2.975795195704002746e-03 4.716247607165464650e-01
3.386098417981126679e-02 6.844214916678992636e-04 4.479608005183374209e-01
-1.046741101868934286e-02 1.455180858611526684e-02 4.452052714306531933e-01
7.866417763678995589e-02 3.201722713882052679e-02 4.784642432879515073e-01
6.648797576329315562e-02 1.339168833276624566e-02 5.190397919786932102e-01
8.705565562816054703e-02 4.794397309184471323e-02 4.979947793204909656e-01
5.480511608772552917e-02 8.595734440219604533e-03 4.608859710223655037e-01
5.561443094194224585e-02 4.833832760723728514e-03 4.615097329478730082e-01
7.122680232620899610e-02 3.018737345248060505e-02 4.730549932347693498e-01
6.712772484719828348e-02 1.360616976083309573e-02 5.180808166255466141e-01
1.834243126909900629e-02 4.118822646915167029e-02 4.576901186163751523e-01
6.793692555161666424e-02 5.694770803466010778e-02 4.783010817639061218e-01
2.945926596776924505e-04 1.204945559186901619e-02 4.450852484811939624e-01
7.380341307675625240e-02 5.797703894480441683e-02 4.828586607401132436e-01
-1.350232663580707738e-02 3.342957343988349483e-02 4.520812208715181968e-01
-1.184534459164670109e-02 4.059917283649259329e-02 4.540239652275112059e-01
2.742116341944104280e-02 2.415932683810716186e-02 4.537318924276076415e-01
8.536759284148660865e-02 4.052767822286523075e-02 4.824860266798918773e-01
8.026444015772808693e-02 3.595815417844877571e-02 5.076636169461815618e-01
8.521168197058859306e-02 3.765639103061463322e-02 4.921983650329804783e-01
-1.237187443453141578e-02 3.713791489843524390e-03 4.419092945405664885e-01
8.084382933531662763e-02 2.804819183537151858e-02 4.837321763855290113e-01
7.261725123087270362e-02 3.350508728398784997e-02 5.209172663174926887e-01
5.677410932931079707e-02 2.387549482097686519e-03 4.623154665842065247e-01
7.869320725992519361e-02 2.203577737526580399e-02 4.939703818780230571e-01
-4.234874294621605167e-02 2.335262087641560083e-03 4.452049200979137922e-01
6.667630524138624948e-02 1.734827657215126315e-02 5.233527207235197931e-01
7.980953719224104237e-02 5.885552365136430958e-02 4.878979356720835603e-01
4.443111565712977440e-02 4.976922634324414119e-02 4.667953518645664990e-01
4.985287158740515229e-02 -1.076183073522114092e-02 5.294288620874625373e-01
2.966197743785884550e-02 5.775160511924755380e-02 4.710482591277011521e-01
4.731841226246465137e-02 -5.726167988172547151e-03 5.292779126683165858e-01
2.173649522695623656e-02 1.265344509700888631e-02 4.488012891968936047e-01
2.849833966516946218e-02 5.785915343710772152e-02 4.711922805382419144e-01
1.013420176509312841e-02 5.057705769820003416e-02 4.610725422366201420e-01
4.747437337848624955e-02 3.703245046979284152e-03 4.559059195484496674e-01
4.841658546700954024e-02 5.033268812302133140e-03 4.566623090573600496e-01
-1.785797820843545297e-02 2.622404844059875173e-02 4.501149919639237384e-01
6.619776749167230467e-02 1.804678883503976067e-02 5.250412344251934593e-01
1.355427065144882218e-02 4.956124855109182714e-02 4.606821419679931195e-01
4.601447804739401681e-02 1.241323572779241824e-02 4.567398478484243074e-01
3.414691832424211065e-02 -2.784363807722090370e-03 4.468459178602102178e-01
-6.108793111546785212e-03 3.136543007578164975e-03 4.419175743306900661e-01
7.107820791808101835e-02 3.170824274665866999e-02 5.244557390337185598e-01
2.946045976606298869e-02 2.512534250853393908e-02 4.545166754082134997e-01
7.076980088487519471e-02 4.231179640404254816e-02 4.758264915993021815e-01
5.712975749436473294e-02 2.828051000823673597e-02 4.661088493276155376e-01
7.220068742853234800e-02 1.272092872421928117e-02 4.834912588296834124e-01
8.239633336452972801e-03 2.239019404555031914e-02 4.493067012069913990e-01
1.516011224981193319e-02 3.991512636042141710e-02 4.565904890408543637e-01
8.055235210367778231e-02 2.746108558666012639e-02 4.958931514673776131e-01
8.362007457632082696e-02 5.446637081948839387e-02 4.988370866070483411e-01
-8.231927028429368229e-03 7.738882363973180467e-03 4.431192634780041772e-01
7.072368246540287895e-02 2.438408151975052923e-02 5.238744610941610258e-01
8.643530999613344146e-02 4.405473777994135809e-02 4.975063419399675113e-01
5.704896227174498236e-02 2.495927087880332393e-02 4.654976706082817883e-01
7.454371359587964874e-02 4.957366242626387587e-02 4.769350037731083791e-01
7.448374546913397176e-02 1.678391449740768149e-02 4.843503815682058677e-01
3.810638785748628188e-02 1.136053695834064563e-02 4.527998581807559098e-01
-1.049245026140480097e-02 2.112021788043498549e-02 4.475966498375915092e-01
6.967680065190713645e-02 5.759327134583341889e-02 4.810168271934855966e-01
-4.754338918438705264e-02 -2.790852542145869780e-03 4.450714272921307280e-01
6.494133888113483299e-02 4.675068884237526187e-03 5.078245026245222782e-01
3.370950146681489165e-03 1.924636938485390844e-02 4.476319544846975584e-01
-3.643197976665379575e-03 -1.060086924834588700e-03 4.405767495771041320e-01
-2.318338942904179384e-02 1.920570730718561617e-02 4.494730189687232147e-01
6.537654758856674408e-02 1.211442078112426497e-02 5.195608046600708185e-01
1.249868828959912331e-03 4.182719907655321062e-02 4.547334858443549122e-01
7.408532438612720761e-02 5.470197062032943619e-02 4.792264784797377053e-01
2.433278822970242825e-02 2.822148515637890737e-02 4.541821914805365679e-01
7.612958636119293576e-02 3.772459543535130327e-02 5.148014238235227857e-01
3.436202507215375956e-02 1.749527255217829189e-02 4.536778208112603461e-01
7.281910845453586426e-03 9.784033151246806018e-03 4.453071594908739050e-01
2.962099806851782244e-02 2.325537071407221892e-02 4.540179330609840358e-01
7.794898313386396105e-02 5.332138645056219012e-02 4.798306205340232555e-01
8.233431831145669733e-02 4.054410870881469675e-02 4.794082292796157385e-01
7.720776842753482305e-02 1.995128069928638406e-02 4.873976346404278459e-01
4.665809259530597636e-02 -6.439136844901192230e-03 5.300850119932286608e-01
9.009904388139562681e-02 4.958775607079572018e-02 4.913803582614068577e-01
-1.967042857541394241e-03 2.243940142724216817e-03 4.419363209712154905e-01
8.611517340480241700e-02 4.058407689430201110e-02 4.837810083378112913e-01
-3.606023256228169625e-03 3.334144039265399956e-02 4.517404983707797306e-01
5.033407499714029343e-02 1.129313659773730633e-02 4.586335461231067501e-01
9.309297874095241732e-02 4.415268320641434902e-02 4.900012575448970953e-01
3.802271250662991875e-02 1.646731044587663659e-02 4.544880204453352057e-01
6.724157761130282462e-02 3.063911242875290430e-02 5.296750418399581717e-01
6.206876186834137110e-02 4.259764124427305870e-02 4.707720060934238449e-01
4.021619160389661163e-02 -3.566858538783568983e-03 4.504879087778967395e-01
5.923295994307101880e-02 2.734696850897793546e-02 4.668894725236284460e-01
7.250979929404194335e-02 1.179804109217630001e-02 5.007519891715774829e-01
-2.111515039118566639e-02 3.503742384480483529e-02 4.546875224119265035e-01
6.910894736342095002e-02 3.841365479704794000e-02 5.186362010499422359e-01
7.121116754590099684e-02 5.761372381884263122e-02 4.955166754035307819e-01
3.890758435116618841e-02 2.429474795371456067e-02 4.570769309842349082e-01
8.185563075097485042e-02 3.697747622692654917e-02 5.036825507033094729e-01
-2.637458395280565301e-03 3.546556303044226619e-03 4.423540712522558982e-01
1.232718324227153640e-02 -1.782167332080811933e-03 4.416709783480021745e-01
8.136415574595216860e-02 5.199512333506876860e-02 4.812639076711408004e-01
2.907353425013945586e-02 4.275253042696919303e-02 4.606020397767173757e-01
4.412293839686073221e-02 4.897973734855941980e-02 4.664777753963157969e-01
5.536611187719975985e-02 9.245787195978417625e-03 4.612592364348725993e-01
4.536547517846960947e-02 6.438802980458071049e-04 4.542297125897176713e-01
1.134759156504117419e-02 2.258143710675041688e-02 4.498965152603082163e-01
4.508860232321060257e-02 5.044681853004556737e-02 4.671561508898800508e-01
1.807959216533010921e-02 3.694797456091886145e-02 4.561589738828408236e-01
4.186036113812949266e-02 5.652237827320025915e-02 4.739465333409005887e-01
2.178144007451291234e-02 4.890638848524281324e-02 4.614447137547481037e-01
7.546389870416501944e-02 2.554030210837862636e-02 5.160060782410714753e-01
-8.056606010218788499e-03 3.637296195314213693e-02 4.525326194077782804e-01
8.077448166786603545e-02 5.584419213678175342e-02 4.992727438812460394e-01
6.277610020890826703e-02 4.059927883869964005e-02 4.706246865750403630e-01
3.556789650408206938e-02 1.958221310419324540e-02 4.547203620729260432e-01
8.314020395456733770e-02 4.057712990589500829e-02 4.798617164049066575e-01
7.351890271305366875e-02 1.335339223230796492e-02 5.013585034650506200e-01
7.789194704872683117e-02 5.986392589534413056e-02 4.954382584606099593e-01
-7.591403975117982060e-03 3.306034181677010991e-02 4.515449835045468041e-01
7.403937460502336976e-02 5.256830099067470036e-02 5.075145041135682433e-01
7.234533641693485784e-02 1.043158599357170771e-02 4.926698227820871523e-01
6.804319674312088451e-02 5.106921508147756888e-03 4.990251465687048360e-01
6.640715247120682063e-02 8.610057789868317407e-03 4.732161731466318355e-01
3.730543223495792760e-02 5.180983585777081818e-02 4.654269492466708846e-01
8.359605606574560532e-02 5.079094227602128780e-02 5.019988065465362803e-01
4.292606863679403889e-02 3.157860714221122096e-03 4.533288512709082729e-01
8.416556972457045482e-02 3.818318504512012435e-02 4.824489909007084742e-01
