4.065068799844867575e-02 3.242287279328023158e-02 4.615310436580899456e-01
8.676204700524202396e-02 5.193398214940733032e-02 4.873370000123554702e-01
-1.793402967885317917e-02 4.003334508765082900e-02 4.562719551665423978e-01
3.700113536910248219e-02 1.850981203319837336e-03 4.503057044955601218e-01
7.149389337897912866e-02 1.418767249620503726e-02 4.831866682129317137e-01
7.079740550791535636e-02 2.520900612697966198e-02 4.751107920660483930e-01
2.820827175082546434e-02 1.641202963411408922e-02 4.519321345604276896e-01
-1.490666241691931525e-03 1.890989463466973344e-02 4.471509513977690586e-01
8.231808386511037245e-02 4.797565740395287603e-02 5.032798271502409992e-01
6.306020476064784497e-02 3.428400815969921689e-02 5.261278984112593982e-01
-1.130161067217149568e-03 1.193723149241572752e-02 4.451420025227300625e-01
6.212257000226691778e-02 3.249292595181630522e-02 4.700129753166895075e-01
8.157745382242009846e-02 5.061253849204563199e-02 5.041171148479469677e-01
-2.268427219291144215e-02 1.552436025211762285e-03 4.410321705146986737e-01
3.840074271171166342e-02 4.825127565741476471e-02 4.658646660124496353e-01
6.289092955945430052e-02 4.426733916832313598e-02 4.732569464204756104e-01
3.928910105021585220e-02 3.655653179050612905e-02 4.624053511920596660e-01
1.759460757491004487e-02 -1.667979988941299500e-03 4.429935061085337744e-01
3.405319441292362082e-02 2.776255351695413719e-03 4.491881852138992492e-01
6.844585441505064705e-02 2.013719650212682580e-02 4.738816438533513531e-01
7.075686425411935321e-02 3.226122453099922877e-02 4.743775430113127412e-01
4.969128163742751042e-02 3.512163775958927064e-02 4.660502075544137313e-01
6.863901423607758623e-02 5.574689486046927392e-03 4.942890002888851719e-01
1.249012647888285768e-02 2.429140588219610639e-02 4.510692056588098131e-01
9.024543730683265430e-02 4.185193400920372148e-02 4.909558656310831215e-01
4.299252081173511597e-02 2.455478586230648921e-02 4.594549591493410912e-01
2.408232917758905064e-02 4.677799213800936523e-02 4.617133330631855159e-01
7.977409002184462916e-02 2.817099191353233598e-02 4.939577543868003962e-01
6.102984905450868636e-02 5.895143863312683752e-02 4.842779707675763379e-01
7.195321353823835864e-02 1.161010963305773164e-02 4.921982340312925364e-01
6.780663273516325529e-02 3.590888362679726942e-03 4.926659588454169181e-01
6.704229880385383089e-02 1.682030690284023675e-04 4.888798487213327770e-01
7.502439971328923873e-02 1.732177197536653029e-02 4.977568261174681319e-01
5.740926715116253382e-02 -3.140153815032144767e-03 4.663059258659767448e-01
6.938986968483749906e-02 7.870327840744456571e-03 4.969433756628480192e-01
2.944279986924697168e-02 5.791405377749692801e-02 4.700400812208374579e-01
6.493315936094870566e-02 -1.360096310756018232e-03 4.794968182640772514e-01
-7.049672313756457330e-03 4.492384579083195245e-02 4.564314942440611533e-01
7.993636550815622077e-02 5.920483242685017911e-02 4.953630230171132132e-01
6.418630484039830608e-02 -3.454220680527326365e-03 5.012912617325500086e-01
8.115210487672810946e-02 3.267422967105589743e-02 4.843611899693976430e-01
6.422247088823182515e-02 3.350503969552209166e-02 5.274100272451506255e-01
7.860312157594157023e-02 3.786786916450657348e-02 5.097728211999601466e-01
6.017419731296296675e-02 1.958617553276956191e-02 4.672473425130680980e-01
5.066368389190866600e-02 5.096375007765752835e-02 4.699170956126441090e-01
5.840980998034164817e-02 4.033722662311940710e-02 4.699799055549000459e-01
6.382245911771483593e-02 -1.758429856848928770e-03 4.766980135634889537e-01
6.637607813989010452e-02 2.940448640397825067e-03 4.802868809040102271e-01
6.488236071721291409e-02 4.006775409967171069e-03 5.049633557531413297e-01
4.974448073394395486e-02 2.228041372218630967e-02 4.618333272289301128e-01
7.836630530061830524e-02 2.482980469207591093e-02 4.895704629983718137e-01
7.134388104851718815e-02 2.719149673451110721e-02 5.237792188923017234e-01
4.624173201149512497e-02 5.640311752976367304e-02 4.747589053519148949e-01
7.854165940140647728e-02 5.182791028021622309e-02 5.077648734914622652e-01
7.320011861538421039e-02 2.487478772086751388e-02 4.782760653883341706e-01
5.959801862540129586e-02 4.029047795023894818e-03 5.195971014144361577e-01
7.541427154671921651e-02 2.885566396583947452e-02 5.156296908448821936e-01
4.760543201720795342e-02 3.379484546753622892e-02 4.649162156049110317e-01
7.897563573611227072e-02 5.951623177353646682e-02 4.975434009931492541e-01
4.457470618337588952e-02 1.162275273741496424e-03 4.543417141862757247e-01
7.456178976541719128e-02 2.492439491694070641e-02 4.799457232172450460e-01
-4.610675098250364284e-03 3.955842845876687483e-03 4.424868186592607611e-01
6.411075390048766309e-02 5.924436212617747999e-02 4.825949144926644507e-01
4.552076981851656962e-02 -6.966586572606366275e-03 5.313413452293276329e-01
-9.902266240709558034e-03 2.563323946259039865e-02 4.495531334799340306e-01
7.187666381594777498e-02 1.648757908943281406e-02 5.103659953417625239e-01
6.747615994741022749e-02 2.440199827193858390e-02 4.726590174886741158e-01
5.841777354985965703e-02 4.910441472463605156e-02 4.717913038575926032e-01
4.453069949011301959e-02 1.440920595242739174e-02 4.572842090209174315e-01
5.589141080098908310e-02 4.925458954454393218e-02 4.709956234488306137e-01
6.480484348723335175e-02 3.171708906842857223e-02 4.711568480032181649e-01
7.178813346388000782e-02 1.233676878818691994e-02 5.009332102976393752e-01
2.187562316437163465e-02 4.951486707641537116e-02 4.625168211262976614e-01
6.525020721909489951e-02 2.036476099289278446e-02 5.281344268151380028e-01
-1.537362356719301597e-02 1.045228704741880434e-02 4.442459480215404377e-01
6.909420398322460577e-02 3.983853413674152272e-02 4.747034599897704821e-01
-1.917195450840012902e-02 1.195573268167685055e-02 4.455925964532067018e-01
3.733701946778296421e-02 3.555457055411100076e-02 4.613651809831997852e-01
8.628919791435306352e-02 5.332009477641350137e-02 4.873539902938621160e-01
7.040782565960854167e-02 2.201130741258310736e-02 4.757530416778518734e-01
7.144245284721947864e-02 1.221794735163752102e-02 4.860222653523763037e-01
7.962282753311324124e-02 3.899097722716389491e-02 5.071639873287279165e-01
6.138151592038679910e-02 5.278540912272182244e-03 5.165820993502469038e-01
6.741116005333327998e-02 1.539517329572422447e-02 5.189736005584645318e-01
5.835917251700353109e-02 1.922793489190623151e-02 4.659972598376658781e-01
2.394733423035423289e-02 5.674309492466542149e-02 4.682673191722139250e-01
-6.790156829622720665e-04 3.576745214645962040e-02 4.531907383634390385e-01
1.802630264767066809e-02 4.101007736761532602e-02 4.583389198199668280e-01
-8.665510156452626428e-03 -1.838373867410320571e-04 4.404769933778562852e-01
-1.188994367711237489e-02 4.208045772867216074e-03 4.421755644911222749e-01
-1.649692162686659108e-02 2.326986129651303914e-02 4.490317378297980500e-01
8.542183793102106626e-02 5.334391568480336548e-02 4.867926829988502568e-01
6.454783576367147113e-02 1.174485962152771630e-02 5.194435304235042183e-01
3.077749413270761472e-02 5.789683552042532155e-02 4.704856092805536627e-01
7.078212890319252049e-02 1.759464481725607835e-02 5.149549914172282250e-01
3.882382180613871969e-02 2.859173052617801011e-02 4.593593608446547294e-01
3.051086869919821323e-02 3.279652788279970033e-02 4.579603896349558889e-01
-4.175102951884429592e-02 4.829026450475614862e-04 4.413623683140188159e-01
4.442312316475002104e-02 4.938440784231640929e-02 4.678493966934077486e-01
5.637828600623990410e-02 5.262003777516679331e-02 4.724364656901286486e-01
6.893754529906377659e-02 2.546574739727137937e-02 5.265604195649854491e-01
7.168200305323435551e-02 1.648954483883547859e-02 4.805730264310222877e-01
8.415136692500689575e-02 3.911915560693537963e-02 4.933814385264886360e-01
6.406305969621187146e-02 6.904834784330342312e-03 5.122611725590687781e-01
-2.138195155670884889e-02 -1.196519562765754191e-03 4.402987342049545227e-01
6.986012111806072511e-02 1.657602418247788867e-02 5.153424397981283267e-01
6.293085650117305821e-03 2.195554077709944985e-02 4.492876353140855539e-01
6.933442049458160561e-02 1.871587099017499312e-02 5.201539016640039925e-01
7.660843382841697746e-02 5.977835203165187544e-02 4.984949775901747482e-01
7.977167814566783755e-02 3.229965887573536809e-02 5.030342798207438904e-01
5.839035579472145847e-03 5.024964391648362866e-02 4.632730500683637787e-01
-3.268320016817032048e-02 4.567023217786478871e-03 4.446172834100475257e-01
5.362380149653946104e-02 -1.102532721608197146e-02 5.258757946699230690e-01
5.545963643092881312e-02 5.723057204329434766e-02 4.755650611947856987e-01
1.728140505291055409e-02 1.095288299374509895e-02 4.475808497439582867e-01
4.587915589314845582e-02 1.226300970876832881e-02 4.572063865900306001e-01
8.589996354341564166e-02 3.872114192378369596e-02 4.907257171810610608e-01
5.818209752498297582e-02 -6.026874612273662099e-03 4.686345295567770908e-01
7.242957605938799004e-02 3.121656074575975340e-02 5.224143361664573826e-01
8.623507411991190863e-02 4.587518482416583221e-02 4.864123530178784405e-01
1.767705105073039823e-02 7.622294739937641485e-03 4.464555698512085447e-01
-1.601483862881493067e-02 4.205770866360167282e-02 4.576778160687712260e-01
8.106880887061435059e-02 3.184086841426495701e-02 4.960619392626931523e-01
-3.459116736706466244e-02 2.485468264922793998e-03 4.422795906365103447e-01
1.334323894920146948e-02 2.388194899776042296e-02 4.510986301761953365e-01
7.379814512768523294e-02 1.803234390640594612e-02 4.849139930099313212e-01
2.882336279856943795e-02 3.007209715494821300e-02 4.565801142438553617e-01
4.758905407891600436e-02 2.326307442432049011e-02 4.610107578645877280e-01
6.971524806814619057e-02 5.188234084701470739e-02 4.777618874640619517e-01
5.278058992569832630e-02 4.473833198629977026e-02 4.690002387437414710e-01
5.801625224292374094e-02 3.881956733348335131e-02 4.695442509900283334e-01
3.709101491593211342e-02 2.866983763937640609e-03 4.506537852743016104e-01
2.153350569476211729e-02 1.170918592328723876e-02 4.487918925936543180e-01
-7.049837925170330741e-04 1.448755522280163570e-02 4.458887653778521587e-01
9.041985531356810935e-02 4.838120555340655327e-02 4.938094558204892404e-01
4.567001168177437648e-02 -7.446935137639510045e-03 5.314973119412663705e-01
5.399091939047442890e-02 -1.096275374543733902e-02 5.255060788366753277e-01
6.369479609810793641e-02 2.685094294269416842e-02 4.706243252646761799e-01
3.894316060018523928e-02 5.599354670478093321e-02 4.698603171269890022e-01
3.146271044096212582e-02 3.736725177147471461e-02 4.603258331243760271e-01
2.554388867529371401e-02 5.362671545744525370e-02 4.650268527721743705e-01
7.215416263702041644e-02 5.054121920441805027e-02 5.118696356439762507e-01
-3.795485313905763020e-02 -1.286151212446089718e-03 4.401335277306364091e-01
4.212880064902201072e-02 3.033333657450518542e-02 4.613688787135035163e-01
2.366894175388519275e-03 4.524976980548642280e-02 4.569595845334773476e-01
8.762301510402034643e-02 3.909484383873278179e-02 4.884777949574103384e-01
7.085788794575303973e-02 1.035498397895825463e-02 4.878046836644819306e-01
-1.683566724858365921e-02 7.492777391956038750e-03 4.431914638826828789e-01
6.821017561387075767e-02 9.643352423828167874e-03 4.782806155144478932e-01
5.244784269757039180e-02 -5.354597018610044931e-03 5.252056722292631763e-01
8.431924256222041170e-02 4.455333437536098534e-02 4.838536816840096066e-01
2.540686430590111816e-02 4.863792606222849119e-02 4.627938396278979405e-01
6.038301604650411769e-02 1.109981145421832203e-02 5.262539933683234583e-01
6.955116026335340929e-02 7.425373197920592111e-03 4.875641461379570663e-01
-3.389384616431932902e-04 3.824164828667289684e-02 4.540188283942580005e-01
1.258024033463997146e-02 4.271805168241418760e-02 4.576472413454640842e-01
6.439853960159191981e-02 1.503337913672810403e-02 5.239306220843035211e-01
5.026071518612437034e-02 -1.240030014630216434e-02 5.295017549508992394e-01
7.587826736957582752e-02 2.041556759612858651e-02 4.875534553573588892e-01
7.488402399162986944e-02 2.390693090957491176e-02 4.809150403590522482e-01
6.465060298934256766e-02 1.229305796148776747e-02 5.202012796365264036e-01
5.977347093015367846e-02 3.900120700050588307e-02 4.701205075806023648e-01
6.850323135298586052e-02 6.012724320076537343e-02 4.851142366204226897e-01
8.639037955492419318e-02 5.357057424917899963e-02 4.913261734485181997e-01
5.540033250315951063e-02 4.082261339524451138e-02 4.691360861134460936e-01
-1.067375621898009226e-02 7.298708625173278702e-03 4.431642905031364932e-01
8.443042058441926900e-02 4.599192230318967234e-02 4.835596840547282671e-01
7.580049283457251930e-02 3.758081230111030152e-02 5.152909656566097008e-01
3.284409151225182316e-02 5.820240083034039502e-02 4.739265601710049292e-01
7.806270574497169157e-02 2.579609983789910369e-02 4.845734988040361069e-01
6.635186652732380508e-02 1.695430782924811988e-02 4.718623771536296085e-01
6.845625356818373086e-02 5.618205201060353510e-03 4.854317563808355218e-01
6.940893681876293686e-02 1.342769492916527987e-02 4.779137761583824306e-01
7.494250527316156929e-02 2.074970620001924393e-02 5.082844163707951335e-01
-2.849889013963182241e-02 7.549536485914131768e-03 4.466557772947005178e-01
6.310976290435674207e-02 5.946312950426210775e-02 4.837845718623003943e-01
7.204120935220106881e-02 1.510738333205717022e-02 5.074229881780885076e-01
2.904457319106662841e-02 5.375347538925896729e-02 4.657966366616129728e-01
6.465983736856939501e-02 1.208215521561724522e-02 5.198177487987546419e-01
8.004324822422188845e-02 3.103446701222416920e-02 4.997352384787790425e-01
-2.009812268281285091e-02 1.945861329389664274e-02 4.488392063432991574e-01
3.230034513795770890e-02 3.366637888423905378e-02 4.589136913670573970e-01
5.306445219318224604e-02 1.056768904914485302e-02 4.607308209163375468e-01
-2.697807583511393353e-02 4.062219311000829849e-03 4.424519377803729503e-01
7.225151317826081221e-02 2.991551398316527263e-02 5.225655770582937620e-01
8.804625665805973500e-02 4.096105509736805428e-02 4.881341774215655627e-01
6.099961258261273576e-03 2.006053602423898963e-02 4.486538890468307339e-01
7.380843730391427326e-02 5.654119949490395147e-02 4.817796728433932918e-01
7.268015368207822458e-02 1.589797359182975461e-02 4.848494663189561460e-01
-6.139770718628743441e-03 2.165539968693754036e-02 4.480090337722353322e-01
3.232134783121094757e-02 2.664149101092512170e-03 4.483819789983020665e-01
-1.497084792159718118e-02 1.440781031118809792e-02 4.458333784733569116e-01
6.905915966223083458e-02 1.722963596220206117e-02 5.182801542079860102e-01
6.280756718059611610e-02 1.576303162068506958e-02 5.274331847934591311e-01
6.552385686094640282e-02 2.645314557594794728e-03 5.003054325336855346e-01
8.376374347647089214e-02 5.536089969236426128e-02 4.870323867894841841e-01
3.024885110754400169e-02 4.946079829892331865e-04 4.466387821136095782e-01
5.414531657663718134e-02 5.658201207396361399e-02 4.753303011998389338e-01
6.108809561786508052e-02 2.567471373507034665e-02 4.689710688904065727e-01
-5.084212835885053294e-03 1.433974927468911753e-02 4.453071479491295670e-01
2.129723356024245534e-02 5.112047650784476427e-02 4.632440496380436645e-01
2.187610020460874216e-02 5.535324255273533361e-02 4.672323754676013796e-01
7.068646259770532125e-02 3.051015586744738883e-02 5.255161595253378115e-01
1.817460650817883175e-02 5.199096837402357452e-02 4.633811996088026963e-01
2.094879532561130450e-02 5.307848548937060124e-02 4.642208605753632700e-01
3.183482724649303736e-02 2.713783251540856714e-03 4.481870872824459950e-01
-7.870994336409954661e-03 3.898620417614784978e-02 4.537148600921592223e-01
4.918623897387210120e-02 1.693505524108433399e-02 4.602246981737171394e-01
-1.902271766936207420e-02 5.837476658869285816e-03 4.426766199688663139e-01
5.005853193907355836e-02 -8.999439361738930179e-03 5.286278427391993828e-01
3.045931618957561232e-02 8.615020650960623222e-04 4.468601256944461086e-01
6.507938420611054930e-02 -1.537119426736007627e-03 4.993081100246459791e-01
1.269174970940304195e-02 2.349919212358007187e-02 4.508655122325445075e-01
7.184042539322396670e-02 3.454810078652353206e-02 5.214302010869699133e-01
3.483096545609332129e-02 1.256834813443732241e-02 4.524937849400924028e-01
6.153829478344364362e-02 -1.757154272326081961e-03 4.717141965414604621e-01
6.186347336731681801e-02 -2.542459968182431314e-03 4.728688478409331930e-01
6.510885689367999773e-02 1.285356676621689925e-02 4.710584930653658464e-01
8.546904458947446326e-02 4.222121431524470531e-02 4.971422878316110183e-01
3.210369755427849164e-02 2.177606469866213545e-03 4.480966773574342477e-01
6.977826483942506375e-02 8.645316923943623111e-03 4.864171576805032537e-01
2.721692155461565357e-02 2.494290100966406812e-02 4.545050105370393445e-01
7.651440294155618937e-02 3.320918361731337726e-02 5.139722518812886998e-01
-1.861567007573250790e-03 1.281368923751887053e-02 4.452860884759774485e-01
9.320451027877992012e-03 3.691902061090222148e-02 4.550307649889128170e-01
7.151902269517622368e-02 2.550476644746875812e-02 5.228626197524508523e-01
5.933018453614427590e-02 5.317819245918296855e-02 4.740399486896963999e-01
2.777582168164554124e-02 4.612238872755283770e-02 4.623663183621808948e-01
6.902760135475087544e-02 5.609828793499248983e-02 4.796824089415404058e-01
7.211827283472969918e-02 4.535513258184016572e-02 4.787120199295495371e-01
1.151344640612899858e-03 1.030222096122594862e-02 4.449309541975329241e-01
6.480598891560337971e-02 3.126371185755173754e-02 5.308365653150765029e-01
4.833915919767849817e-03 4.980777141676492881e-02 4.616314590098852255e-01
8.316419112115792933e-02 3.576054519756583644e-02 4.878642625277315736e-01
5.026688619187381912e-02 -2.030509439921213393e-03 4.583491323117382943e-01
4.570050144640198236e-02 5.645099412795223648e-02 4.751556449997700882e-01
5.169376539869673798e-02 2.579220522669048443e-02 4.637575577983074626e-01
5.772097289450062174e-02 3.179968871624780369e-02 4.681490313620126908e-01
8.277425700955784449e-02 3.606200056930489173e-02 4.935589791551711070e-01
-3.368906547101349624e-02 7.784196835114419195e-04 4.412502104615423915e-01
-5.288608082137546962e-03 1.256573651301238874e-02 4.447886432950347024e-01
3.003857064330909404e-02 6.500130257990836824e-03 4.488056243932542766e-01
8.000349188767803821e-02 3.834938014075185003e-02 5.063742284063467158e-01
6.154191587910729649e-02 7.159169699019420421e-03 5.190088390337249669e-01
5.773950891408877184e-02 5.621225200330476346e-02 4.755997761157254033e-01
2.415547903460900370e-03 4.359258714556868419e-02 4.562322730522679337e-01
5.546771629292147204e-02 2.223890965172114001e-02 4.650222285671730682e-01
6.837185728457804978e-02 1.823265119639606510e-02 4.744129695746518993e-01
7.992756308473070170e-02 2.946346870738122264e-02 4.967508096196092682e-01
6.448885302816438625e-02 -6.467546148880686657e-04 4.777244531077817213e-01
1.867832921542511571e-02 4.847689668980605104e-02 4.615023958718623143e-01
6.985035306426828905e-02 1.456092030438399000e-02 4.780719279011434453e-01
2.202291880409882122e-02 2.132124877951267761e-02 4.520123978205701221e-01
2.133891739421016343e-05 4.897222137124191549e-02 4.601535616515918248e-01
5.341626007240689311e-02 2.194753741771384922e-02 4.635723881089027776e-01
-2.142315011710505500e-03 1.577649462518050660e-02 4.461037334521522069e-01
6.257754119789869784e-02 5.002185199732054818e-03 4.708550976355683204e-01
6.621796729739695686e-02 2.829461370837861589e-02 4.722459151911294062e-01
6.864945034403703572e-02 4.830988649341637353e-03 4.910052309553821215e-01
4.011208169996453854e-02 4.271599600584040368e-02 4.645710522364981387e-01
7.314147666163819950e-02 1.739796924657804542e-02 5.082144657799686494e-01
4.229544749519545399e-02 5.683302409931458715e-02 4.752516389918212125e-01
8.757976585594687280e-02 4.532246995826918340e-02 4.878500487691990184e-01
-1.260534794690273269e-02 2.607431329721314819e-02 4.497908838704512413e-01
5.743386393784514349e-02 4.324142296412584324e-02 4.702586416950586545e-01
8.306363093671249864e-02 4.547729796155083881e-02 4.825504356871190836e-01
7.082006358946790758e-02 2.837687956015202614e-02 5.249412093029014459e-01
-1.159331333469243788e-02 4.385475709717841925e-02 4.562876799250693560e-01
-9.414135484628627717e-03 2.575517494252803699e-02 4.496061391813404584e-01
4.606895019274048764e-02 4.129057416023852733e-02 4.659770177294146332e-01
2.279649162704168452e-02 3.882718124436844442e-02 4.588354916767617420e-01
2.316901107110728997e-02 5.046835180925790532e-02 4.630985104277576259e-01
7.032743473094121844e-02 1.876754499134786897e-02 4.768352520957612195e-01
6.681946717425571447e-02 8.623689970359013982e-04 4.920821172438943902e-01
5.897456682061756605e-02 4.783726972580952530e-02 4.716909465262398293e-01
3.835931074182408196e-02 5.760530653603172790e-02 4.746675449656770351e-01
7.369170950733140713e-02 2.404748835890482134e-02 5.169001874872851676e-01
2.923208209522005704e-02 5.268303183827839631e-02 4.652215030976445953e-01
-1.556928005239755809e-02 2.346364112372522400e-03 4.415267602528091251e-01
7.837152618486768751e-03 7.373682596639800392e-03 4.448457340106732327e-01
3.221599194768329233e-02 3.194462991455201961e-02 4.582490786293680340e-01
6.724569407355628081e-02 3.401734663525871408e-03 4.835240060699563247e-01
-2.500785793023819689e-02 3.110528797586502043e-03 4.418412826637018731e-01
7.767936113282399024e-02 3.190323562616903530e-02 4.802558512285213799e-01
2.687081893290277357e-02 4.180892729088447890e-02 4.606602704251824276e-01
8.564364111088783316e-02 3.742883579267256705e-02 4.862343546776980441e-01
5.633932009078724407e-02 5.692044934249398253e-02 4.755233655983029384e-01
3.364916916655957824e-02 2.223368478487014119e-02 4.554813338452163851e-01
7.828939146390528903e-02 4.603250710150471464e-02 5.092161174354352671e-01
4.624578067817756988e-02 4.095142560819275274e-02 4.659556814712662032e-01
-2.222330333577431441e-02 -8.229952005665746098e-04 4.403685578008658674e-01
7.685241009397469902e-02 2.559818329310934240e-02 5.090557803072387477e-01
7.896777688365230752e-02 2.650778600896033441e-02 4.952653152478411203e-01
8.039949283536881874e-02 3.535951701566181216e-02 4.821887235519048964e-01
7.451470743486422743e-02 1.611424631891040030e-02 4.936202868925635423e-01
4.987028680521642630e-03 1.534879708551076943e-02 4.470015566626330816e-01
8.036088579698090484e-02 4.496859351181892867e-02 5.051036537693136541e-01
6.166817328164993922e-02 -7.093722498230136189e-04 5.100600766798663033e-01
5.032661915202793490e-02 -7.670827888913671691e-03 5.278680063396583577e-01
6.066391237852813284e-02 1.932423840677782766e-03 5.141934697518490971e-01
1.842470780365194211e-02 2.027200238415299144e-02 4.509428535942289762e-01
8.136107004643697294e-02 3.499029101459931457e-02 4.999953817532673539e-01
5.908250101223024020e-02 5.920121063940667755e-02 4.807451686592253415e-01
8.214436473730029470e-03 1.117957765415172888e-02 4.461526550116450274e-01
-2.864448526476434664e-02 7.017259626305276388e-03 4.463844691165053113e-01
6.030898600836406137e-02 4.487793511020635867e-02 4.717516808408557250e-01
-1.541860943736869487e-02 1.160542471916822457e-02 4.447343479877585715e-01
6.974840319892479379e-02 7.764597403005665983e-03 4.879201299725748897e-01
-1.886995535511988564e-02 3.928562394551305542e-02 4.554075010070484653e-01
7.705751942307484392e-02 6.050773370941121138e-02 4.976665600856950977e-01
-7.470856353866702979e-03 2.679207210810256520e-02 4.500411053081947998e-01
6.596169344907198973e-02 -3.340869264352450303e-03 4.910131502209214016e-01
8.220060701522352575e-02 3.637214315562896372e-02 4.973396575430120148e-01
9.148313765831077304e-02 4.576347944627943282e-02 4.941110775839764324e-01
2.988425494691913237e-02 2.294851905281660581e-02 4.545914129332897513e-01
-2.390995342363727572e-02 2.538523939820556616e-02 4.527052752598508256e-01
6.316961419844968097e-03 4.621257926882760270e-02 4.579917651740649798e-01
6.931456029028527921e-02 3.825557532282816697e-02 5.202319783676944143e-01
7.769837654170567987e-02 2.549421679701786500e-02 5.001895082118437141e-01
6.398121040141112326e-02 2.053822133951298257e-03 5.047215685920967143e-01
6.730376166863370757e-02 6.474815954664425721e-03 4.792084028836881004e-01
1.179503508220999808e-02 5.198895263942941020e-02 4.629198841206867976e-01
7.473120177993350377e-02 6.343220120543360818e-02 4.938434380242940347e-01
8.237995364940838006e-02 3.707939792619796560e-02 4.976116135552726139e-01
-4.761896025307987314e-03 3.657752066322994544e-02 4.531177410775002468e-01
-2.173986482131930881e-02 3.265300212336957192e-02 4.542128629506750892e-01
-1.181505117900716675e-02 1.731823949376164185e-02 4.464504740147098305e-01
7.934732350109077736e-02 4.575369862518674502e-02 5.072951287972100598e-01
5.992270648268937377e-02 -1.633034942125604532e-03 5.138586411152051836e-01
4.833210436649233721e-02 2.927248409217528616e-02 4.634953446583557346e-01
7.748735660803346414e-02 3.824124126409166741e-02 4.786905021859031995e-01
5.065195276511160610e-02 2.618826651469166253e-03 4.586056866854326675e-01
9.578075157852644281e-03 4.677903382864035536e-02 4.588757252977447854e-01
6.478687420687519183e-02 5.138129609345717073e-04 5.014369016354940367e-01
7.541507838537322983e-02 4.022196611743348443e-02 5.144031367245138764e-01
4.241255616883763888e-04 2.594674624912281149e-03 4.424498526767154383e-01
8.343858165520669223e-02 3.716758479349335786e-02 4.918042450643721475e-01
7.172693277340154439e-02 3.843115170686387666e-02 5.188479880350218565e-01
1.832115839153872563e-02 8.703949079586681750e-03 4.470184572429829473e-01
5.518266434725435654e-02 -2.780461401557503525e-03 5.218291970288774229e-01
6.807992987897200365e-02 2.776478329875793280e-02 4.733311518821410879e-01
5.113789618175153262e-02 4.321920248759542407e-03 4.590244050546451460e-01
-9.857963021299737116e-03 2.543202192765327274e-02 4.494717365780376839e-01
6.614373084645246148e-02 -3.108934660417568552e-04 4.837875529869480884e-01
-1.192703558619426576e-02 2.595919798807414317e-02 4.497074216634230348e-01
7.869536663490589445e-02 4.562474615558522600e-02 4.807540925877003546e-01
1.517159441939051195e-02 8.707855434807870720e-03 4.463822876452067656e-01
2.145129877490960235e-02 1.521673906649746678e-03 4.448306439379012822e-01
7.676419371207374165e-02 5.918695749575057091e-02 4.990460609936789305e-01
8.854318771786934619e-03 3.581179842969951788e-02 4.545592853729726879e-01
8.297535766615642128e-02 3.851164457818844616e-02 4.968907609422752447e-01
-2.873367523985939642e-02 7.486479049155993389e-03 4.467626179095777195e-01
8.464442727287685431e-02 5.245876005499975486e-02 4.860079842102503211e-01
3.607619262436745355e-02 1.284376476126141906e-02 4.530206581772148744e-01
-1.278452511489553897e-02 3.695469011913213309e-02 4.534235534789024524e-01
2.882616515792991996e-02 3.774411786472682551e-02 4.598920316303100608e-01
4.588085797195882998e-02 2.594094029239790364e-02 4.611684261890074965e-01
6.630177826186853252e-02 -6.727591996736207239e-04 4.849796567767665767e-01
2.441105662965421981e-03 4.730244391249119329e-02 4.587402513695504336e-01
4.609063612257641857e-02 4.897598397795605019e-02 4.681327263311479969e-01
6.006106540985402253e-02 2.745466251792529760e-02 4.685039304290323225e-01
4.178052476581257252e-02 5.249165896909586265e-02 4.681884211962307196e-01
3.395551895140219711e-02 4.254557901991296714e-02 4.628144773830477621e-01
-1.756486425909613812e-04 2.531343913451863589e-02 4.496409437561542655e-01
3.336093100632778891e-02 2.022613978602185586e-02 4.547915043045292482e-01
5.306944025794843589e-02 9.548368605446944102e-03 4.606826015994622270e-01
6.755567818535027080e-02 4.292880609720314822e-03 4.965155799910612733e-01
8.261616672285726493e-02 5.396216925434154515e-02 5.011953564486095747e-01
8.054611773146602705e-02 5.463837900275145959e-02 4.842909833095599970e-01
-6.987068127918020718e-03 3.752302112864663863e-02 4.532242306624042483e-01
2.651040688822121905e-02 2.034191216832868104e-02 4.528209097911179981e-01
1.540445088666874199e-02 4.582211554348270682e-02 4.594206413559871471e-01
5.032179552053598487e-02 2.061200967750157799e-03 4.583512964223148689e-01
-1.931916416626531380e-02 1.529836626603334193e-02 4.469885972552944398e-01
2.466283745976311642e-04 4.949707037546442062e-02 4.629677622490563915e-01
8.195202103554068140e-02 3.371825230613424706e-02 4.869925794877294489e-01
7.593483380086443746e-02 3.381985879697024799e-02 5.155122879117181034e-01
6.685702888337519134e-02 2.739433782437464097e-03 4.825248976209531859e-01
9.474044836180693305e-03 3.441714334182127688e-02 4.541229507684894084e-01
6.292473123735677076e-02 5.150739366601278513e-02 4.746999617222458223e-01
6.877471130163330393e-02 7.096185708495626396e-03 4.842373344664498425e-01
3.155023913675386506e-03 3.970108338201214226e-02 4.549423509665742604e-01
6.141516203208188807e-02 3.742964584360473912e-02 4.702974262376380943e-01
6.834543521133219779e-02 1.553668175347457971e-02 5.170653576975355881e-01
7.762569653972267725e-02 2.514484399579908214e-02 4.999805850237253324e-01
6.753823569653168157e-02 4.115150027797873089e-02 4.750766763671375736e-01
8.097354264317999095e-02 5.091364488483131334e-02 4.827679570203152748e-01
7.231910334897370674e-02 1.940364453627025851e-02 5.144960708630484936e-01
8.283209497132563992e-02 3.506621300474160874e-02 4.893968880675120259e-01
5.766542723150331479e-02 5.893196709014088264e-02 4.775532478630933886e-01
1.050556417177995333e-02 3.834649842371545218e-03 4.438465453572382202e-01
-4.989415119512845449e-03 1.765042821489305053e-02 4.465195881295290770e-01
5.026605697647517496e-02 3.716987799245244362e-03 4.583961934937176297e-01
-1.169473445741883375e-03 2.047998534503383053e-02 4.477149664089791758e-01
4.792551604134379084e-02 4.897579200371715569e-02 4.685923974528727332e-01
3.815195161827943104e-02 2.347913275513990178e-03 4.511317816613878984e-01
7.595145067884385981e-02 2.562633797064323843e-02 5.125994409660689088e-01
1.674536991364722338e-02 4.630912454552341129e-02 4.599350954956083481e-01
3.013370934684816288e-02 2.134890343674607574e-02 4.541709129181423776e-01
6.026998163060857949e-02 3.509351264227786316e-04 5.142137935029882367e-01
-1.986240811828291885e-03 4.546757501006426505e-02 4.570307377806377414e-01
-2.114873072243303453e-02 -1.403496020320185375e-03 4.402495813905857314e-01
3.885986664353079795e-02 -9.708233321992086780e-04 4.507232815289167749e-01
6.543127054402043952e-02 8.322798817201553997e-03 4.736748617116343651e-01
7.926589227200356302e-02 4.592626866937253582e-02 4.809993249440623342e-01
6.941106222031385997e-02 1.049380833920954617e-02 5.044264098797203166e-01
2.055178272808814294e-02 2.666440331511489570e-02 4.533408692341358570e-01
6.394121536947730555e-02 -2.850637991063871210e-03 5.023716299353347958e-01
5.900685300486319118e-02 2.793735612370453619e-02 4.680076797639902142e-01
7.723372990183802189e-02 5.869956890438521313e-02 4.994210782082663114e-01
3.644788820846413258e-02 2.373617649546042735e-02 4.568200865677267686e-01
7.315389246009128266e-02 1.982830342741531693e-02 4.809389582400818153e-01
5.921462915240262651e-03 3.428878848398844714e-02 4.534954121968529650e-01
3.987893306393970605e-02 5.248675407510875607e-02 4.676331598368239084e-01
1.827494900723992954e-02 4.059417114665129361e-02 4.582520867733213543e-01
7.711575327922950973e-02 2.487463779909514228e-02 5.054552946104104993e-01
5.227890468276961272e-02 1.491903863805318399e-02 4.611083219086811735e-01
3.416440678807482895e-02 5.581630809002567639e-02 4.683467255732592371e-01
4.605847001512983208e-02 4.978586700923459674e-02 4.683913148030000029e-01
7.379174059107002082e-02 5.007870250770395104e-02 4.784985211791306647e-01
8.359555926334043263e-02 4.798102294913208360e-02 5.016731430985820195e-01
7.776744404833881019e-02 2.543074123764666600e-02 4.839289650674960530e-01
1.012821683927240396e-02 1.454029255177300209e-02 4.475544213736448729e-01
5.893667990342078833e-02 -1.666987261020262245e-04 5.166948347843050016e-01
1.339049900946184118e-02 4.416504473862215008e-03 4.443405019161713043e-01
8.068174100653729974e-02 5.890723978665344390e-02 4.932181403072838366e-01
3.776766389626064202e-02 4.293844655025306351e-02 4.639789020927416741e-01
3.043191993822090546e-02 2.246734551948254693e-02 4.545833494663121255e-01
3.247002973792707803e-02 5.303150850229138707e-02 4.660630177449539002e-01
7.320932520747651384e-02 3.122538952995573824e-02 5.207923600738919578e-01
7.694581563827435078e-02 5.944683935959887283e-02 4.870063496545147808e-01
6.623920117210750635e-02 1.760577306991172736e-02 5.235600586575219761e-01
6.594690577445376511e-02 -3.566705068359903551e-03 4.904645450139233365e-01
8.084086427505697559e-02 3.054634948767252084e-02 4.923793036030323922e-01
7.210344063946864945e-02 1.696797642970582568e-02 4.812800836356257439e-01
5.240347824727302484e-02 1.567048306640908550e-03 4.597594912389461608e-01
-1.067600711611170483e-02 3.308233820792774033e-02 4.520672076969748376e-01
7.696605429455485869e-02 5.312438771035114110e-02 5.081498620433898550e-01
4.818961817875441755e-02 4.562740800948240222e-02 4.677257697845009221e-01
2.995480157626709619e-02 3.470859990222226882e-02 4.587225839045041553e-01
7.693471125570174041e-02 4.903056462006571969e-02 4.798132156241554092e-01
9.183770523821074838e-02 4.490963171178584401e-02 4.936269561477770740e-01
4.078109598379049683e-02 5.424232827318126865e-02 4.685259636487797974e-01
3.699318621225307357e-02 -2.652999657293142726e-03 4.490190394527152629e-01
8.377793900960379958e-02 3.934189209675577337e-02 4.851633405200690419e-01
2.498967360981414754e-02 3.481355509716235058e-02 4.576530740705690437e-01
6.227512515653987196e-02 4.791911129014578968e-02 4.729563054512245790e-01
5.618654224862285052e-02 2.300227499587001109e-02 4.657784194766932395e-01
5.767846007732198299e-02 -2.635645630292920982e-03 4.664630389947808098e-01
8.249598424148113507e-02 4.494249860164704902e-02 5.026000006987407787e-01
-8.530245653345572623e-03 2.515235085827819198e-02 4.493676515771845570e-01
7.058018330315658784e-02 1.352475985973090183e-02 4.810752690680669130e-01
4.755382305952191024e-02 1.970169739866530368e-03 4.564464171882995913e-01
-2.806435564632675864e-02 8.024227107556831592e-03 4.466567245612934056e-01
3.054076256823368835e-02 5.728250305967488160e-02 4.692922263771184266e-01
3.882035919594838819e-02 7.057694482221515964e-03 4.523855978673918532e-01
3.622480969280021668e-02 5.801027139189472714e-02 4.745065879050522351e-01
-5.656572266664461682e-03 3.004644607182139701e-02 4.511496536493560527e-01
6.604133546506228691e-02 3.372434564432288343e-03 4.999926786335560092e-01
5.564181491424078502e-02 2.540657998681416715e-02 4.659005310214254791e-01
6.730176257946723917e-02 2.298834395812017484e-02 5.271428272359258704e-01
5.748375185932377840e-02 -2.497186823356265309e-03 5.190989613088577981e-01
3.851191329700679594e-02 5.765365405886110906e-02 4.757698914391702005e-01
1.597972758663630463e-02 1.623509485438504735e-02 4.491089887080024212e-01
2.267443026378540907e-02 2.705542292573611188e-02 4.540094246932326327e-01
5.670610985862945680e-02 1.841730962834652388e-02 4.646853004335878001e-01
-4.697241466249104866e-04 8.804156221970216994e-03 4.443459157803770210e-01
7.749089948086208823e-02 2.594068323339866755e-02 5.043449037738806373e-01
7.906890368470519126e-02 5.371031528346635608e-02 5.055657204378735115e-01
-7.319616817651900323e-04 2.436814681404044641e-02 4.492516308000862879e-01
8.865660290516440278e-02 4.151413285806701547e-02 4.922708798292940169e-01
5.593657271179613283e-02 -4.941515864914786116e-03 4.650311856391804999e-01
7.254194381176121142e-02 2.053693770091982035e-02 5.153485309436024453e-01
7.822474557084160840e-02 2.348665941742301977e-02 4.928584141989277301e-01
4.015701243874290893e-02 4.222299808582177794e-02 4.644125663330796461e-01
2.581449998203600577e-02 1.842493350308124778e-02 4.519418166463286535e-01
3.335891194039711238e-02 3.427102738086332256e-02 4.595148820599856410e-01
7.972782571369284310e-02 3.819460499394524561e-02 5.070712861910124936e-01
-1.458254048217908980e-02 4.287139989433760151e-02 4.572433027299800390e-01
7.543126179459364034e-02 2.613416964156472372e-02 5.148623384284201077e-01
7.780297450364961898e-02 2.616201499873454725e-02 5.008610927986784089e-01
8.579100904184508436e-02 4.136633437203527525e-02 4.952453039685469904e-01
1.496973452080017399e-02 2.096305539562067638e-02 4.504486839926766795e-01
7.443618168505182486e-02 3.751770120408731007e-02 5.172105151315022908e-01
5.396599045723223659e-02 2.744598105331084569e-03 4.609480155039032412e-01
4.861067895344027556e-02 -1.031741941028141603e-02 5.305987842719214198e-01
6.771167999214249000e-02 4.135724529958491498e-03 4.955185645985352716e-01
3.807714138842464846e-02 5.108423898946740094e-02 4.666427781125171981e-01
5.003477379833656119e-02 5.978374467090909194e-03 4.584263462170934389e-01
8.215959314026637095e-02 3.477504612425774688e-02 4.944734776496194084e-01
6.868993285472876908e-02 5.845192680160336135e-02 4.971915601245393002e-01
6.651869680996129464e-02 3.285783331975126228e-03 4.981883882095577976e-01
3.647882990133924364e-02 4.488820786581084604e-02 4.643013255270117545e-01
-7.818281371953488684e-05 4.944827219760027093e-02 4.622992689676224121e-01
6.901357177234918039e-02 5.163577403218877482e-02 4.773974193112201503e-01
5.053798150895610214e-02 3.340973294170923417e-04 4.584440043598194681e-01
5.930136291165281903e-02 7.325753317414876453e-03 5.237956538740946577e-01
5.397507719646291169e-02 -6.371250967396897141e-03 5.241233867040708816e-01
3.490765634450271326e-02 5.297690677001839349e-02 4.665109027558105304e-01
2.751365438971460978e-02 1.846502204029475125e-02 4.524171637718350514e-01
