5.107994163096849644e-02 3.753780964399094922e-02 4.673337401461065688e-01
6.162446209622771121e-02 5.958546315060048171e-02 4.833985589499953939e-01
7.606920925471866157e-02 1.967096070262924767e-02 4.956721446793066477e-01
5.364036350037735407e-02 2.927055765181860864e-02 4.658977205434528535e-01
8.166116304858408656e-03 3.219196332529760535e-02 4.532154245299326867e-01
6.095216105131343043e-02 1.998663300328159739e-02 4.680658414795373368e-01
-7.515632198863966482e-04 4.021804677878536294e-02 4.547254845685541058e-01
7.997832022237164051e-02 3.825082608819228153e-02 4.819158746341257737e-01
7.303884501630313053e-02 3.054883199076628350e-02 4.766821439189400378e-01
7.166069613752398815e-02 2.405124866541645534e-02 5.210958928343322194e-01
7.598952752026030821e-02 2.739069499833322527e-02 5.132178372977610481e-01
6.633986812430744950e-02 4.233431299584539641e-03 5.002128255278069924e-01
6.712442146039469815e-02 8.480205682617624960e-03 4.771853218696744947e-01
-1.876348448186688014e-02 3.316891497876777589e-02 4.533234621239667916e-01
8.187064088729152644e-02 3.955758583003048112e-02 4.837659666997331520e-01
7.394271025318066570e-02 3.632173418900676298e-02 5.187186206057563531e-01
5.929152676259737825e-02 2.086586005226166024e-02 4.673643347545486382e-01
4.555930309297773900e-02 4.581388773176445217e-03 4.556838953417852722e-01
-4.343700767795181938e-02 1.693023051271824991e-03 4.442140040653139166e-01
7.951213684631845691e-02 2.805584795591061290e-02 4.904664649913616503e-01
6.924678484720346583e-02 5.917344404402485880e-02 4.840563819538817314e-01
5.459320566868572366e-02 8.740329900294807261e-03 4.618024588566902455e-01
4.834703743514592172e-02 4.932581138115799818e-02 4.690678438029947106e-01
2.336216126515789498e-02 4.904558420114854544e-02 4.626676225233363193e-01
4.237158442528411728e-02 2.144634805710536607e-02 4.585270852052738544e-01
1.222585779627122574e-02 2.567488349374422510e-02 4.515464273062059219e-01
-7.209785031142115601e-03 1.247084195123522934e-02 4.447531747135005653e-01
4.904133129912627287e-03 -1.486225871876281981e-03 4.413997395999543771e-01
8.002003024392087549e-02 4.497154653345522557e-02 5.054154603067267937e-01
2.615993805719427079e-02 3.488720668530809199e-02 4.580842239591339515e-01
7.258453346379269144e-02 1.983977747822813359e-02 5.140772614653061900e-01
2.154532496746890124e-02 4.658731316088390861e-02 4.612444773618325500e-01
9.811580631134389843e-03 3.560510485838445927e-02 4.548166346399271087e-01
3.295485912959883468e-02 1.452658523010766194e-02 4.528614518746096329e-01
6.272398456883920836e-02 4.715302853242742294e-03 5.121005227372799062e-01
6.722525525403091895e-02 4.856770546767689989e-02 4.762127689090959737e-01
4.930582843257812209e-02 5.460020491887224853e-02 4.716079841873128120e-01
6.430666483613399487e-02 4.834597927839365955e-02 4.745388594714946562e-01
6.565273550379101264e-02 4.092976675368188710e-02 4.742918821225897696e-01
3.835001853189737298e-02 3.352071496859821559e-02 4.611442642575653839e-01
5.434258436258031406e-03 5.118096977633477401e-02 4.664984680796248062e-01
3.140629169835654471e-03 2.907624405109972970e-02 4.513580573209272639e-01
7.288489253757740594e-02 5.668457608938010095e-02 5.041743937023179800e-01
7.304647969149431763e-02 2.906678899521931286e-02 5.203930780377221677e-01
2.372731456970509495e-02 9.239125153396761381e-03 4.483981466317771836e-01
4.452684530069889873e-02 5.629681551310049964e-02 4.720757302317653004e-01
-4.300360555718745793e-03 7.258524894418662103e-03 4.436126194332584705e-01
-2.616946737064226869e-02 7.399615049914349575e-03 4.443462469186610919e-01
6.064604014954651234e-02 5.493238569867244653e-03 5.187042205316088062e-01
6.403086324770466964e-02 4.840714610495143455e-02 4.743898695358845230e-01
3.247199564538837124e-02 1.041611139550287571e-02 4.510372364338744444e-01
-1.793995452272049290e-02 3.523020784611361617e-02 4.537286932413511775e-01
7.958737118011906253e-02 3.548874915498493460e-02 5.062404833510255608e-01
7.226795512002433253e-02 1.861610975537593415e-02 5.128048169884330543e-01
6.468059950994059504e-02 1.923854783956403455e-02 4.707104508311439339e-01
7.674041599488419518e-02 3.359176422342492752e-02 5.130355457847619594e-01
6.608955532829639823e-02 1.921723994310588473e-03 4.974746272885010590e-01
7.256270868461768553e-02 5.745190682326477283e-02 4.822183158925785751e-01
1.925461698469824873e-02 1.140121131073878503e-02 4.482471104448783605e-01
4.857781666550536892e-02 -3.577996309258211875e-03 4.572204991756272374e-01
5.318024584239428032e-02 3.449721293064445665e-02 4.673602762832729240e-01
3.032429159730313725e-02 7.980143029861386239e-03 4.495344521033829421e-01
4.668280613098967080e-02 1.604929098448449123e-02 4.589510210075498642e-01
6.669234341379060016e-02 1.995808802923333333e-02 5.255619662820714133e-01
5.011563249891634597e-02 8.193423775479744681e-03 4.589549461674930497e-01
2.264757491796718508e-02 2.147342166402215619e-02 4.522855106318446894e-01
7.685016415040707427e-02 6.361269986668276200e-02 4.941980080188612123e-01
8.345321888710943714e-02 5.018540334192967550e-02 4.850034972759786900e-01
5.777554189079121827e-02 -4.122507550025651842e-03 4.674657827075849315e-01
1.179095790573380688e-02 1.715959036739559893e-02 4.487578294704601123e-01
6.445981270485970360e-02 1.300600449651997080e-02 5.212148518979158318e-01
5.672648364658425257e-02 3.420858954805448132e-02 4.684020272927850725e-01
6.750522890568054490e-02 1.022730233064807898e-02 4.768047222118892425e-01
8.069264011192901764e-02 3.523885408014786752e-02 5.021717165013425133e-01
7.608116189870449408e-02 3.734305812184521289e-02 4.780284036572073347e-01
5.193918743834168711e-02 5.681968716167537514e-02 4.761702937544919911e-01
3.136688311890754866e-02 3.975790818187095732e-02 4.614237990210870444e-01
7.848186686325397954e-02 2.700753270062250522e-02 4.857676892325883955e-01
3.188141720923716449e-02 9.802053204023546129e-03 4.506463131721145654e-01
7.681349428045940175e-02 5.111358588482208670e-02 4.803489065924151369e-01
3.737315095992573433e-03 1.065063060496753040e-02 4.453865795095647839e-01
7.361362866282560036e-02 4.136775797491959450e-02 4.776598116539718664e-01
5.880795759576040033e-02 1.572437371556224470e-02 4.653413498067219267e-01
1.647559125084860354e-02 3.042589696214170053e-02 4.540103922196842556e-01
6.429571722466859152e-03 2.774367189745685983e-02 4.512520380065342396e-01
2.871902088004662026e-02 1.813662923976599312e-02 4.527400413768284393e-01
4.164882446397794036e-02 5.964033657446819736e-03 4.539735135343997419e-01
7.890262003495648879e-02 3.171859394941906746e-02 5.045557408761770501e-01
6.920845060878672017e-02 7.231262952329062417e-03 4.872044895702964951e-01
3.224467983843666563e-02 4.499549359056959075e-02 4.633684771619601128e-01
5.650353675648178697e-02 5.917910592067449072e-02 4.795347657353197235e-01
3.858120948954984336e-02 3.348485298061311746e-03 4.516624765411359488e-01
7.539923541108438376e-02 3.154865994672668983e-02 5.159972491435510511e-01
-1.023191192055616407e-02 1.110537239972292888e-02 4.443356180597389793e-01
8.083096641403980653e-02 5.846247550740524962e-02 4.961557594783003178e-01
6.318072595180260209e-02 2.892506747512646817e-02 4.707473543757227930e-01
6.297548237387405601e-02 1.694936121702521337e-02 5.282362676870464568e-01
-2.294696698527841014e-02 3.013085136763323651e-02 4.538233318427624674e-01
2.963317341936965235e-02 5.841425441665458462e-02 4.736815209546704764e-01
1.561117416992185460e-02 7.745724919841214320e-03 4.461398631299007822e-01
7.209214098916214009e-02 5.764779832827030687e-02 4.821668490162140386e-01
2.931450412255562354e-02 5.807698153129853963e-02 4.707549449424856536e-01
1.931748823205141352e-02 2.288796049080178349e-02 4.520783723375155772e-01
6.168466347973575875e-02 5.318615128396738528e-02 4.752320332306030348e-01
7.595456444426861020e-02 3.761132329123380302e-02 5.151005308035448982e-01
7.624894614631058665e-02 6.280155901884870717e-02 4.959812366264445549e-01
2.859090670513644156e-02 1.358816451121080612e-02 4.512595754751082544e-01
3.445964938241787012e-02 2.612035220008330702e-02 4.569839100185847935e-01
7.534872532397864087e-02 3.933283544376556251e-02 4.779537923575265523e-01
2.205322060674094059e-02 4.616041298001961196e-02 4.612189266292840983e-01
5.247388634468638791e-02 4.434122610781843698e-04 4.600890216711052694e-01
8.913430791588144997e-02 4.406383344254270057e-02 4.951269764980660848e-01
4.080982233545037835e-02 2.487533750409744865e-02 4.588154677684052052e-01
5.888491710201457230e-02 5.143333239630662468e-02 4.729980843168447580e-01
7.105498334289135631e-02 1.590460330474256778e-02 5.109018248330193801e-01
5.880507937321725886e-02 -2.050738937205500573e-03 4.680321255965189109e-01
5.527204145216847025e-02 -5.815560450927920871e-03 5.224538356126157135e-01
3.215299387766673567e-02 1.891541298861990419e-02 4.540909029131880437e-01
6.301398430763281711e-02 3.361995738483730678e-02 4.708264086997381304e-01
-1.289073998583261174e-02 4.030814980680494375e-02 4.545204289791309749e-01
8.449423538499652164e-02 3.782906121782996650e-02 4.860118960519810294e-01
7.267121564918394699e-04 4.676397856039641449e-02 4.583044592635673320e-01
1.746202569943584859e-02 1.313964942853266052e-02 4.484469836630025075e-01
7.252424588297276542e-02 2.195741404121933499e-02 5.166790717806372113e-01
1.489294283154012424e-02 5.391555471395761273e-02 4.662981350712459006e-01
6.693572378157336411e-02 5.890623238638664598e-03 5.014786877701242762e-01
3.050467439615894491e-02 4.943770456853292111e-02 4.643879770001491103e-01
7.051221963386110347e-02 2.145206025919300583e-02 5.207471015066199582e-01
6.228182584358447904e-02 1.081083078379698956e-02 5.227542092039811905e-01
7.858716026382585318e-02 2.753041443035219443e-02 4.978875718622803315e-01
6.906698529774434048e-02 7.321023717430319433e-03 4.963763004505387100e-01
6.978817165129320987e-02 2.431563790872728892e-02 5.243662596981990554e-01
7.227861257284337593e-02 4.745634034763250575e-02 4.790169216034687594e-01
-4.815364875157601698e-03 -7.190553698919596379e-04 4.407445491308831231e-01
-1.765661979871723658e-02 1.797405052684215854e-02 4.475792968983690057e-01
-1.908019300724625791e-02 8.349611539268008559e-03 4.439594355470700693e-01
7.278003342311101243e-02 5.078325567447972838e-02 4.787231311947774404e-01
5.389002858885807989e-02 1.619485407677849964e-03 4.609364447188515346e-01
3.062818950042427851e-02 5.826678644862069711e-02 4.728616973602191020e-01
1.934778536470168481e-02 3.684171492763923389e-02 4.573249630345795347e-01
2.246923406813979007e-02 2.988174715571661338e-02 4.550748238908328691e-01
5.970605894954028603e-02 3.761516737919617243e-02 4.700761241007516134e-01
7.334021772566802488e-02 2.061252041236216401e-02 4.812850764559714056e-01
7.398657180972667557e-02 1.724013215311404404e-02 4.879888622154136546e-01
3.309633422599856517e-02 2.309867737434290191e-02 4.556465224114669699e-01
8.062115371145396614e-02 5.232035468376163012e-02 5.050646477831484127e-01
2.184158100324623542e-02 4.009433690685711149e-02 4.591068861212977414e-01
8.220757732898844455e-03 4.521099623392448724e-02 4.579348774989813742e-01
3.447941249135414582e-02 2.832075975828406839e-02 4.578387913123532771e-01
8.506750223176305636e-02 5.002476629599482416e-02 4.997907688557223227e-01
2.228056061706135127e-02 5.530765806288193837e-02 4.669579824516080224e-01
2.824158108565232028e-02 7.261242477638740409e-03 4.487344645809367982e-01
5.725149893641645615e-03 4.275206045422925982e-02 4.566135064645290842e-01
6.670068794864320028e-02 -6.118883790965650056e-04 4.887815706339280752e-01
8.005581969444332258e-02 5.807823832438742395e-02 4.999371536964529739e-01
7.693678935059043711e-02 4.814949797396199382e-02 4.805937394730590562e-01
3.279291252016911656e-02 8.302474472480728812e-03 4.504532030137378129e-01
8.063927251769159588e-02 5.845240282585827118e-02 4.968305880848604694e-01
8.522483200509797796e-02 5.249390843154275871e-02 4.869313847387550798e-01
5.086257582967219221e-02 2.504852865684850660e-02 4.633315828684586024e-01
-1.011377674385874684e-02 3.938230968645319019e-02 4.540556134676835831e-01
6.938270470077231855e-02 4.617393952403902463e-02 4.774692259408497286e-01
8.657124318491804527e-02 4.912553552739254425e-02 4.980861344773439003e-01
5.589658831856778032e-02 2.576613784212249819e-02 4.663729494408616061e-01
3.665837614239927239e-02 3.138401364871606231e-02 4.598083626835093307e-01
8.421615078608699068e-02 4.180679421099544463e-02 4.974297685511585576e-01
3.355169704237228462e-02 5.283406855990782636e-02 4.663610128728207238e-01
2.943737679592275253e-02 3.512137877603765945e-02 4.589417701335659072e-01
7.602115317880074608e-02 2.086629093639424948e-02 5.014690060361596258e-01
6.609162258769968323e-02 2.405506075718404080e-02 4.720174677128533558e-01
5.374743207306541953e-02 5.781135866639253856e-02 4.784700468284258101e-01
7.353872756793444765e-02 1.439306240012463989e-02 4.969340567973191680e-01
2.907344254128750929e-02 2.746719802392217497e-02 4.559255604252216987e-01
7.936995959024116531e-02 3.916669965275548781e-02 4.810402807551654170e-01
7.014554484620935670e-02 2.974964061981610897e-02 5.261968639470148146e-01
8.866451790281837386e-02 4.388324925388039505e-02 4.953838453679202392e-01
2.811124413744428563e-02 9.235021437350058454e-03 4.494791547874732451e-01
7.251605690644623292e-02 5.881312270763934535e-02 4.838676201489823803e-01
3.643918449977875257e-02 1.567000356535325212e-02 4.542949643491753786e-01
5.612229056701197732e-02 1.118568880558675274e-02 4.629661561757938415e-01
2.889385198403108743e-02 9.085633962527695645e-04 4.464120005849752104e-01
3.424846282333742636e-02 2.432107004355020530e-02 4.563516883330273610e-01
5.775658337947082999e-02 2.817118108772971932e-02 4.676972590222446269e-01
5.239645900969351622e-02 2.316988399784575270e-02 4.635559659193743687e-01
5.441944455043701973e-02 -5.307816767631819144e-03 4.633474613566112565e-01
6.270163352640328869e-02 8.681462428203225515e-03 5.179871291449540394e-01
2.249412828073461476e-02 4.071208617947710828e-02 4.594408237626849134e-01
4.569960868429308321e-02 1.024738809382357658e-03 4.552433447365360486e-01
-1.152782681627537859e-02 7.923756276344576244e-03 4.433884782432964133e-01
7.301620413975726254e-02 4.499420424836950844e-02 4.794644812925850097e-01
8.099233792559018541e-02 3.533079088246576099e-02 5.008826856432959662e-01
-6.256682379627095773e-03 3.950333920099731444e-02 4.539571608312866768e-01
-6.444397677685661206e-03 3.481943493938667589e-02 4.525762985356298063e-01
6.615900608879154987e-02 5.298339369093524841e-03 5.029640924289989767e-01
2.691623594857176643e-02 5.840906554606952600e-02 4.724395489178644936e-01
-1.416324568933037195e-02 1.064564835515964189e-03 4.409515871178556479e-01
6.147585041072566037e-02 1.342438222170046214e-02 5.270498060919764916e-01
7.090589628219907958e-02 1.175999514094248216e-02 5.019694438004320691e-01
5.104116778482752775e-02 -5.655321908845255610e-03 5.266371693223919070e-01
5.402682904687013121e-02 1.162528386379292275e-02 4.615497117619261624e-01
5.661381022834523213e-02 5.094178565628779826e-02 4.720767805473919942e-01
4.430947190964028629e-03 1.572484217887047328e-02 4.470914611566095820e-01
3.595475045518977536e-02 5.784546454592147391e-02 4.716518446088644456e-01
6.697061754026603642e-02 6.183159259627795529e-03 5.019442327264665993e-01
-2.079105967692439910e-02 3.058683985568559291e-02 4.530789940208422295e-01
6.308399171279283069e-02 1.946367583518872346e-02 5.302426388844869720e-01
4.778784648383094247e-02 2.786891393955204070e-03 4.567890195215629223e-01
6.668047438333053745e-02 2.749040120185257396e-02 4.727726422576472576e-01
7.892751426834183903e-02 5.890958035335927545e-02 4.886508292236099171e-01
1.148933922470521569e-02 3.666100121820136531e-02 4.555643456358173249e-01
3.666078582976474431e-02 3.681838826755706208e-03 4.507647059082439678e-01
7.877927235759156488e-02 4.489102248977951126e-02 5.082336341517138534e-01
9.022418366206848284e-02 5.106036607881703215e-02 4.922836102781209533e-01
2.832005373981227175e-02 4.856442261592271159e-02 4.636686681737092197e-01
6.922007854917296144e-02 4.121555814967192005e-02 4.759082814140451201e-01
8.139057155834335255e-02 3.248078311383238714e-02 4.908313017215389373e-01
2.165635495815621675e-02 2.157630970476798540e-03 4.451398082113068866e-01
8.372436598824341270e-02 5.144339349185952925e-02 5.010474510255514824e-01
8.041625717345218805e-02 4.872082777107965973e-02 4.821487802665428424e-01
5.561178495399323601e-02 5.794549500296057587e-02 4.765752925636247417e-01
6.961005304158175699e-02 1.210451001106255774e-02 4.806539601289176455e-01
1.545095613911107862e-02 2.771702420564659333e-02 4.527480012401672305e-01
8.270685249808321093e-02 5.662897059405848366e-02 4.964259211841773323e-01
6.858919359315333864e-02 4.910361912069897278e-03 4.893474665492879572e-01
6.619073381352594265e-02 2.892807152144576122e-02 4.725093045030573369e-01
-3.286387123440275351e-04 2.954458311494478906e-02 4.512704773670982994e-01
7.262280830919617958e-02 2.515961381207003356e-02 4.779677572093373183e-01
7.870015711009757664e-02 5.979363924308969680e-02 4.974027402689360500e-01
5.807443588626363951e-02 -1.967425363450117301e-03 5.178136665314638787e-01
8.083215975837680645e-02 5.152327602667881867e-02 5.048188311337064027e-01
7.698246131643851631e-02 5.913618972804193796e-02 4.995822559392613660e-01
-4.545869691384137132e-04 1.967534741275986029e-02 4.476117309244809217e-01
7.062969203563543297e-02 5.969114373242538629e-02 4.849607254271898760e-01
8.334312415596378462e-03 3.956395851638924016e-02 4.558880437394604579e-01
4.442717763023116412e-02 5.189963209237681563e-02 4.689158610489940204e-01
-9.462231206229756997e-03 1.547162596764700693e-02 4.457674163537839740e-01
2.352018297444706876e-02 2.796018311112607665e-02 4.546531668137517856e-01
8.325255043371984631e-02 4.044129146717503204e-02 4.851318740639133931e-01
4.920420111203419739e-02 4.760184490523985956e-02 4.687863330784993177e-01
3.162584335333467472e-02 5.784593926576235556e-02 4.703894162755806740e-01
7.447527232816698872e-02 5.437426851936186939e-02 5.083946903280935903e-01
8.123031084494621024e-02 3.900992082229395863e-02 4.831620966983156129e-01
-1.314077879326752685e-02 2.617872073192784380e-02 4.499031330820698615e-01
1.134166223264243371e-02 2.129124619520121262e-02 4.500314695949855781e-01
5.691906284433297797e-02 5.249353092073806570e-02 4.727905823194838431e-01
6.253136956885228803e-02 1.363526722134797420e-02 5.256109142388675215e-01
8.981920235274873376e-02 4.421706763719599614e-02 4.947045766988524274e-01
6.351222068393869158e-02 2.004123410894578447e-02 4.699900344788787154e-01
3.871034415070919582e-02 1.218837285844874205e-02 4.538740301169538194e-01
3.629008131459780795e-02 5.549109754480244239e-02 4.687073895193414885e-01
7.019820325994825805e-02 5.895348427153989518e-02 4.834387775837025170e-01
-1.562806495259473280e-02 1.014073890972832723e-03 4.410697167015777409e-01
-3.429785256257306819e-02 3.478249236506045748e-03 4.433611571920889061e-01
6.344363338463025748e-02 3.325109504973985941e-02 5.284444712786724452e-01
9.788106943550419631e-03 1.304139603016169283e-02 4.470657221773133849e-01
7.801721400729225153e-02 2.728623076442488610e-02 5.005455237086751108e-01
4.389535736222931195e-02 5.416776207698147799e-02 4.695878193258518074e-01
5.496210054660371352e-02 -8.742516905647416958e-03 5.237758249933409660e-01
3.372797594633387269e-02 5.702607761865680774e-02 4.697309461292243360e-01
6.346946894927167626e-02 5.978309647716054109e-02 4.850808066152867415e-01
-5.390660562402914413e-03 7.614823452874522336e-04 4.412499903155796543e-01
-7.640602624856626321e-03 3.884994196491471652e-02 4.537630504203976622e-01
4.529085292016035019e-02 3.926678689737705605e-03 4.554386847816692674e-01
5.404756216331695756e-02 -9.330838888578817450e-03 5.249700245241932794e-01
6.114868053031329020e-02 3.436080860384881780e-02 4.700769162899440246e-01
4.192802802997440403e-02 5.700350416581529550e-02 4.756228464876691708e-01
4.540846014299842331e-02 2.861696723598875988e-02 4.622075977963696070e-01
2.536487584352993541e-02 3.502695043940481923e-02 4.579723833678507883e-01
4.739536390736959898e-02 5.211557044061231742e-02 4.697181693704169381e-01
5.817457959535508871e-02 -3.517475130268837326e-03 4.677654539134658562e-01
5.668686532903482317e-02 4.668945670956046318e-02 4.710322017488535185e-01
1.610351952563083416e-02 5.346178932028670255e-02 4.649458669080996365e-01
6.037981037774405035e-02 3.954991084041648008e-02 4.706963126032876477e-01
-5.376233961085732926e-03 3.794340647934887900e-02 4.535726390917875772e-01
4.334169369056385668e-02 4.199468699857595959e-03 4.544409642942426331e-01
-1.269011478722300440e-02 3.011172808207471588e-02 4.511910174487297476e-01
7.926949118183630738e-02 2.925435961391839243e-02 4.845570103740907686e-01
8.904130563156618938e-02 5.175853671755523827e-02 4.925960905045465577e-01
8.761020114620197974e-02 5.227616386221100447e-02 4.930419316042402023e-01
5.391930459591849634e-02 -7.019376413091836693e-03 5.243792935380523490e-01
1.087894852125764755e-02 1.796871644637077631e-02 4.488782612218042978e-01
8.021837745192776647e-02 5.914074913324392224e-02 4.944138690514546797e-01
-2.811123243094716673e-03 2.610541400877002677e-02 4.499309347687648342e-01
7.920758937840260278e-03 3.897624052929288263e-03 4.436612047889633148e-01
-1.334652764115270077e-02 4.517092100091130158e-03 4.422508660785344770e-01
2.013071928102877495e-02 1.612883279818240825e-02 4.499545052751695584e-01
6.072355131074817086e-02 1.927963928985419739e-02 4.676954429773188537e-01
1.430251197365763061e-04 4.948473095058762705e-02 4.619032303612987111e-01
3.699711798533980578e-02 5.794873669313072018e-02 4.749636920467035783e-01
6.707980664641741142e-02 2.493761009550527277e-02 5.287272689412141347e-01
5.753260094584675133e-02 -6.429241770928216700e-03 4.681055041920956228e-01
8.200250652383395122e-02 4.773942380671955532e-02 5.035372631987080627e-01
7.729134648009909625e-02 3.848265937000427961e-02 5.122821487244040295e-01
5.309840305256274123e-02 -1.398886277166318335e-04 4.605705938374157205e-01
5.376775899624784000e-02 7.750021225106245443e-03 4.611690685339432938e-01
6.437822919627646245e-02 1.157245889693180388e-02 4.708038605813576472e-01
8.088991681141052825e-02 3.309318168454030568e-02 4.842166098159317866e-01
2.785690601202657490e-02 3.654840880486003897e-03 4.471523254510774703e-01
2.508755296553528621e-02 4.872248710038093455e-03 4.469787468869825253e-01
-1.235126077672858355e-02 4.386702902052520142e-02 4.567571786403991640e-01
5.221629120531119661e-02 -6.729143229269568104e-04 4.600660905069571815e-01
7.197573948957383672e-02 2.616141714320811829e-02 5.223016431134945847e-01
8.982023272961169036e-02 4.230091539753129404e-02 4.917547588910965439e-01
8.166555961986816936e-02 3.314258071226398872e-02 4.891507838924847862e-01
8.866415192279700208e-02 5.014639153046072939e-02 4.940876692813822579e-01
2.604134365331846335e-02 4.621951962038500089e-02 4.621894606146025319e-01
3.993718701112322633e-02 1.466926821077592716e-02 4.551235950197828894e-01
3.072641014508287888e-02 4.236695462571496429e-02 4.620783760164406950e-01
7.956287037414871977e-02 2.896419284387146548e-02 4.867382986466374239e-01
1.094716258921311393e-02 4.513110616900641719e-02 4.583757491117237404e-01
3.558032985313260010e-02 5.816914364760245038e-02 4.743903495970749340e-01
8.933896419084348672e-02 4.998287079326750593e-02 4.902636050906513665e-01
8.845828238533631760e-02 4.760811229945374062e-02 4.967813376304627826e-01
6.584480698539280086e-02 8.652124372510901218e-03 5.101498002780702201e-01
5.082489202162771003e-02 5.942407190416460622e-03 4.590470688517722109e-01
8.369255067106004531e-02 5.555815733625252273e-02 4.902782623257204708e-01
-2.064308268625601739e-02 1.843872054250727394e-02 4.487580089081657508e-01
3.350022357015341318e-02 3.852113438933522233e-02 4.614257506430498035e-01
2.841905298117395132e-02 2.269390613796203049e-02 4.542678871689389553e-01
8.387404661313005438e-02 5.282951005157356106e-02 4.861470984877206969e-01
3.025496526770449224e-02 2.511063184548164434e-02 4.554573275352433170e-01
4.780651189966619169e-02 -1.215879402414841298e-02 5.317255439358850033e-01
-1.644585577151214811e-02 2.266568926655334118e-03 4.414975114516920818e-01
2.411918020413381103e-02 2.515324979483900270e-02 4.538971132777281925e-01
5.406147464425123395e-02 7.275556114996166966e-03 4.613753959784647196e-01
5.725743932641069039e-02 1.323696443258415506e-03 4.646658241427531477e-01
6.752660520889598728e-02 3.010314037785138605e-02 4.731492302011018336e-01
5.485499318546144948e-02 -3.904063287386668434e-03 4.633687119267150822e-01
-1.191214777533486195e-02 2.715977911450187174e-02 4.502256177771160606e-01
5.898998120145457907e-02 7.817124047988444763e-03 4.655127771878553311e-01
6.194068437177183140e-02 9.006808227866725317e-03 5.207332831689742703e-01
7.413861707628439934e-02 5.570769149952916471e-02 4.816596994559834699e-01
1.136950868888470835e-02 7.020950924747368718e-03 4.451606661326348302e-01
1.828742528692888294e-02 2.531734646307146758e-02 4.525605791552259616e-01
4.179059222514733274e-02 3.993317671499369004e-02 4.645323035316802351e-01
7.078587205289568751e-02 1.492929477385783119e-02 5.097912105851756248e-01
-2.259640883747343967e-02 2.044398891151954015e-02 4.497540215200759306e-01
7.776990798577601560e-02 3.409556165844554454e-02 5.106300568488266745e-01
8.274466497662275044e-02 4.698841731315274439e-02 5.025051602500307801e-01
-3.510786893576208628e-02 -1.288574517278526883e-03 4.399904150402970116e-01
7.863321329907814461e-02 4.324072019532274047e-02 4.805277603781726303e-01
5.056495523243344226e-02 5.710101890205540598e-02 4.772979514235513032e-01
5.113270134139355494e-02 -1.459472911974248402e-02 5.292395924800662455e-01
2.917653301337518826e-03 2.607207954018522095e-02 4.501944059615660132e-01
-2.420463890982995150e-02 8.010638427893370522e-03 4.444615404125294433e-01
8.825125226979299575e-02 5.260264096963422620e-02 4.896839005831504221e-01
5.271852546488094843e-02 -3.415733168758096263e-04 4.603497241308243115e-01
2.487416408575273546e-02 2.355539410171550441e-02 4.535977617717084631e-01
2.410330195694549912e-02 5.252822375066494576e-02 4.643618825106654024e-01
7.787993038404283919e-02 2.896739915447172492e-02 5.041290927021356838e-01
1.320601975882197340e-02 1.681937911832571964e-02 4.488793177304172821e-01
5.886454375222429508e-02 2.149980566971763495e-04 5.168847330372104976e-01
6.619156635687048484e-02 1.679553639698281448e-02 4.721084970025249405e-01
8.436163409725941364e-02 3.787675621914292357e-02 4.903395965345322405e-01
4.027111866241195326e-02 5.036865617837389675e-02 4.673145860523412742e-01
6.226777047680753102e-02 5.744831138194564021e-03 5.147155819594644299e-01
7.003881168853538786e-02 2.133847813859215958e-02 5.214734960970714983e-01
5.318469132926326171e-02 -4.549350571043653951e-03 4.613922848823612810e-01
4.560703740192515940e-03 4.986605475977431284e-02 4.626005092809874486e-01
6.498925244769297727e-02 5.895321560790815069e-02 4.809377776762744361e-01
2.621072674807017541e-02 2.063151429065322381e-02 4.529526386038817409e-01
7.679012752743115400e-02 3.328839340349930287e-02 4.796025760525475246e-01
8.139854114769846938e-02 3.354062289279458042e-02 4.864545307974098010e-01
7.219550773653989062e-02 1.437239952153632379e-02 5.044258333233787583e-01
-3.922532099877462479e-03 3.651129479411594631e-02 4.532687789799716427e-01
2.860617052576643060e-02 4.988385183538209672e-02 4.641984739800549264e-01
8.692883399495655861e-02 4.894292147521468045e-02 4.975824034936153217e-01
7.332673922356722218e-02 1.673553732923459963e-02 5.050919870968929581e-01
7.479252013819852329e-02 5.765130248515024092e-02 5.018006442644268317e-01
6.812809254897971012e-02 6.466346271799016873e-03 4.982408595326586198e-01
8.514073574047847925e-02 4.306807230228488353e-02 4.984602126313210091e-01
7.436525029128721043e-02 2.361350178164830019e-02 5.143837711982678362e-01
7.505718483738541003e-02 2.503526367730801033e-02 5.143339024992822361e-01
-1.384787695275179614e-03 3.802641828902512261e-02 4.539289876860214124e-01
2.570730665444447352e-02 2.424060020027241080e-02 4.540249502872094611e-01
5.467555499640558425e-02 4.882390675406235447e-02 4.708152595681591168e-01
6.961164404485115087e-02 1.198870892531536322e-02 4.808198886922421256e-01
8.987180538740838220e-02 4.393312249507159983e-02 4.942344498172805967e-01
6.806298104001101690e-02 1.014312662831404026e-02 5.066856958758854113e-01
1.786544241158764465e-02 -5.735747592413445797e-04 4.434651451891833962e-01
6.983165133046426165e-02 3.468855878776011537e-02 5.229894817770970317e-01
2.132664404771564270e-02 1.362518823279976199e-02 4.494982571213047562e-01
6.718707026144100924e-02 5.925025339878136482e-02 4.834410390403179880e-01
6.099130622156799519e-02 4.652382165339011971e-02 4.726217424145243706e-01
3.708842333914380562e-02 2.518687831643452030e-02 4.575815086912972673e-01
6.335253987072034243e-02 4.563984829138757054e-02 4.738795264495762605e-01
6.019886272812729339e-02 4.751156841798779423e-02 4.723469055986531662e-01
5.379133523343868073e-02 5.168640195439618001e-02 4.713718255631180742e-01
7.028859163950265665e-02 1.184555116690566741e-02 4.833232767918716477e-01
-1.946002445548701901e-02 2.750844729224522639e-02 4.513643981698533536e-01
4.026908203073595316e-02 5.743998543064915419e-02 4.770843064222263230e-01
7.924969149967858728e-02 4.062671756848879046e-02 4.805234279694096666e-01
2.483497015269486852e-02 1.449302313060995065e-02 4.505899958199744426e-01
-1.385575953775195109e-04 3.963646223403977098e-02 4.546219257831451421e-01
7.540362625586731482e-02 5.698259870305748959e-02 4.830082049476088768e-01
1.733362846518830824e-02 3.022855071766897272e-02 4.541106327657707387e-01
6.866180039836213000e-02 5.900659697872856491e-02 4.829593324048290781e-01
7.480959473129991655e-02 1.963780968869684521e-02 5.055831647436085374e-01
4.319320389518407216e-02 5.675366708346651912e-02 4.757189512717894253e-01
6.631272078404150394e-02 1.817207613619141807e-02 4.718984332079489419e-01
-7.169613195095790245e-03 4.524809790689461597e-02 4.568097361704866466e-01
8.563638674917388449e-02 5.363680915808850119e-02 4.924479182909408115e-01
3.414449543500766571e-02 7.785721207412769906e-03 4.508898132103268397e-01
-1.741248113682243234e-02 1.497236126725485540e-02 4.464788630425954308e-01
1.211838471077159030e-02 2.757042460377248302e-02 4.520893183562873507e-01
2.480515513346162951e-02 7.637479457715241546e-03 4.480277956040570331e-01
7.375943278784054258e-02 3.426112143175529673e-02 5.193411168511140596e-01
-1.858769018604968307e-02 3.282098130427649890e-02 4.531389629457667212e-01
1.553614502962464596e-02 3.275666490718998763e-02 4.546889875621109023e-01
-9.839834045079424996e-03 1.637450112980301520e-02 4.460886654684296793e-01
-2.504742822447447032e-02 1.484256454163715433e-02 4.487441003706739151e-01
6.662506526534472950e-02 7.652790320038949795e-03 5.057986684879141048e-01
6.943762682932433372e-02 1.197828130476457503e-02 5.071070025755450850e-01
6.997151006963549247e-02 1.613112083434396771e-02 5.139606171608059881e-01
-1.433039237771987183e-02 1.128215470512366168e-02 4.444406113926577806e-01
4.492625462077928095e-02 5.571408548064211985e-02 4.714907615966210663e-01
5.979560340096084364e-02 8.280295104429482439e-03 4.662751606931977988e-01
5.864046213096834465e-02 3.084001444225508565e-02 4.686855101640948207e-01
-4.540268944630805950e-03 3.288615873834202855e-04 4.411619060714551677e-01
7.089551648012494545e-02 1.134749442933720258e-02 5.006215533772390147e-01
2.585919598953659998e-02 4.636490236851290719e-02 4.621960063456205803e-01
3.953510909473979991e-03 3.628540298082689325e-02 4.540356906182848040e-01
7.107352924567328367e-02 5.990429483871229782e-02 4.852996457120797302e-01
1.083828333942290362e-02 1.746779173304820534e-03 4.431473052625751752e-01
6.475708908761831917e-02 1.289309268285880258e-02 5.205143005459279548e-01
1.975880679686465788e-02 -6.155117272041970428e-04 4.438359213967996153e-01
6.642350551881853749e-02 -8.852462030582795155e-06 4.924796027559918965e-01
8.130349090064593887e-02 3.343192329301128418e-02 4.838965232395058269e-01
8.556359597203376521e-02 4.249273723853191215e-02 4.871350462610701815e-01
6.665429146021224771e-02 1.514652941792631567e-02 5.197720301015794631e-01
-2.608350074349442826e-02 1.286733177707029968e-02 4.481469212542569802e-01
8.679433378677586103e-03 1.014832533893009897e-03 4.426883079556639955e-01
3.147681938654118411e-02 1.923635347216234859e-02 4.539726350450618564e-01
4.021302241130510907e-02 4.572480509475758403e-02 4.658116328605350076e-01
6.790855234559078912e-02 3.593561312343195036e-02 5.230606902757271026e-01
-3.068789754464697032e-04 2.392918454650654059e-02 4.491643786446123943e-01
1.905177577304206261e-03 4.617382221651331053e-02 4.578204773634598768e-01
7.217371493506548330e-02 5.884811052949433935e-02 4.838739758461360063e-01
-2.066359283334109464e-03 4.587354483328068278e-02 4.574769365710146252e-01
2.652176683824063880e-02 7.341541754316364618e-03 4.483434350534302726e-01
4.986899961546831239e-02 2.310744292296014468e-02 4.622591602699980817e-01
4.419999564237997447e-02 5.644078492999559521e-02 4.735046314038276472e-01
6.848386818076540594e-02 8.883070991945589759e-03 4.809714318652015819e-01
-6.126487792846399549e-03 2.621117263052376994e-02 4.498817371501306894e-01
-3.076183646346809103e-02 2.518127954069936548e-03 4.420475899822909893e-01
6.527648256712702268e-02 6.066118722772045023e-03 4.752717410996381564e-01
6.504781737260445507e-02 4.311646217672948644e-02 4.748341225214561812e-01
4.700784058048983194e-02 5.672861911001920304e-02 4.766750713186662103e-01
-5.532660485878857989e-03 4.160693125645974905e-02 4.546373217599858907e-01
6.866430007130837343e-02 4.396261712390159282e-02 4.773168592038412039e-01
7.395475196810374907e-02 2.303557260015014208e-02 5.147634451203813022e-01
7.725531911976264710e-02 2.667847607375087998e-02 4.828031168984160959e-01
7.218646066638627345e-02 1.776076171667429274e-02 5.114369732963690574e-01
5.927238936069458702e-02 -5.517511022692475620e-03 4.701528642291172289e-01
5.328104796293373774e-02 3.142824119773431416e-03 4.606477138341033006e-01
5.831241192541136709e-02 -1.414814393895990827e-04 5.179034105843579594e-01
6.027840064270595377e-02 3.625973980332665957e-03 5.168712440888620918e-01
4.633064201643555258e-02 6.079170490718710518e-03 4.563193306800110705e-01
6.462703432620873351e-03 2.027039169977557995e-02 4.488547885859038300e-01
7.871314952115418540e-02 2.622301677378600926e-02 4.946740550928737101e-01
2.535747077686974996e-03 4.036769603815207851e-03 4.432034220381176337e-01
7.679269217252898683e-02 3.002367141209651841e-02 5.120966128704826925e-01
1.925308233788314283e-02 3.401473490195425914e-02 4.560827539589699109e-01
2.879437174232776786e-02 2.916942650805878778e-02 4.564186453819729095e-01
8.787597772810602781e-02 4.874597148986991452e-02 4.885422912239509308e-01
-1.063717646819263389e-02 1.096116647683574585e-02 4.442930554781200359e-01
7.538467358153259912e-02 3.408731601509711051e-02 5.165452855185184156e-01
6.421408879953180437e-02 1.102397452614613076e-02 5.185604151848804966e-01
6.473699137532680503e-02 3.398919587380180851e-02 4.716490193468789172e-01
6.505289267958389021e-02 3.796859998890789178e-02 4.723395319332328590e-01
2.664231335675075821e-02 2.609391390711907066e-02 4.548475446603020278e-01
7.654912811924027838e-02 4.884644170615960734e-02 5.110524739680184503e-01
4.845099874687585489e-02 -2.292551893135285658e-03 4.570815563371113388e-01
7.598063707426036539e-02 2.312123076914410214e-02 5.072861409457951609e-01
5.684017133800881028e-02 -4.585333374877922571e-03 4.663580954454052407e-01
5.980919466789975936e-03 2.886395139207522526e-02 4.516107862293259334e-01
7.133977245244439713e-02 1.200528940876599560e-02 4.872332673638976042e-01
2.434643896098554611e-02 5.495094179444243165e-02 4.659270909878053257e-01
5.073885317406218176e-02 1.968671860910131341e-02 4.618677783748663668e-01
2.289320049322359635e-02 3.538621304083947733e-02 4.575786320106272620e-01
3.081453226648980456e-02 1.112960878237852919e-02 4.508910023239876552e-01
5.994771202988716935e-02 -3.179313655443305985e-03 4.701181181185639102e-01
7.931308630109755453e-02 3.320483553974244023e-02 4.820053862191442939e-01
-1.010367481350829370e-02 4.972649896338576271e-03 4.424685467666475414e-01
7.288750116786612589e-03 5.013403852386228571e-02 4.613437531856919294e-01
6.383094980128727058e-02 1.198122395157750521e-02 5.211945312740616787e-01
5.208508773842583650e-02 5.644580796135363621e-02 4.742700944645534822e-01
7.775114643867923891e-02 2.815052817479418365e-02 5.035680206236041734e-01
6.848930454010444813e-02 2.008762711416088587e-02 4.744178587264384905e-01
5.138104427232063898e-02 1.939692363909660197e-02 4.620790707436094324e-01
7.315425020328800154e-02 1.576523658271745260e-02 4.877574108697174671e-01
-1.952342141470861641e-03 1.822963167536640824e-02 4.469430403682583819e-01
-1.752744387093023784e-02 3.988086398648378605e-02 4.559161539500475868e-01
7.105592090345123901e-02 4.380009349118538231e-02 4.783853795237730799e-01
1.642443913875378525e-02 3.120055194841031207e-02 4.543119037739228316e-01
2.785035040751379296e-02 5.845837928338200318e-02 4.732497279556204250e-01
8.565203143013919163e-02 4.737756468851012787e-02 4.863296195441533798e-01
2.476588424750245446e-02 1.447295801503700394e-02 4.505674423414907648e-01
7.363241920914241623e-02 2.417888313373048326e-02 4.797682310716094856e-01
8.086883726225548019e-02 3.175553844952454241e-02 4.872945511342561264e-01
