8.465378817967848801e-02 5.118178447430696276e-02 4.993950175968343008e-01
6.111088559102430262e-02 1.225463333228913806e-02 4.684888346548610194e-01
5.905044307780067669e-02 1.860294289232228282e-02 4.675836213363836480e-01
1.351250484250100282e-02 3.862881036581452578e-03 4.445153386300537135e-01
6.558771470533156234e-02 2.500957924893609449e-03 4.823875587262980158e-01
3.242302771069315720e-02 2.773151685907105594e-03 4.490139696895255605e-01
5.855746937492559839e-02 4.498722109503200395e-02 4.739216476608843487e-01
-3.398549782801818520e-02 2.891191096404886664e-03 4.425323300728410958e-01
7.341365565921986747e-02 2.527367666056635348e-02 5.159845228532433659e-01
5.671898051958092907e-02 5.958631085027079818e-03 4.648421330481103952e-01
1.323887585046794671e-02 4.935062979515113246e-02 4.622103396253058327e-01
6.895144627940784365e-02 3.396996270934084933e-02 5.247748265148131086e-01
6.929440955048267459e-02 1.541668735206822363e-02 4.809414401830853225e-01
2.806020943136082468e-03 2.062025763407075718e-02 4.489086971013779848e-01
4.385300746764443647e-02 3.905099463478584922e-03 4.553389765195532402e-01
-1.617303199952896051e-02 4.400479195766723167e-02 4.593110346985110892e-01
6.856093421327685844e-02 3.977520778538008728e-02 4.765311629665422988e-01
3.355799718666935272e-02 5.061608954126537580e-02 4.670614309127684716e-01
2.843602415642376008e-02 3.078875434557165613e-02 4.578135136478272416e-01
4.278358086706172958e-02 3.415137339723964965e-02 4.645359363119984097e-01
-7.514753030102049210e-03 3.044451166921915627e-03 4.420948132090863347e-01
-1.586829288693265838e-02 2.059939531916731362e-02 4.483681887771205909e-01
5.005143941351316433e-02 -5.437336248569572122e-03 5.274702078705874042e-01
5.484157062582974834e-02 -4.793530708009569215e-03 5.226975344610877983e-01
7.754786100543371863e-02 5.527235868660774348e-02 4.861300687807209586e-01
7.131998813039992779e-02 5.342989131246875939e-02 4.815767518357549348e-01
4.682177138127488480e-02 2.565524278259170149e-02 4.627118957368137608e-01
5.447929463284206797e-02 -1.757810167642976599e-03 4.634574675156901136e-01
5.222138071449893698e-02 2.063821389316838895e-02 4.638627086979484337e-01
9.203440753912512512e-03 2.919288385332224553e-02 4.528140413903256056e-01
4.201055034460923071e-02 -1.232436932491707930e-03 4.531498676973143014e-01
4.969268685806571551e-02 2.121992719358924834e-02 4.628673625275266934e-01
-6.125210863536055886e-03 4.428200361321327216e-02 4.567789775287589005e-01
7.424665606808494855e-02 5.174423785418991867e-02 5.124057666659080912e-01
7.439059246957462068e-02 5.658550629143076910e-02 5.079065414047696514e-01
6.106577058846707207e-02 4.502645884811845578e-02 4.754700786590295158e-01
7.782702508967946631e-02 3.079920483292814329e-02 4.996490993589521312e-01
1.838162401146688912e-02 6.803566217845782686e-03 4.466942121498453933e-01
6.470580144405800593e-02 -8.894343252764964208e-04 4.823566193533466717e-01
8.895429461140139799e-03 6.274450986043600062e-03 4.449384766737836672e-01
6.570984940234567140e-02 1.389190185607427734e-02 4.748086669952980565e-01
1.381525330204321639e-02 1.811799611605502056e-02 4.499285583906789121e-01
3.150253814410807623e-02 3.847977555563080604e-02 4.620165372427434969e-01
6.935681305631952176e-02 1.121757271823400209e-02 5.006802572014558139e-01
7.055301455771462171e-02 1.770943467862510015e-02 4.822941623208754081e-01
-1.687454502053079702e-02 1.647848024132119414e-03 4.414103639616583363e-01
6.940467875139346918e-03 1.245526085873721947e-02 4.468015604458549506e-01
5.940660507714622812e-02 1.704126837085900154e-02 4.674520598145121553e-01
5.996280992691455786e-02 6.066082793550005292e-02 4.827731134970685845e-01
5.460277737744156923e-02 6.682281945896601481e-03 4.628599072488120414e-01
3.758852263351690481e-02 1.820927435100843164e-02 4.563384873686930909e-01
8.046470984258909109e-02 3.720460260071689618e-02 4.893716213843214979e-01
4.995532995009745181e-02 5.882030319250747263e-02 4.802118460619416718e-01
6.527899478929428956e-02 1.594723754939508104e-02 4.736736873211684351e-01
4.937816788131706158e-02 1.831726496663683285e-02 4.618021337135785331e-01
-2.283844900565053238e-02 1.835057451292014530e-02 4.493424241278440312e-01
6.095277866788652993e-02 7.184717166765530391e-03 5.187417070413635756e-01
5.745229697182541867e-02 -4.143621746214513034e-03 4.684302139365765227e-01
2.922897259797869324e-02 1.724073749038057893e-02 4.532763349954914700e-01
7.843264474498606864e-02 3.475068523350109684e-02 5.040104693987795814e-01
5.271134536787364100e-02 4.276211308525623006e-02 4.707054575783543027e-01
6.206362963731033161e-02 1.571165111421600133e-02 5.277362356028384438e-01
6.570867106035957472e-02 1.300426307180930531e-02 4.750086094265943415e-01
1.241881235061753457e-02 3.387228291418098447e-02 4.552982587317255248e-01
6.254149158171765088e-02 1.110879971669816342e-02 5.212817298232667040e-01
3.466057065497156475e-02 5.356284414616076933e-02 4.684429860504512044e-01
8.320363754050096039e-02 4.252483084502675648e-02 4.887220925073091360e-01
1.485618019258392111e-02 4.967380615793150211e-02 4.627454663848333816e-01
8.310798834344131081e-02 5.568894334143456581e-02 4.950696649605774713e-01
3.801012652911061468e-02 8.927253368669339426e-03 4.532889882629405620e-01
7.382959217241398531e-02 5.682848713389843098e-02 4.842936862405504694e-01
2.326710276072390185e-02 8.928449983632850279e-03 4.485841964174872576e-01
-9.551804451076695637e-03 4.206271851868369216e-02 4.555206491311415973e-01
4.270288202094042578e-03 2.033094486475332807e-02 4.490398017107369855e-01
6.519723594772025566e-02 6.644087066190516519e-03 4.774006340304607909e-01
4.788465172222310107e-02 1.924572331666503551e-03 4.576618286362418297e-01
6.705966689440899520e-02 1.269253202583323428e-02 5.123630250418609311e-01
1.771777389462610500e-02 3.243559755649814969e-02 4.559097843599280164e-01
7.226292437550355108e-02 1.672199205888704604e-02 5.032701107981810695e-01
5.540547522991248752e-02 -6.342456835605431859e-03 5.223144199884779404e-01
2.439622887704873122e-02 4.180568343692805250e-02 4.614396376084424767e-01
9.143737097883034015e-03 3.239659337200070932e-02 4.541865302085024703e-01
2.810619021089172387e-02 5.027171200242663146e-02 4.655982138728968489e-01
8.154156648732240054e-02 5.115082631543500097e-02 5.038543290883350512e-01
1.122223950244367711e-02 2.315400914188597836e-02 4.512110917352155637e-01
4.693617083836418985e-02 5.573586678098654129e-02 4.731486681742857470e-01
-3.391546780020176372e-02 3.572525338171190275e-03 4.428917512188361716e-01
3.363679263494175325e-03 3.782034339092792824e-02 4.552644098170897657e-01
2.605892011053632940e-02 1.503383731806929961e-02 4.516098236564113910e-01
7.573953882526099357e-02 2.673765444456599125e-02 4.847745278234870114e-01
3.446367268752081880e-02 4.858465504000925722e-02 4.666366978986568603e-01
4.011915922077780028e-02 5.161898909959775766e-02 4.693684440216699949e-01
2.152101179344325516e-02 3.585631919960287350e-02 4.583684463838173517e-01
8.807037734685375929e-02 4.615169912315847389e-02 4.960969078165093915e-01
7.638420095680353850e-02 2.659024702222744299e-02 4.887881658618704606e-01
6.525651868320399285e-02 -1.901352109458129443e-03 4.858323435846695348e-01
2.192889908922175668e-02 4.378466565721129966e-02 4.615621190795818340e-01
5.838508802769223210e-02 4.817223168335968420e-02 4.740351857073155650e-01
6.426822027404822946e-02 7.040477412210424495e-03 5.094225805117335026e-01
1.304979226238979668e-02 -9.547991896519201355e-05 4.429734357354441765e-01
-1.289570342898803228e-02 2.785528140484934065e-02 4.509000401287991955e-01
6.699390290981094287e-02 4.141210641210629935e-03 4.915419283742956669e-01
6.250743972241962210e-02 1.685490702447459480e-02 5.281741991225857857e-01
3.068915416746128416e-02 1.066504931786428287e-02 4.511761344947931018e-01
6.395916816501043267e-02 3.190435918901275703e-02 5.313854496988797971e-01
6.932129571870228324e-02 1.181545085298980544e-02 5.028583956914851605e-01
1.179487228307402047e-02 4.288092587730574570e-03 4.444941150115473971e-01
6.866502218134240554e-02 1.946103747548967589e-02 5.203003575376559109e-01
-3.977573703807368161e-03 1.488921038930881777e-02 4.459786931124627984e-01
6.951513074354200017e-02 1.349306550370035426e-02 4.839673702917001719e-01
1.020074137583867196e-03 1.567613045610451866e-02 4.469810208666017415e-01
5.463529263271774822e-02 2.180737016339204248e-02 4.658026751256221232e-01
2.483270144827316728e-02 3.193202380207015023e-02 4.573083968709407143e-01
7.633964670984255685e-02 5.393412545641387140e-02 4.842174425872397547e-01
7.772561465782470980e-02 3.906460548919237635e-02 5.089985183252754286e-01
7.458534671265590332e-02 2.725843816780455786e-02 5.138928874655306345e-01
7.444713005828465513e-02 2.214193540261961621e-02 5.053536722691109873e-01
-3.995396495784183689e-05 1.738978847812704120e-02 4.474095766111208516e-01
3.976254984621056809e-02 1.077706473413368726e-02 4.545375597139090229e-01
3.347992065216974511e-02 6.793521852670994857e-03 4.508877680401036647e-01
7.229086303497193888e-02 5.515002993715789614e-02 4.827866400621987908e-01
6.452813305518734222e-02 3.657025158174842527e-02 4.739186765340096530e-01
7.329435924784427625e-02 2.732875642711853070e-02 5.177058612324424436e-01
-4.114065680847271700e-02 1.459782317689434184e-03 4.415832176115094265e-01
7.457427852543911315e-03 2.705372292973852802e-03 4.434560368372524319e-01
5.134980413051065673e-02 -2.870185236252234713e-03 5.254893531398523443e-01
7.521556094786470414e-02 3.322889286187579588e-02 5.142010694405121374e-01
4.020943476655681331e-02 3.561956709497968859e-02 4.638871142769736555e-01
5.772222614162781512e-02 6.094722369777306331e-02 4.837660621880067180e-01
6.718956307626910984e-02 6.603896115875806938e-03 4.843617288096571105e-01
7.468887736363803709e-02 4.211455340221847282e-02 4.809191132222397358e-01
6.807765382695565859e-02 9.916099314849189522e-03 4.835133965128692868e-01
-1.382590121930934481e-03 3.158215177937939017e-02 4.525450646155683709e-01
7.373090946283732128e-02 5.400926930499376499e-02 5.114678401130867691e-01
5.648946024705334829e-02 5.651533876781487942e-04 4.653665574169296160e-01
7.641276454137595209e-02 3.068663817275884761e-02 5.063065594078465237e-01
8.159614259528544244e-02 5.519510139327250126e-02 4.888821081453574857e-01
7.384386876322415749e-02 2.102879225469420077e-02 5.066267263342181248e-01
-1.469262449021653668e-03 6.209452801398644348e-03 4.438066826664902598e-01
5.794165545707422732e-02 8.570429924790561038e-03 4.658845202251003514e-01
4.222920823986549971e-02 3.433692046840840575e-03 4.542745753397529063e-01
7.710361688540492975e-02 3.862221584190195234e-02 4.828620050488159343e-01
7.299188148980594038e-02 1.664711627404691363e-02 4.981196605883548845e-01
-1.908572036399847766e-02 8.827881444163214117e-03 4.443362333487644311e-01
4.651203821473644945e-02 5.767673149130630311e-02 4.761388403899354249e-01
7.200306716745823177e-02 1.686907902871643411e-02 4.883521043468361245e-01
7.142261257566023813e-02 5.187674842276447651e-02 5.134637777379654766e-01
7.740051944197977318e-02 6.164384585873777106e-02 4.944684628834027929e-01
7.145285970463265135e-02 1.917790116519185045e-02 4.834304432090447690e-01
-1.527851024645595149e-02 2.702281897855899825e-02 4.505650353345612702e-01
4.159621170278321456e-02 5.760864318406284934e-02 4.762355160184013059e-01
6.439035255535902058e-02 9.892176353406502767e-03 4.740579809921723897e-01
3.542015698229333820e-02 4.603491244712021313e-02 4.660493517224004734e-01
3.352598295014717206e-02 5.772571345971242579e-02 4.715330633186096132e-01
4.843413326046803330e-02 -2.964578140041334263e-03 4.579130847680670802e-01
3.913491052094289491e-02 3.262823437170057211e-02 4.624303786099920321e-01
1.947018136402510827e-02 8.904986331231287341e-03 4.478009534043055351e-01
-1.567672027649581051e-02 1.945575398357138677e-02 4.479362615220868760e-01
7.642089871936316725e-02 5.167319687016616592e-02 5.096283689440688214e-01
6.755941418032351820e-02 9.811873654207325934e-03 4.815179988245148479e-01
-9.612990212830832895e-03 2.982574479760333880e-02 4.515507937579087416e-01
3.393365695980715691e-02 5.395031745620259417e-02 4.684385715617792045e-01
5.689528101629727497e-02 -4.390379923724407538e-03 5.197915569741143882e-01
6.410993515991168790e-02 1.495472379908866813e-03 4.783819267579026424e-01
-9.223430454838961109e-04 3.089716569217633088e-02 4.523508003716650849e-01
3.069490358358402046e-02 1.131096151071474612e-03 4.475876102875585016e-01
7.448036808160592159e-02 1.997970654511010968e-02 4.923036005726709741e-01
3.510419271299185934e-02 4.612924153713649639e-02 4.659914701850337848e-01
-1.608511724869539361e-02 1.860776550134365936e-02 4.477079141863692935e-01
2.055682860002577481e-02 3.004033786310358108e-03 4.455789699249788627e-01
6.999253567000462972e-02 5.416705554882260409e-02 5.121716775739306726e-01
8.322238403868278955e-02 4.161986500823732643e-02 4.943769399724970981e-01
-3.673079612318911821e-03 4.766292233956951480e-02 4.597378614284589049e-01
6.237247283299958422e-02 5.719975774070378514e-04 5.071525287717362218e-01
6.159163056621872606e-02 2.169315442099526564e-02 4.704165170051481382e-01
2.704640718825258860e-02 2.054120641847734241e-02 4.538652161487246040e-01
1.881201579739967544e-02 6.268001537546259716e-03 4.465592852502208165e-01
2.397619739203755290e-02 1.961811047871190889e-03 4.458487039091556525e-01
1.957232446002854162e-04 5.009778799397322097e-02 4.671255500803290772e-01
1.851659035717724208e-02 2.949107853928454800e-02 4.548000402785770668e-01
8.207820763806397690e-02 4.416649525589179393e-02 4.880119095059434753e-01
6.600235317002733915e-02 3.600934986704953239e-02 4.745312773651094718e-01
6.759160992734984663e-02 1.200286454129022642e-02 5.089937979970926563e-01
3.380015817522481758e-02 5.220684523986869607e-02 4.676846014866950507e-01
-2.809804026274910146e-03 4.587808877095787830e-02 4.582060639894865450e-01
7.295776319725562342e-02 5.739284277495303177e-02 4.843383811120623439e-01
7.136910500104201582e-02 1.554949591000994585e-02 5.050735480448327319e-01
-1.220015603946084104e-02 1.810426785795741719e-02 4.471025039862573380e-01
8.548577978064138272e-02 5.072517487871110176e-02 4.910284793982896412e-01
-1.123922304329132496e-03 3.841426692213013860e-02 4.548986394546757905e-01
4.093450784202888604e-02 2.352410764348017783e-02 4.595065475631733287e-01
6.258740233785912987e-02 4.443325369174501438e-02 4.761269334489737770e-01
-1.454388815474339132e-03 2.477249344190724477e-04 4.416205269641615971e-01
7.778851793078707388e-02 4.543394725993163408e-02 5.077328913646407260e-01
7.483505484713524891e-02 3.535599403423446419e-02 4.808739645730077950e-01
1.899133959020049209e-02 1.885579131223472441e-02 4.512250585387298507e-01
7.302252677787975099e-02 6.329785857460422382e-02 4.922047602583787818e-01
7.169725110874416996e-02 6.593127278934052260e-02 4.950366763051969321e-01
6.799327275029812268e-02 7.491027576446083504e-03 4.966462718307084190e-01
2.855202066639853792e-02 5.766103149239847070e-02 4.704037589539398212e-01
-2.372190010817891090e-02 1.569174847933037936e-02 4.487635762214904900e-01
7.398170043868804169e-02 2.069509750604020537e-02 4.890873629622780050e-01
-1.867318052994397862e-02 3.335158942995003484e-02 4.535394318694827009e-01
-1.701468169163584607e-02 3.051649367510474858e-02 4.521685713338174373e-01
2.711046023282532788e-02 2.949560103476433354e-02 4.570005496332302242e-01
5.909735628269149194e-02 1.404947949367002687e-02 4.667879666349118994e-01
9.470092051479483269e-03 4.060426150181795091e-02 4.574237470190712362e-01
1.028443280132759416e-02 4.350906713538077453e-02 4.586086201496919479e-01
4.280380940338111839e-02 -7.598918775887234314e-04 4.537821641510642046e-01
1.070206968970410788e-02 2.916616201205103620e-02 4.530329606663831554e-01
2.768328903670444138e-02 4.723221574096832936e-02 4.642838702537359641e-01
4.817905670466590684e-02 2.207228809141825732e-02 4.623525093105909645e-01
-2.396248126316738794e-02 1.296405070357436844e-02 4.474391628984292768e-01
-1.566856177719590931e-03 4.962700934515876239e-02 4.659392952339007632e-01
3.057015901362029019e-03 1.286301712073831607e-02 4.463355228685296772e-01
4.555398091799268273e-02 3.393832055341589223e-03 4.561778163020148158e-01
7.043011152374220596e-02 2.791551703586484315e-02 4.777809691995293928e-01
5.977590851615381673e-02 -3.007679350740470169e-03 4.713647241364089524e-01
1.984700682447405537e-02 4.617362957901306741e-02 4.619486137112532864e-01
2.743621370300878409e-02 4.786198650861443749e-02 4.645010128520561388e-01
7.331061491811599606e-02 3.329057899000288645e-02 4.797598432589673112e-01
5.982102177042336599e-02 6.632511633449624140e-03 5.212411939861062438e-01
-2.014999127081821065e-02 1.069863095485428656e-02 4.453574283875746942e-01
6.918790039105629508e-02 1.625246075800011042e-02 5.134339882502699792e-01
3.694315609913926407e-02 2.601751170725997639e-02 4.587895404071968830e-01
7.531974883882396055e-02 3.610584410988263576e-02 5.142551824605726685e-01
6.512631747437797047e-02 1.405402556915636217e-02 5.197148130189780391e-01
8.293636374101372166e-02 5.261094780711574048e-02 5.014781527552748530e-01
6.794737797586077044e-02 1.110787132143789546e-02 4.814751805056848855e-01
6.321917273309768381e-02 5.783310051005760219e-03 4.738255749323701527e-01
7.865316432538722868e-02 5.291852245791536791e-02 4.855777172642976036e-01
8.139683305113264156e-02 4.374224035954575596e-02 5.009058001311281760e-01
-2.921023804598322018e-02 -8.166075910250253714e-04 4.403592432117268696e-01
2.636292688003998540e-03 2.314682362734574866e-02 4.497479813614281285e-01
7.894443277670670778e-02 3.590295301956560742e-02 5.031264234746094521e-01
6.245656727905351396e-02 1.717170186741270171e-02 5.285647859559045036e-01
6.423715859761787439e-02 8.985968379577626702e-03 5.126587937576745357e-01
6.929552455794006638e-02 2.884859177928670790e-02 4.766460201643206163e-01
4.600243525821982177e-02 -8.862659985857147815e-03 5.321086671049185535e-01
5.968322886656370063e-02 7.931540683626189456e-03 5.232344170037752651e-01
7.933479772189566681e-02 3.317177837409462926e-02 4.934214087745711907e-01
-1.076854456238708450e-02 2.067667828646903988e-02 4.480470128769654670e-01
6.406262556353256588e-02 -2.713287571795710597e-03 4.999020241220530347e-01
5.366134868281068754e-02 4.588482050638272025e-02 4.717859723833820462e-01
6.014124466478696501e-02 2.819550432108643839e-02 4.707379568148758464e-01
3.808307480710280968e-02 2.969032642305450415e-02 4.607343804175315083e-01
8.300870409534488736e-02 4.722723863289691321e-02 4.886509189732418657e-01
1.653643337745177785e-02 3.578513902161788163e-02 4.571005482261765174e-01
7.408513003999413205e-02 5.705047541209092021e-02 4.846513521864005969e-01
-1.410190507243420065e-02 3.644529370918124511e-02 4.539601964157510272e-01
4.611400919340654693e-03 3.107636736551015397e-02 4.529273464907728752e-01
8.649658501902977858e-02 5.358517484903770056e-02 4.953961024051665163e-01
6.377949626353476842e-02 1.022812748195537844e-02 4.729484739660442250e-01
-2.951852508422671967e-02 3.528648501531601520e-03 4.424925622833628114e-01
5.901221060625492371e-02 2.429349748294069855e-03 5.170924811263418741e-01
3.276441544593246963e-02 5.456918735875366383e-02 4.685332356743461268e-01
-8.147703935160916650e-03 3.789008386219330088e-02 4.540660818118353870e-01
7.985665125477648535e-03 5.130168818145468268e-02 4.631861951325865756e-01
7.397995267178322787e-02 5.924552440622362498e-02 4.862636509669383544e-01
7.695263325128008647e-03 1.812527880124447689e-03 4.431514846261518925e-01
5.840235010128660281e-02 2.593656165459393842e-02 4.693934845081080831e-01
1.798813241781599404e-02 4.935979379356131291e-02 4.631991569030792233e-01
3.085566388975102825e-02 5.877912475284217259e-02 4.730939494947064006e-01
6.497002699582445084e-02 2.079562174347739795e-02 5.281289809522127232e-01
5.049943851710332610e-02 -2.144958354602811285e-03 5.260463232681783508e-01
6.848720035025118204e-03 2.174642576185482207e-02 4.499343007616632417e-01
6.812788670182234885e-02 8.218434623266698824e-03 4.976091160665463975e-01
9.858079252573712439e-03 3.791081786338278831e-02 4.565386766750437753e-01
2.601020094464434954e-02 2.981913552701962247e-02 4.568220961136129632e-01
6.374716720742290565e-02 2.171980371085032585e-02 4.720289952991391091e-01
-2.971183223552249265e-03 3.040357104053198478e-02 4.519921779468824008e-01
5.847067487431172050e-02 1.920524837402421206e-02 4.674218351452630316e-01
8.842045703005001200e-02 4.539742684082120200e-02 4.933886264811960243e-01
8.415718134777039339e-02 5.225470209912828901e-02 4.985644111033291082e-01
-2.391377641615173924e-02 2.781191418027657847e-02 4.535076860544250965e-01
6.173377391379817475e-02 3.382876472328417983e-02 5.288082004410910031e-01
6.342300188888347345e-02 4.400420705434134050e-02 4.764403544813359814e-01
3.145705881903648748e-02 1.852278648251818455e-02 4.544521786126781149e-01
4.166652692515890322e-02 5.781668477663914896e-02 4.793497084210355252e-01
-5.051241968819004773e-03 2.136208298571993375e-02 4.483849017327546926e-01
4.075919115898602244e-03 7.467913484980891019e-03 4.447977722783643117e-01
6.244250646432095847e-02 1.448375913952211838e-02 5.257227620831813608e-01
1.029080945081643425e-02 4.577173050725114566e-03 4.444433279924828173e-01
7.083858446780763596e-02 1.762695129512768105e-02 5.114609008955927072e-01
-3.444743367878897594e-02 3.606931623414101010e-03 4.438177953120045482e-01
2.462982494004506070e-02 3.101523689674688146e-03 4.464234321798063454e-01
3.572677750002677122e-02 5.632654017742355634e-02 4.705517579413851514e-01
-2.111634106293229160e-02 1.278512338259117469e-02 4.465029316228338319e-01
6.297262469653257255e-02 5.804537702099683838e-02 4.809695778472654615e-01
7.780378411604381428e-02 5.566194675555895255e-02 4.864534133836137531e-01
6.846516093853355356e-02 1.316322551819831474e-02 5.090614480599243707e-01
7.744030493117121106e-02 4.155066542657039758e-02 4.829808380686283487e-01
7.586921559265109860e-02 2.260774247545315613e-02 4.948572396534589579e-01
2.278073258438494814e-02 4.923313991924136573e-02 4.639388088135327215e-01
-3.047608731024969986e-03 4.750439077805319182e-02 4.596119383152269533e-01
3.928913011103737224e-02 1.043547463716724272e-02 4.541881385973396967e-01
-2.566723996685816439e-02 1.294357689448238750e-02 4.479371476144198838e-01
5.597239500396945094e-02 3.161355396815840324e-02 4.692761037774599298e-01
3.938215766699997011e-02 2.988470161475600267e-02 4.613469463388368830e-01
7.469412754558876766e-02 2.840220912651826579e-02 5.143191208917858859e-01
3.072665369328198698e-02 2.998911630742820064e-02 4.581348733227083025e-01
7.371589734369897451e-02 1.822612737442839276e-02 4.934464392561825896e-01
3.879127865839680778e-02 5.609723308204560971e-02 4.711608265725093503e-01
8.147804255507126725e-02 5.629788298978539302e-02 4.983598811780023952e-01
5.535831154738150156e-02 3.253960215671838907e-02 4.692355894465598531e-01
6.779025122172795126e-02 7.836302482067004221e-03 4.853804402695228726e-01
7.968489096503250657e-02 5.431036512730452737e-02 5.054791839015603250e-01
-4.742529051741906782e-02 -2.518445684898206523e-03 4.438321420917858418e-01
8.654136307560943153e-02 4.847294553307116005e-02 4.990958307672664351e-01
1.003715973647237650e-02 1.819090022110021049e-02 4.493079025710747798e-01
2.064367269029762988e-02 5.682562080977378825e-04 4.447410963165758235e-01
-1.873249784404151016e-03 3.572755631995075398e-02 4.538925223992338331e-01
-7.565739217868518510e-03 3.319437105964211793e-02 4.526813791844675472e-01
5.923449423140011993e-02 6.084461054822568049e-02 4.868364994942075974e-01
6.343348458979777837e-02 3.991154432706148919e-03 5.066175071467713398e-01
2.285562453720478213e-02 4.688287385451604672e-02 4.629571600248445495e-01
7.308858977934357126e-02 2.982834966001945975e-02 5.186876270921552123e-01
7.565350223521663531e-02 3.725131789220965245e-02 4.813389930954113938e-01
6.144841422081628868e-02 4.256713178567776701e-02 4.745776072069417539e-01
7.075044532025931421e-02 6.113495474719440187e-02 5.022797218483088244e-01
6.080904451765206664e-02 2.692678323098686780e-02 4.710044559107779971e-01
4.769047081593465881e-02 5.817587504482477773e-02 4.790701907393976056e-01
2.063222573250788824e-02 5.563097785787429750e-02 4.677733378922617757e-01
-1.212389025850376181e-02 1.664438703429465746e-02 4.465187308487048035e-01
4.281857351055494421e-02 3.907005628596039656e-03 4.547383684661716052e-01
7.026999666335212447e-02 2.619376753078032222e-02 4.779727408354009777e-01
6.498179839057106888e-02 1.071230277119667763e-02 5.139122119334292860e-01
4.750193159957665640e-02 2.713270302396189257e-02 4.635875738286844294e-01
5.502505324632575578e-02 -2.604814773861605440e-03 4.645137477635333800e-01
-8.216190504588351956e-03 1.665146877956390908e-02 4.464861169690779730e-01
-3.736634972966507151e-02 3.232675266314907585e-03 4.449867489664271480e-01
3.122593871747631269e-02 3.139132430549862462e-02 4.588999835171322927e-01
1.907771443704674511e-04 2.576753247268084857e-02 4.503884888333803960e-01
7.969625791234921652e-02 3.433922370169730648e-02 4.901244324111848072e-01
6.056094296467878779e-02 3.073359605786345899e-02 4.712367350571510238e-01
7.340142599789303834e-02 2.293847389379768606e-02 5.120895390902794331e-01
8.777646084107498803e-02 5.178264469480803323e-02 4.938248549562860856e-01
7.066124100379571338e-02 3.448674345786020140e-02 4.771287882146508230e-01
6.393409260774507441e-02 1.666584989022566743e-02 4.712429500427435247e-01
6.185089698092140903e-02 -1.173934649556921664e-03 4.743358932988662735e-01
2.295507468216181207e-02 5.386037334437608626e-02 4.661859350564661608e-01
7.322531754147697247e-02 2.542980476170003667e-02 4.822117294203489557e-01
-7.479155268836969531e-03 2.217190324445643748e-02 4.486221418427294161e-01
6.810600920402461178e-02 1.471655634160569034e-02 5.134633174875897765e-01
2.135584819228478551e-02 3.566472641155238321e-02 4.582348643327271431e-01
-1.241532058606109774e-02 4.263183462664898310e-02 4.558136973069960018e-01
2.203321828586838824e-02 2.475365911763460075e-02 4.540052877848742563e-01
-7.612904722770029789e-03 2.463450414612825684e-02 4.496366810817062909e-01
7.162820368913974667e-02 5.822794201535934355e-02 4.844199715091623837e-01
3.162423069288487071e-02 1.284996514636376971e-02 4.523330858553691325e-01
2.127608220926006932e-02 5.948747111946924709e-03 4.469264095720469898e-01
4.684130877486424038e-02 2.877803739899274099e-02 4.639863746774746112e-01
5.952951728054101110e-02 2.662902730161221740e-02 4.701747232792620745e-01
3.079620413224833098e-02 1.508151614326160364e-02 4.530432226466387102e-01
4.805463751184869958e-02 -2.404616883759386897e-03 4.576153789023132967e-01
6.985029528776488805e-02 1.182117575215030705e-02 4.883149948304766341e-01
7.381742678763686394e-02 5.782515710832628747e-02 5.059589846350195375e-01
6.523708295492654241e-02 -8.787101430865430426e-04 4.962663801084110093e-01
5.403413036630025368e-02 2.443427488022732047e-02 4.662850776875834824e-01
6.717461268451457856e-02 2.971149300422282202e-02 5.299704341443115529e-01
4.374735819407941928e-02 2.568858605278715942e-02 4.613923318864066037e-01
-1.755997347855424440e-02 1.788322601398923024e-03 4.414329556594362991e-01
5.763391271248404640e-02 5.178721664512705297e-02 4.747496705875566270e-01
1.274125900052881961e-02 4.867030917905411369e-02 4.617028338055003678e-01
7.218779933190788700e-02 2.812639109779373550e-02 5.203505859206328799e-01
-9.638746455870286084e-03 1.141386511655793044e-02 4.446836226417401616e-01
5.453362862795083088e-02 -4.501326686437373895e-03 5.230553309496077663e-01
3.907726176494935588e-02 3.296994805106656656e-02 4.625374534063254606e-01
4.466542712179342317e-02 3.761025276624294957e-03 4.557714121236186022e-01
6.754274040937771617e-02 5.962640424951722723e-02 4.838161445625139279e-01
4.815621918348177849e-02 4.445568634893216908e-02 4.694431796193304085e-01
2.364357374887050139e-02 4.672223728001390769e-02 4.630911973802592785e-01
2.983163223870455988e-02 -9.943609374334439269e-04 4.464824496536738407e-01
4.687638741725400765e-03 8.575552632975224493e-03 4.452200482904566936e-01
6.717744575898990100e-02 1.804248318980345572e-02 5.212736616701949544e-01
5.349737846428338772e-02 5.880407878556436624e-02 4.778871744935546118e-01
4.904823757551496355e-02 -4.916710588028151696e-03 5.280144105446537006e-01
1.711601588342087296e-02 2.913665988636639226e-02 4.543369185552705303e-01
5.203860910844308740e-02 3.284815261945624437e-03 4.607033322725859192e-01
6.535835293019547076e-02 1.048270624919301480e-02 4.756787298131411879e-01
4.451570986408863451e-02 9.433791544073574786e-03 4.568454897368826040e-01
4.790109195648976220e-02 -1.461580281506513063e-02 5.319379679326282639e-01
7.139092523543578983e-02 2.232447149826328678e-02 4.810229281296777848e-01
-8.806388390364150789e-03 4.684695705381611286e-02 4.596170459462659563e-01
4.082129134673579546e-02 5.787802636040404597e-02 4.793294934520967443e-01
6.559604661560368422e-02 -5.794731843987133667e-04 4.937615472174420317e-01
4.523605831390162257e-02 4.031730751280514224e-02 4.673858696669606072e-01
5.915074877451886176e-02 2.242547454196325979e-02 4.690811283762301720e-01
7.210946618820314458e-02 1.863810086535650293e-02 5.090413810125776761e-01
2.940938953870828737e-02 3.203849737168171230e-02 4.585174854297802693e-01
6.810974570195948985e-02 1.884228596080394363e-02 4.770689537244681699e-01
6.198405526420130984e-02 3.219553024441596661e-02 4.720797421359970714e-01
-1.298346645150788917e-02 3.492404577533614416e-03 4.420982431640787524e-01
3.229135530351545658e-02 3.455299922468892115e-02 4.605485778448493162e-01
5.680863597188651887e-02 -5.373831841614451661e-03 4.679901472944630325e-01
6.917108747964968718e-02 3.698322151106346600e-02 5.226532261556200432e-01
8.078442825497143820e-02 3.928025705497149855e-02 4.970963559044303537e-01
2.085767083282457843e-02 1.321262995520912885e-02 4.497444936573373742e-01
6.604852807971399453e-02 6.888690738191214150e-03 5.033018192229046228e-01
-1.136526494602266117e-02 3.956432408963535263e-02 4.547687354652496516e-01
6.174202900448534648e-02 5.502584752489574592e-03 5.140300615773437665e-01
7.571291571112584440e-02 5.780924099795843596e-02 5.056471506298551022e-01
5.390835367113007426e-02 -2.639095519105005665e-03 5.230944438907685345e-01
7.550443777526097411e-02 3.310122206322253791e-02 5.134206794859461631e-01
7.269567227173455437e-02 1.690704930906516967e-02 5.015658126847630793e-01
6.319269968415171246e-02 1.043779409152029158e-02 5.180398552723913808e-01
-2.482915408775301404e-03 1.849482116629820984e-03 4.421156422698525046e-01
5.266510638925492316e-02 5.982467654388200912e-02 4.838045078640003660e-01
7.279841378986236233e-02 2.260890606951574539e-02 5.138139030588139144e-01
6.242353582987649613e-02 5.158332042324668965e-02 4.771231655731731358e-01
1.163286102905572786e-02 4.013585516956091892e-02 4.577455276449048371e-01
5.036138297817410389e-03 5.067542002204360185e-02 4.641752437807177278e-01
4.811220456763470182e-02 -1.163456488523204567e-02 5.314812838382202420e-01
3.169529831674803427e-02 5.313733588615836279e-02 4.674826435276601133e-01
7.906016272400920308e-02 3.635384037775434701e-02 5.030740483046731715e-01
-2.250290252780285521e-02 1.661693886969867889e-05 4.406885827909357012e-01
7.703657678174882784e-02 5.846151406336677625e-02 4.878951489748567516e-01
4.407186000813875792e-02 -1.907573584658003299e-03 4.546342314686906416e-01
6.835765693961790013e-02 4.811521145657859239e-02 4.801004445278695965e-01
2.020161260347706766e-02 1.527908370682101551e-02 4.502838477595564881e-01
7.081771624308608182e-02 2.610236497969169872e-02 4.787106755196720020e-01
7.312491878855567617e-02 2.015782905099258379e-02 5.082492173169168570e-01
-6.467861490810355128e-03 3.930295552069177495e-02 4.546227304548942083e-01
6.518927502697241527e-02 2.688854705884069843e-02 4.735875537617092457e-01
2.120588119573651315e-02 2.561802759725774481e-02 4.540793766401829967e-01
7.796912646488569909e-02 4.729354022304790850e-02 4.837450739830057023e-01
9.983248103925979056e-03 4.615666595053509458e-02 4.597611047361617187e-01
-1.911460593562656213e-02 1.018886973380445614e-02 4.449491738434028787e-01
-1.139278600326942316e-03 1.346465087512493247e-02 4.459670184833355866e-01
7.834094566616719990e-02 5.330606852943610419e-02 5.071741148851949266e-01
5.403313355428569081e-02 8.590499058048959441e-03 4.625493948005774958e-01
5.579583705086891415e-02 1.084700525787418192e-02 4.639981705903472586e-01
7.872305893097018836e-02 3.814525755141709440e-02 5.057834382319434940e-01
6.697936816922533954e-02 6.786779204273729604e-03 4.830349212989103469e-01
1.835964052253951859e-02 4.764823854684103327e-02 4.622354256831888164e-01
6.480124639017749433e-02 -2.783270752254343033e-03 4.965090381957536492e-01
1.548661937164754095e-02 9.005577104284907819e-03 4.469846040938280085e-01
6.587305545317383160e-02 1.896275669218927019e-03 4.848731997875646571e-01
7.084830186986985912e-02 5.154560442741014381e-02 4.810358221929138534e-01
6.238239954772100554e-02 3.079133355464166305e-03 4.733781082223447179e-01
-2.516907892741377002e-03 3.432740455641083988e-02 4.533737384682795524e-01
1.906360604177931989e-02 1.521571728080270067e-02 4.499697044759735087e-01
6.245110121469461123e-02 1.020025849625410749e-02 5.196762023493233240e-01
-5.096577918777021182e-03 -3.264293324753385350e-04 4.410286302819249049e-01
8.327858749327506083e-02 5.035789551470605530e-02 4.886017026267558405e-01
4.201961410354130427e-02 -1.189181403905151171e-03 4.531602487965850634e-01
1.143245745875987561e-02 1.161119031801618670e-02 4.472781584385038811e-01
5.686951869074337654e-03 3.749188954611067104e-02 4.555129124385110528e-01
5.954403014287505680e-02 2.950194740228973683e-02 4.705197206003989274e-01
4.652587197129541552e-02 5.017947496321710499e-02 4.705489716349227636e-01
1.095674560263049796e-02 9.419816739499736746e-03 4.464130528938913822e-01
7.384836684689741193e-02 1.841872191740692027e-02 4.924920540775279409e-01
6.663207006696482415e-02 3.021239119242924778e-02 5.308653596435011224e-01
6.693594119967544165e-02 2.813729590219947105e-02 4.748946323660111490e-01
4.202846671400090744e-02 1.732369824737727340e-02 4.580417727563496078e-01
7.267124826940142557e-02 1.767427180634415299e-02 4.894352599541524351e-01
1.677738226143686215e-02 1.920528136289834098e-02 4.508998640216303477e-01
6.961541736243662126e-02 1.802755748093625571e-02 4.798202024989325909e-01
7.327873465032187783e-02 1.739138607701276248e-02 4.979018332824298732e-01
6.485876485285636817e-02 -6.830208602004346485e-04 4.828639027201954703e-01
1.185602838681430911e-02 3.841741180536420441e-02 4.571753108236634167e-01
5.838747186090297719e-02 2.678829300017477461e-02 4.694838492987379874e-01
6.494337474144054601e-02 1.035891814563975888e-02 5.133603687322837450e-01
1.678072292036321758e-02 3.211879774326019399e-02 4.555628136118696214e-01
4.880603988861443449e-02 2.118301531675970822e-02 4.624435373126412618e-01
2.472573890075345504e-03 1.242531408837923776e-02 4.461207699860433307e-01
7.291701594599012126e-02 1.926115572850269422e-02 5.070926718998984839e-01
6.193616426147267873e-02 3.045920392217718944e-02 4.720866080995557157e-01
7.218380749268236973e-02 3.461893465946939974e-02 5.209374345967467956e-01
6.618894191525405424e-02 7.231627092364830214e-03 4.797051945177055465e-01
6.254540509859099484e-02 3.148339011085078687e-02 4.723936282137442544e-01
-6.102472253856933149e-03 3.017377308824337884e-02 4.517920730033980203e-01
5.130536820262401182e-02 -1.298801951769285382e-02 5.286378684384149818e-01
6.484178263491978400e-02 -1.458831562727028013e-03 4.835151212431992307e-01
8.748873592814190858e-03 2.770655579863101625e-02 4.522497056842584851e-01
2.361026525196409376e-02 5.877205119080462087e-02 4.714616380623043446e-01
6.566509875688673892e-02 1.239665781966187152e-04 4.948674382116270976e-01
6.681324130997925992e-02 2.527135051995005668e-02 4.744350130347097516e-01
6.443449228719241861e-02 8.151110234920294628e-03 5.109017905810527838e-01
6.326794051580747480e-02 5.722788884074129362e-03 5.103346586505749238e-01
6.609906648664304329e-02 6.741084112383948987e-03 4.799244109337969522e-01
3.398216339255395041e-02 3.832934935223723805e-02 4.627728095772818961e-01
2.338181384105874824e-02 3.587006950564600172e-02 4.588185609815157995e-01
-5.485931309632329639e-03 2.229657652651979155e-02 4.487476921156416942e-01
3.302509131986528651e-02 4.805210285122706038e-02 4.660452336071276291e-01
5.676379448558373925e-02 5.698425344058048736e-02 4.778968697758089745e-01
3.172950617043883426e-02 3.079947612799201900e-02 4.588420449627582665e-01
-2.132349092280838229e-02 1.641109341472639718e-02 4.482657046940274892e-01
3.028856092087896246e-02 8.476515154288984805e-03 4.501770933927921048e-01
6.738006839596381858e-02 7.061552677843753803e-03 4.845792554517668882e-01
7.170163632364018325e-02 3.509545606585018351e-02 5.217038094609676158e-01
3.496370682930920876e-02 4.748059913102058160e-02 4.664080994719258522e-01
7.669723923276233757e-02 5.698942570897534698e-02 5.059625678260579740e-01
6.472260301105378644e-02 1.481992127496447979e-02 5.215265925689177573e-01
-4.965102136514213879e-03 -9.119068257122482299e-04 4.408166036711981262e-01
7.235607564002526082e-02 3.520402267925164252e-02 5.204741910183310338e-01
8.242160166293124868e-02 5.401015666720301867e-02 5.001343574343517506e-01
-3.406608515728542976e-03 3.844852946259116194e-02 4.546086398171634291e-01
8.157754495898048019e-02 5.637333694421914343e-02 4.977732322024917000e-01
6.944074535541853999e-02 1.021020534492548745e-02 4.902042916019692664e-01
