-8.981974366768230578e-03 1.009585476009641249e-02 4.442612189196467054e-01
6.343150069713200667e-02 4.302640821631199125e-02 4.760039942460356777e-01
8.106318668136804073e-02 3.797643231297136157e-02 4.927294954927348702e-01
6.740199580671460411e-02 4.076275674162554985e-02 5.198872034560403366e-01
3.938224882148856285e-03 4.786550018888123537e-02 4.600770387203620970e-01
3.697308758281747654e-02 -3.950561693915597729e-04 4.503036501698873817e-01
6.397594688699842491e-02 3.486338529248452639e-02 5.270304705600955542e-01
6.957397000691782629e-02 1.237069598821755913e-02 5.035748601911571587e-01
7.187526746154163093e-02 4.146725818938619412e-02 4.788755557205816027e-01
-1.359535866608923421e-02 3.006139764874533882e-02 4.516515316722862772e-01
3.269710478631381728e-02 1.149731003624194538e-02 4.520356725528355546e-01
1.707282173458764783e-03 1.529515027985453926e-02 4.469520339084120941e-01
6.762720851609056727e-02 1.432981203591416307e-02 5.139423159283524889e-01
5.064960154162284622e-02 3.961747640135965254e-02 4.693014949773313682e-01
-2.511720630147470240e-02 3.073911792514010932e-03 4.419353047463723261e-01
7.265942843713185662e-02 1.582820041399693456e-02 4.960825202388122190e-01
1.764082148953942733e-02 2.537352054971727874e-02 4.531768648921447040e-01
4.828609745715380271e-03 4.847071981849147143e-02 4.606407887977990723e-01
7.228718464647153341e-02 3.105935563604526189e-02 4.791600269450845273e-01
3.091430785423233268e-02 4.334441630089259923e-02 4.637791075282858833e-01
7.489885521524217160e-02 2.795516650485207685e-02 5.131322136206265538e-01
7.076384293760450139e-02 1.265933154988733468e-02 4.922958350096418578e-01
7.964182474470068995e-02 4.420900104635611116e-02 4.845617328713231475e-01
3.882488628220410326e-02 4.347830082167120774e-02 4.660949369955693644e-01
7.667905726638606090e-02 2.807898051273269649e-02 4.864323797506216462e-01
-1.771759414172033309e-02 3.478839975203995571e-02 4.538334722848598735e-01
-2.879173333038571869e-02 2.900367729753548004e-03 4.421329167141596073e-01
3.600962530577860726e-02 6.799245177125459033e-03 4.519491359203614000e-01
6.921424459346682545e-02 6.237478045782242353e-02 4.887976644087657085e-01
8.529679632198847172e-03 4.116383258715464177e-02 4.574329400118827271e-01
1.707720624417331801e-02 1.304809506871217571e-02 4.488136404840845639e-01
7.333210957125851914e-02 3.634992191462379368e-02 4.789249056921260350e-01
7.795424892023918029e-02 5.666770744353017558e-02 4.870273320511112614e-01
6.829387582089492537e-02 7.488512254506862753e-03 4.940792285294668962e-01
5.531825382690253035e-02 5.867654498959638809e-02 4.784940063476686989e-01
6.738880290040637211e-02 4.100703223172573464e-02 4.765427047126982174e-01
5.796758309013563121e-02 5.560796600002444745e-02 4.772835986365753236e-01
4.979982974528576745e-02 4.369018954882793182e-02 4.698513480012380117e-01
6.842400935662200367e-02 3.223115831582629154e-02 5.272090665520986486e-01
6.153183766483682343e-02 9.435663125620639274e-03 4.700030780713350120e-01
4.296494588016441796e-02 6.826396593821720295e-03 4.555799557237817377e-01
8.017799743395150058e-02 4.035829679432609285e-02 4.861614589198112180e-01
4.561325455325780653e-02 5.863258770692204858e-02 4.811502094335747270e-01
-1.288652871259675543e-02 -1.778779298773024847e-03 4.395224538333306619e-01
7.683092846049557889e-02 2.874785757979910275e-02 4.858511069021014261e-01
6.898838617031435860e-02 1.019908445314484172e-02 4.875819859487012242e-01
-1.940025751485830591e-02 3.084940886360149070e-02 4.529013642502983106e-01
4.374809481876260758e-02 3.083585086342506554e-02 4.635922108618477644e-01
2.429638154049384643e-02 4.621552588868882427e-02 4.630656089450430613e-01
6.674994536952134905e-02 3.030022695145488318e-02 5.307130645505353517e-01
5.389441695005509764e-02 6.018004570007887133e-02 4.834931723698114858e-01
4.804770640078555310e-02 5.142995351677728116e-02 4.714101129519817079e-01
-5.505262851382818762e-04 3.704960814510034617e-02 4.545078089203645200e-01
-7.115010712197767512e-03 1.259232257037574618e-02 4.450687143015197300e-01
5.713211845947833989e-02 5.387882813339702620e-02 4.755177585258223427e-01
6.429602143292448280e-02 1.396751698617626838e-02 5.213505967453807566e-01
6.392107977435554367e-02 7.916214392323078081e-03 5.119000281550576403e-01
1.232274298888584585e-02 3.518873716846397659e-02 4.558556391163622323e-01
4.879808614634438546e-02 3.175843989683822810e-02 4.661424135323673501e-01
6.189473756424261619e-02 2.870053883773592950e-03 5.097754667160713238e-01
-2.743705830624885295e-02 -5.483957956270331391e-04 4.403639739804881548e-01
5.538218827623837826e-02 -4.905952323355520193e-03 4.658448999980335237e-01
6.661220915271695575e-02 1.022153724033640632e-02 5.080702087823623092e-01
6.816855978739283506e-02 5.855807081324607144e-02 5.059494362014088642e-01
7.485279715878265239e-02 2.362813491083950307e-02 5.062961241897978582e-01
6.965091291500979942e-02 1.386500093098557568e-02 4.839753859703193051e-01
7.217492723551811873e-02 2.736072496900458784e-02 5.202798983038167124e-01
2.352344330179705068e-02 4.141951601303327929e-03 4.466336654182337385e-01
-1.836323235018359756e-02 4.215483468872904121e-02 4.594580027580454917e-01
6.863059030983953424e-02 1.888121593568457823e-02 4.777926571646090026e-01
2.388680426425450476e-02 3.269870830900806213e-02 4.574251357286930331e-01
-3.162224109890519885e-02 1.805410980038230605e-03 4.418244498256276298e-01
-5.569721181654382208e-03 4.612787046353333809e-02 4.583671792055880601e-01
5.745863649403493839e-02 1.154200224668795911e-02 4.653164505403618034e-01
6.613514986780368032e-02 2.080553459231660601e-02 5.262513626556432067e-01
6.989548543193645214e-02 6.290914111128860509e-02 4.896087519548582012e-01
6.772257707488470169e-02 5.756322232941089162e-02 4.824466321319214601e-01
5.835210839037032610e-02 -4.952212013842611626e-04 4.683628542903830461e-01
6.352044983465185424e-02 -3.204272059090984906e-03 5.018688847582751800e-01
8.068535217818825767e-02 4.836098432970059591e-02 5.042856317273324285e-01
-2.488789018183236099e-03 1.496341135483996755e-02 4.462233426614370946e-01
6.045531610116455790e-02 1.495351312299594664e-02 4.679631253582363648e-01
7.416101503429510522e-02 2.231645434542876491e-02 5.076701864746621107e-01
2.227865438160264722e-02 5.153477681613742069e-03 4.468037145240237873e-01
7.775189739453168547e-02 5.305109855577622852e-02 4.848214615492001944e-01
6.563418298441482668e-02 4.487833369500661418e-02 4.781962179035947336e-01
5.609462476056971403e-02 2.653852788879218494e-02 4.681540653619704062e-01
-3.701590179121908974e-03 3.139363013210414582e-02 4.523025316286936603e-01
6.257622512463767613e-04 2.706523732532848878e-02 4.509344808764060297e-01
7.719600775143531379e-02 3.015246114386456455e-02 5.017922417453614115e-01
-1.230115471178464242e-03 2.617331329028520920e-02 4.504963097937932370e-01
6.653223085483149501e-02 8.715742291249183038e-03 5.050684228012628507e-01
-2.833954547818979923e-03 4.752978620566457313e-03 4.431853532040845312e-01
5.496854189986473405e-02 2.078494803132264687e-02 4.656812900415986389e-01
-3.550404334089924535e-02 3.190690894110029870e-03 4.434321389958853499e-01
7.908801387772670943e-02 4.494650062821423098e-02 5.060322813535808040e-01
7.717642564795570981e-02 3.200582708422804179e-02 5.050416405589451818e-01
-2.344073613490832431e-02 2.868330541356600011e-02 4.534970288603612509e-01
2.313583472632654153e-02 4.541749321072806322e-02 4.624794935191312573e-01
7.082962070894570361e-02 1.388649649376855720e-02 5.027649208341603559e-01
6.906498840155184116e-02 2.006713447824777508e-02 4.780981020929488401e-01
1.668543095650745420e-02 2.978056034479029113e-02 4.545278617218236339e-01
5.740196510454278339e-02 3.452002874402842689e-03 4.660637271191949704e-01
4.191797610408998231e-02 4.572597602938968664e-02 4.678536818082638660e-01
7.166243043206906027e-02 4.079748992139457797e-02 4.784985751909121565e-01
6.455304830676940331e-02 5.666579983870193016e-02 4.806370025041299399e-01
4.870204543850844940e-03 2.954310257156551878e-02 4.523547601341397217e-01
6.226694121235439028e-02 1.985222758580482139e-02 4.705896509083959955e-01
5.655635913128696790e-02 1.905293711035553617e-02 4.661349701035958915e-01
7.139886867004098525e-02 1.827130411533394588e-02 5.110153068071219273e-01
6.530810555776359050e-02 4.020308232924878905e-02 5.209090753800421636e-01
-1.919587833012896538e-02 2.737263208991709551e-02 4.513815034862935782e-01
5.731102098935951517e-02 2.683934068500000783e-02 4.688667302800773595e-01
8.426231658847885275e-02 4.581110733953796393e-02 5.001720079506001282e-01
8.017944674616514500e-02 4.100518907222633347e-02 4.861528120293894806e-01
2.444271272545076382e-02 4.352717176689991502e-02 4.620856626818874435e-01
1.071622358085954491e-02 1.779099350732877768e-02 4.492860500278389457e-01
-1.331465870878507755e-02 1.402715377417996720e-03 4.411315486349819959e-01
5.744594084365301639e-03 4.886623461383849537e-02 4.610617309383392426e-01
5.948993778471502875e-02 -9.316782723087719056e-04 5.142441386305272033e-01
6.874539964470019471e-02 4.988903779230835500e-02 4.802317260665351362e-01
4.418071539831987943e-02 2.720906158371289713e-02 4.621938249822992173e-01
7.019106483618910153e-02 2.015347292972506990e-02 4.799365499653286404e-01
7.039960283189564128e-02 6.195884569190530933e-02 4.883751748192001751e-01
6.261697610143310277e-02 4.839776440647380190e-03 5.107988984706284263e-01
1.395893084079291233e-02 -1.246903442691622670e-03 4.427482911966829637e-01
4.217863370265940992e-02 3.327932694740646114e-03 4.542235198027917975e-01
7.184009005831412664e-02 3.853690712004172181e-02 5.198676185104833536e-01
2.940522488087864844e-02 3.962730520490213848e-02 4.620431709027615352e-01
-4.153575431383501465e-04 3.678476378207218983e-02 4.544309679131519619e-01
5.915454710052229365e-03 1.562215483912584094e-02 4.477505420556565086e-01
5.836777928643037405e-02 5.854351629216701658e-02 4.795571844747863466e-01
4.642183034525216440e-02 3.474698488420719690e-03 4.567868136940050339e-01
7.131119763345981910e-02 3.856998817202009905e-02 4.776409371244764168e-01
5.585333857831471099e-02 3.625552794452160943e-02 4.701683978913677731e-01
6.446359357352973718e-02 7.699314516521563005e-03 4.753890272918365190e-01
4.321748487231504010e-02 1.037612092144059653e-02 4.564053526334190813e-01
2.242675899536287348e-02 4.621002173940760155e-02 4.626023011738962798e-01
6.799051337185986477e-02 1.934396151991384788e-02 5.215589166421542577e-01
6.731881098934607011e-02 3.554588705275787963e-02 4.752037971550115425e-01
8.603246436646755368e-02 5.393369599162661787e-02 4.954578701460678469e-01
5.020839102983483404e-02 -3.333682709071431917e-03 5.267061587071985018e-01
1.910925108362123565e-02 5.657428777732887576e-02 4.696844887831436166e-01
-1.565508789599230968e-02 3.382156810468835151e-02 4.532405226410112231e-01
1.452300608207649987e-02 4.400967494351414044e-02 4.598092724625368888e-01
2.415567359766286268e-02 5.717305300554760550e-03 4.474947402212381409e-01
-2.413383810501708304e-02 1.960003292000381606e-02 4.501640132932724914e-01
6.265052964718867412e-02 3.275425651418303191e-02 5.310268849359806032e-01
4.531904085182873743e-02 4.561232119690190878e-02 4.688180013741542473e-01
-4.782678084249017761e-04 4.974144274065251531e-02 4.660892342684596068e-01
2.828930058305762635e-02 5.904271230491039274e-02 4.751807323240230807e-01
3.035873812562341414e-02 2.393971623392706846e-02 4.559605945806077254e-01
7.281216748596830435e-02 5.673956211507301395e-02 5.080587801191183139e-01
3.569898800212417678e-02 7.591966764452151226e-03 4.520562006567398483e-01
1.118890884771688021e-02 1.162043239034646000e-02 4.472380383926723435e-01
6.138645571854494526e-02 5.093833827839398462e-03 5.144088657058293323e-01
5.053014948202404211e-02 1.697799242773152112e-02 4.619121922063717522e-01
5.762739843672023271e-02 3.242315661472310040e-02 4.701688663530697032e-01
-4.613026173737123925e-02 -1.081897517595470457e-03 4.443437887590832580e-01
6.393902086023850462e-02 9.584038024700624811e-03 5.145270440803776379e-01
4.439522675252952078e-02 -8.133918345283458473e-04 4.549693421319503939e-01
2.733618830488225224e-02 1.522056804509912611e-02 4.520220408077741392e-01
7.496876802501241388e-02 4.034384362724456607e-02 5.149210583360900317e-01
8.813537680915198291e-02 4.888469298865224383e-02 4.976147472813671202e-01
-1.704417685471896343e-02 2.758241127848791094e-02 4.507258652370479401e-01
4.287104858515904116e-02 4.053294646246268645e-02 4.665803558272860196e-01
2.722414547789882289e-02 4.830628120772598177e-02 4.646485414604000774e-01
6.735443781077242453e-02 5.970592379140877981e-02 5.030568235586021508e-01
3.134380227916486877e-02 2.999846230627655017e-03 4.486277902487345592e-01
8.333758704379534699e-02 4.059205270685641714e-02 4.924192606853584619e-01
7.589200836597946587e-02 5.530020058307821840e-02 5.085357108939868587e-01
-6.751500288846241753e-03 1.681339775994325492e-02 4.465443446240002778e-01
3.234556393124217444e-02 2.114867017521263048e-02 4.556882653965467211e-01
7.324102383174223296e-02 2.097782796583042703e-02 4.862448726868960347e-01
3.788614169697929884e-02 5.636538017837811054e-02 4.712124330967877306e-01
6.382786331531931090e-02 1.445302585272468382e-03 5.030723618997237079e-01
6.914166069784412338e-02 2.301565716861827052e-02 5.231773291961635541e-01
2.449615528534454176e-02 5.875967427667572879e-02 4.714652862396878086e-01
6.072101985313672207e-02 1.379888406160611689e-02 5.279899392468395680e-01
7.074408060196965553e-02 3.584784646732539631e-02 5.223411277120691976e-01
6.760569999782563289e-02 6.176660482999107166e-02 4.877731099351292898e-01
7.374304787588051302e-02 2.530294672274420453e-02 5.147739179843558999e-01
7.294789888487324125e-02 4.859782222621031322e-02 5.146980777403727947e-01
8.910680875211631283e-03 3.320394771262775296e-02 4.544506909375278236e-01
2.238014987845200754e-02 5.006669193791438849e-02 4.642116218748788548e-01
7.926696775282382479e-02 3.294179048829053852e-02 4.927377767238814155e-01
6.428816304511293309e-03 4.993015358080357680e-02 4.620062165687424671e-01
7.001544733800309228e-02 2.549741995875757714e-02 4.778423807415671520e-01
1.458165295442991061e-02 5.495524081112056897e-02 4.684249228094835571e-01
4.802847536591536154e-02 -3.988068468123395945e-03 5.284487536501121241e-01
-2.260618385131886454e-02 1.063708079055647113e-02 4.456938087301077767e-01
6.557711316212412600e-02 5.031776000128855217e-03 5.012782342934012370e-01
5.438244332935649600e-02 1.962978967761749502e-02 4.649328213913018759e-01
4.048783555348312718e-02 5.456973651242510992e-02 4.705198580148428622e-01
6.782596221024581040e-02 6.271384399951496214e-02 4.904106309104998007e-01
7.585913517491940650e-02 4.244222365893676741e-02 5.125784336220515769e-01
-1.147185183847237999e-02 3.228755366735455712e-02 4.523947027940767862e-01
2.240386087206071991e-02 2.405741943606814343e-02 4.538705446364999507e-01
8.101937979921933208e-02 4.358754576372841916e-02 5.020672479600778448e-01
-4.801930474058244309e-03 6.381814244365562917e-03 4.435478838363052234e-01
6.990298002437971003e-02 1.549777858728402895e-02 5.099995078852531671e-01
6.509882997635323132e-02 -2.386093757558103642e-03 4.955191716974775562e-01
7.457724625177510058e-02 6.483768781836250772e-02 4.952482092369433486e-01
4.017981135243219731e-02 5.076382746840925331e-02 4.690830474167760888e-01
7.733034839600591570e-02 2.787756775612396445e-02 4.913340891167435887e-01
1.230599444003600308e-02 3.529002678765532502e-02 4.558988778793339747e-01
5.431995047310712865e-02 7.027009579935016969e-04 4.622709620684924969e-01
4.959885713184337269e-02 2.040971339116110644e-02 4.625700792698332897e-01
-1.437548840785813145e-02 5.885715858147926548e-03 4.428076205903828666e-01
-4.005273249892948514e-03 1.632757899554815317e-02 4.464490121856571347e-01
7.911155193370555949e-02 3.469246719390602085e-02 4.855755523512332861e-01
3.916325032260260797e-02 3.461292700394613675e-02 4.631124898797029377e-01
8.182634095229525395e-02 4.921527997931340881e-02 5.028209268132333154e-01
-4.475302383457847866e-02 -1.374922490933381397e-03 4.416366528231546185e-01
6.487315364932291772e-02 5.065188244491892859e-03 4.779391215737668897e-01
6.177825866776143898e-02 8.824743952874752537e-03 5.188230482090260276e-01
4.405224243404376461e-02 1.884087344217970101e-03 4.549739605243526830e-01
6.054536357178538081e-02 5.831891178156474453e-03 4.698606724460074324e-01
-1.826550006927012484e-02 2.085908754871244192e-02 4.490681345542329450e-01
2.014020006250483164e-02 1.321331823657660547e-02 4.495829621902008300e-01
5.900629146224661142e-02 -3.058868755171645880e-03 4.702167333105277125e-01
3.275032720569589356e-02 5.181077180454422143e-02 4.672384032259289111e-01
7.323786457459158239e-02 2.704237074502743865e-02 4.814949633738798696e-01
5.658647267818855270e-02 1.367058415646728656e-02 4.647621561534528989e-01
5.162797146210107435e-02 3.714078014222878948e-02 4.690350852563900941e-01
4.075828392745821198e-03 2.272341514510932761e-02 4.498308596850086327e-01
7.523845097406993421e-02 6.045843628639498840e-02 4.888727878557640460e-01
8.526257288018619651e-02 4.307406383742252293e-02 4.943627554397532209e-01
7.136049966578640602e-02 3.745037757124902028e-02 5.210515209206036946e-01
3.026062809891255645e-02 3.807658811470142346e-02 4.615491173883842779e-01
5.116590621509532061e-02 -2.600402511155613418e-03 5.255763048524643155e-01
-7.858934786050071966e-03 4.512554672168690717e-02 4.574421180076121973e-01
7.271009223033693403e-02 1.829101918927035497e-02 5.050615727704412805e-01
7.238312320208678541e-02 1.555270644816725625e-02 4.922539360294370114e-01
4.190069276371917451e-02 5.465806617222385838e-02 4.709132308561771452e-01
7.267301222460205434e-02 6.290463375502285126e-02 5.003272140891050768e-01
6.862044009606768635e-02 9.300902439388988516e-03 4.977578565442876690e-01
3.884645954193223505e-02 4.633846316495231904e-02 4.671326016602408981e-01
6.348580542910699231e-02 5.450252835367319637e-02 4.790658543102924161e-01
-8.685632602157388610e-04 4.875296033285640707e-02 4.608647607633147292e-01
3.864873856563359744e-02 4.317341965848658231e-02 4.659275356419871894e-01
8.157122270416487103e-03 1.810083970919203547e-02 4.489534807575461528e-01
8.336384364836839367e-02 4.683142711296996857e-02 5.005806338777762932e-01
5.596930187132890741e-03 6.052215033019852156e-03 4.444922318840270337e-01
7.402040187733101295e-02 2.164537715583257638e-02 5.069478665599317369e-01
2.306575296002431885e-02 4.712407864580925136e-03 4.467777666375637446e-01
3.223439377695803965e-02 2.269511672976301520e-02 4.561658598493629757e-01
-1.127635975426891438e-02 4.844941984914270111e-03 4.425683216676639109e-01
-5.019708958495590519e-04 4.081802545055240178e-02 4.558192958886705948e-01
1.017237617501221339e-02 3.923803048071330263e-02 4.570922834027311699e-01
-3.005465421119810597e-03 1.063331610404532127e-02 4.449111519372678791e-01
2.996460263290494364e-02 3.972878618819895152e-02 4.622185826512030249e-01
4.066775374586527325e-02 7.798330720838835689e-03 4.545098970617429401e-01
7.621922838565803326e-02 2.554674315408333313e-02 4.980322780447973274e-01
7.760612307186268155e-02 3.388997108529213931e-02 4.837695747308852767e-01
1.069099955625996135e-02 3.247138438251100101e-02 4.544443606409909742e-01
1.983510735367623179e-02 4.045377460988423129e-02 4.598277088362041631e-01
2.543493814589549776e-02 2.074189115256743540e-03 4.461611460885079872e-01
2.648836659105423957e-02 3.395422020513673596e-03 4.470380974333882929e-01
-9.727634551670541474e-03 1.468690504345056443e-02 4.457721672462428564e-01
7.270653627419416953e-02 1.991080230769064208e-02 4.861324627084636085e-01
6.331699467332699283e-02 5.266384027968186443e-02 4.781477180634307045e-01
5.940049390798943924e-02 4.597602841206417656e-02 4.744564949675856846e-01
8.006428646555302509e-02 3.586510667364599392e-02 4.894990057054395827e-01
2.720272722169022467e-02 5.901040067044607124e-02 4.745167635560290642e-01
1.828037737539947929e-02 3.981675219859679565e-02 4.592244013139180625e-01
1.009188394660710201e-03 1.316774145760967255e-02 4.461687305724665320e-01
7.405985188124655783e-02 5.466829895313582433e-02 4.832319470147989904e-01
3.303818017670560880e-02 4.932771012811618810e-03 4.501043839038121885e-01
7.801859782053502390e-02 2.999017243800549543e-02 4.897873716735933192e-01
8.151285877874944741e-02 4.368739869041907836e-02 5.005681750001103048e-01
6.188846021198200764e-02 3.172148473083018227e-02 4.720075496408763782e-01
7.140801824543627219e-02 4.321831468068383642e-02 4.794521230165480485e-01
6.441686038326108199e-02 -1.756550419699212835e-04 5.002642205400230635e-01
-1.556932014731308121e-02 8.058220916064343792e-03 4.435266646772559329e-01
6.497840499429556604e-02 3.166179966184081394e-03 4.999967605606135401e-01
-1.654623791400640018e-02 3.870052726722438691e-02 4.550025502630264951e-01
7.804037138307129418e-02 4.163579132053197435e-02 5.076131887720769509e-01
7.178326097819581753e-02 1.830008296351113770e-02 4.855811005327395624e-01
4.954994726013060152e-02 -9.618769958280586063e-03 5.294700019991407380e-01
4.667879647988105313e-02 4.775500201909852784e-03 4.571257810885900330e-01
7.193320543715367443e-02 1.459577195586374797e-02 4.957444879688370776e-01
7.512423947971394456e-02 2.598815004806884904e-02 5.099125875128519558e-01
7.838786347724444048e-02 5.812402172310524723e-02 5.034800450492992185e-01
6.682136747126260490e-02 6.002136269154044468e-03 4.835112316307993985e-01
7.659930287669095006e-02 5.442780378121692131e-02 4.849204947838441360e-01
-1.218106909347823480e-02 -3.405931063629567823e-05 4.403184488687216236e-01
5.478849184132482397e-02 -1.012804491891032208e-03 4.636031030292265820e-01
7.765528930389335727e-02 4.513970049921169070e-02 5.080699273046977993e-01
5.032645924138327148e-02 -9.953803767229950361e-03 5.287669513316545222e-01
8.044581907194683912e-02 4.043890286470817191e-02 5.010814864940149604e-01
6.039865198021690529e-02 4.692012904723643837e-03 5.165424865630384721e-01
6.776899784689084660e-02 8.800652856319991432e-03 4.837700595573997120e-01
6.875043820063295175e-02 5.062571992077433830e-02 5.150784249805668846e-01
-3.366355337414340954e-02 1.713599006384373610e-04 4.409113225308373130e-01
-2.019007087782330630e-03 -8.123825848567144386e-04 4.411598310967428938e-01
9.631279164415836383e-03 1.294436681437955913e-03 4.431375246708904592e-01
7.403886572451207071e-02 2.172476589116708462e-02 4.877123121461728883e-01
5.417116700211686148e-02 -7.610607578545678514e-03 5.243441990516738427e-01
4.501346215713132592e-02 1.038308868956947309e-02 4.572772622099955386e-01
3.657946674236672163e-02 3.171567677692818665e-02 4.610233967026783897e-01
2.454820851932102560e-02 4.649539423859118392e-02 4.632328765296879203e-01
-2.587018839455619210e-02 1.384760844575581851e-02 4.485598549284260939e-01
4.301259687010397514e-02 2.064578578712147547e-02 4.595327525218906861e-01
1.924723485114042745e-02 9.096373733797475519e-03 4.478375788548986103e-01
2.107390037762373741e-03 3.784702965938004093e-02 4.551200061143290676e-01
1.321023525909938851e-02 5.157525190222999462e-02 4.637344573538884074e-01
6.456221461959056607e-02 5.197493236199496325e-02 4.785725206175961421e-01
2.809954952114521870e-02 1.505936061319744154e-02 4.522043666687075025e-01
-4.419252602347576581e-02 -7.862917975071932568e-04 4.419170746416367090e-01
1.431561329657995638e-02 8.975141418693190209e-03 4.467876030003827270e-01
8.034099731580171544e-02 3.623764148267966112e-02 4.905733684368654979e-01
1.540875902864674574e-02 4.316251592064740406e-02 4.597472527837122014e-01
3.322735385956245707e-02 1.933447655082320277e-02 4.553445225633492299e-01
7.396535969024904678e-02 6.389240352433335490e-02 4.936875668229668279e-01
6.924762539508845516e-02 1.694474837006726756e-02 5.144779268287104079e-01
4.112117875737839046e-02 3.025461047032351400e-02 4.622392655935963490e-01
7.080001910757696693e-02 1.952563445748165330e-02 5.150864891786692823e-01
5.813127232713991704e-02 2.499481645518274175e-02 4.691197723847995715e-01
5.765048761902961949e-02 2.444255712982118869e-02 4.687564121298378739e-01
3.832845777588046038e-02 2.067326960664817720e-02 4.575791040416399280e-01
-1.348970932913217888e-02 8.626158357888404765e-03 4.437909076776658246e-01
5.083581759977305603e-02 1.625193591410415209e-02 4.618322063893356422e-01
5.278474649319715717e-02 3.950836416892271330e-02 4.700087876234202988e-01
7.478417731911780886e-02 6.068260796967307746e-02 5.020306074753133618e-01
6.611099629171432457e-02 2.993690980498320275e-02 4.746542410808359813e-01
9.035619313928090063e-04 4.986598852873053156e-02 4.650376543114398964e-01
5.865237000061871570e-02 -2.801857732829541887e-03 5.154826704623913791e-01
7.255833371869956083e-02 3.041019495417975754e-02 5.199315183853129296e-01
7.343018550303972991e-02 1.798427764792552563e-02 4.915404908401510564e-01
6.850254282612867895e-02 2.105917281215316517e-02 5.225309896150237554e-01
3.737540766465015374e-02 3.089072816186279324e-02 4.609746762812160781e-01
3.559101716928971676e-02 9.817463808943953721e-03 4.526409887049125391e-01
5.854251116702811897e-02 -5.429282435027271703e-03 4.704238754954280233e-01
5.207182512343019876e-02 4.237811454670947081e-02 4.703919862512592198e-01
6.799854833522508968e-02 2.975672437478884061e-02 5.287301929100405307e-01
7.584873087085468313e-02 3.102538136079337552e-02 5.115981235814570649e-01
5.408397215748785708e-02 6.044614295056668918e-02 4.809945992859232522e-01
7.208193892741950048e-02 2.174690771425022429e-02 4.823849198360268264e-01
-1.746045419517847086e-02 1.680986989298006995e-02 4.473094185273725487e-01
7.285530850020918714e-02 4.224560758126947452e-02 5.165779622400797910e-01
6.472477371120458067e-02 1.809718709572976161e-02 5.255081070876772564e-01
3.142104728530021457e-02 1.503459045247976071e-02 4.532225614584277085e-01
7.572840989775768417e-02 2.733436892214838321e-02 5.088429300534051958e-01
-2.231730983282121522e-02 1.672311227825600509e-03 4.411989563331715769e-01
7.408392436817468063e-02 2.688685173012983834e-02 5.156374348616585834e-01
5.873625694930771635e-02 6.003489030060958631e-02 4.807093277512837770e-01
7.081421768050832899e-02 1.831224620401274497e-02 5.128252909601761500e-01
7.704122621389782044e-02 3.382153880172676652e-02 4.832417986702075008e-01
-2.302127212704812263e-03 4.278356308859463525e-02 4.562386666785198663e-01
6.580463089183812009e-02 2.753843686188884449e-02 5.313047371547686692e-01
7.280575726009332060e-02 4.185885084561746794e-02 4.795834054598200336e-01
4.414382075074257950e-02 4.516183587667426530e-02 4.683242104780370174e-01
3.877727795032440833e-02 1.019875387473863707e-03 4.518528956321049006e-01
-1.575214607052563554e-02 6.109341833885860440e-04 4.409649379931220858e-01
3.752317484663267311e-02 5.642656850525264861e-02 4.711795195465747210e-01
4.682613505984756230e-02 1.648094727430970269e-02 4.600058907617587400e-01
4.534869372525676678e-02 5.458921052953833591e-02 4.717842708866930024e-01
7.310357547915324883e-02 3.053531241284600239e-02 4.801206028207004595e-01
9.126963968181724118e-03 6.410976767223070319e-03 4.450168743730063547e-01
4.343419977042727725e-02 -7.373438654790872085e-03 5.332485176736780907e-01
8.046557284611786931e-02 4.586790930773354535e-02 5.038915421195671041e-01
5.590732735310587065e-02 2.454345149504120679e-02 4.677447310930189506e-01
5.110981153408681449e-02 3.212628186145159714e-02 4.672564967117758816e-01
5.421955284377534545e-02 3.794554338625525519e-02 4.700793021547148842e-01
3.837692543858665234e-02 2.398484626395809213e-02 4.586495288801670234e-01
-4.030689345622108510e-02 2.265035790606985573e-03 4.420054401148254541e-01
7.830931415055465694e-02 3.067171871868614591e-02 4.895712500298685099e-01
6.544473655209638585e-02 1.143302760612236943e-02 5.140709569971978476e-01
2.057076965967256574e-02 9.113140228679685040e-03 4.481142388768578066e-01
1.313101563988680089e-02 3.514832731238500679e-02 4.559821402138310442e-01
-2.906275392959653536e-02 -5.378019121142383827e-04 4.404941497327448108e-01
6.697065401978839760e-02 6.079112931741493392e-02 4.859129666502789435e-01
2.692461828359529047e-02 3.224689694840763253e-03 4.470751541533216633e-01
3.076312690653314197e-02 4.635822311189974343e-03 4.490062116666971859e-01
-2.065186044655731648e-02 6.408167255871771023e-03 4.432303874627337437e-01
5.459218947088947949e-02 2.375394480395157798e-02 4.665285962072744375e-01
5.973557171171558350e-02 5.717877979178146233e-03 5.200918230174170764e-01
-1.024473321432200438e-03 7.870901511674473217e-03 4.443504283514636555e-01
7.877821276731286626e-02 4.698907887513175535e-02 5.065654565942437904e-01
-4.605334305867251656e-03 3.052189829377178337e-02 4.519740738975956962e-01
7.485789245897096766e-02 6.262899438520035111e-02 4.931104866823095012e-01
7.482399393855319880e-02 2.253734963565879115e-02 4.890896230601791683e-01
2.182768256015875027e-02 1.189390102411107784e-02 4.494745110519294262e-01
7.443135915692297710e-02 2.066553560476757506e-02 5.012617018167598859e-01
4.652081963264107639e-02 2.275687535894134386e-03 4.567473582854898462e-01
6.444409351947581743e-02 6.146973382306690666e-03 4.762053425629281800e-01
4.540613684791958843e-02 -8.727693776042622434e-03 5.324910707823040656e-01
6.488234893078009824e-02 1.351017785318028852e-02 5.193204253138835602e-01
6.642568554841361828e-02 3.689430851394808007e-03 4.947310489248261667e-01
6.566940724112094174e-02 1.984484929168583121e-04 4.950089543902885247e-01
2.443064711333573641e-03 4.664655757216444598e-02 4.589964445552729422e-01
6.325415865327612547e-03 4.311753502321497705e-02 4.578312644748142590e-01
4.363486411158291889e-02 1.211885379611220715e-03 4.545816935710146334e-01
6.391087765500137741e-02 -5.659827499700578746e-05 5.021038380926191591e-01
8.075983813245647680e-02 5.785585826976063356e-02 4.921654550692456387e-01
-2.389794508472780840e-02 1.962528356084227571e-02 4.500759141263991348e-01
7.636162135167545717e-02 2.672015958695637960e-02 4.883314990543741185e-01
4.767299704469721289e-02 1.140877093582640112e-03 4.574428497791739878e-01
4.418250541812118043e-02 4.506685430406480453e-02 4.683001490694279068e-01
6.154463149022256115e-03 4.509502068149469356e-02 4.585560085028377864e-01
7.513417518840179166e-02 6.116195668808852015e-02 5.015278596442058756e-01
2.542296662861229239e-02 5.891848032591791295e-02 4.732203712110694682e-01
6.882603244908658269e-02 3.298233412661952246e-02 4.761152307849974008e-01
7.872274789921288041e-02 4.064159785405158098e-02 5.059038008438624390e-01
5.325116005291248567e-02 2.255122538803077184e-02 4.650644231086020208e-01
8.393743967160499642e-02 4.830014700095798530e-02 5.003051793636067446e-01
-1.542380747388012903e-03 3.425508019538398008e-02 4.534306178018789879e-01
-1.633704854629362824e-02 2.687900807079031743e-02 4.504883889067348712e-01
6.246267972995859022e-03 1.370160933626501584e-02 4.471288514880951137e-01
6.293956485729258754e-02 1.468067582390116324e-02 5.249536659359408386e-01
7.017563947301164173e-02 1.165821614876345197e-02 4.980897483352171862e-01
6.658528975518986093e-02 5.780693770264571686e-03 4.991143214217174107e-01
6.991889300804705887e-02 5.457162678059892386e-02 4.816067691398630002e-01
2.457975755287906700e-03 1.783188229962718099e-02 4.479330679277787608e-01
6.338954645288079337e-02 8.549342467778983656e-03 5.141781095773844124e-01
6.997128203603757146e-02 5.634997383935198834e-02 4.824744047832806859e-01
4.066663736465251505e-02 5.295119876202877829e-02 4.700017743685791505e-01
4.546607040543257372e-02 5.468799971221716127e-02 4.718570849316547355e-01
2.059228289334979686e-02 5.610890913926583345e-02 4.688164002589639834e-01
3.743874778706271673e-03 4.240508847344330590e-02 4.570674539232022493e-01
1.600394450813315272e-02 4.369914584664019719e-02 4.600684085891781905e-01
7.910611063720557334e-02 5.852787912346409105e-02 4.894099824495184992e-01
6.758411881436425517e-02 1.353849507406469817e-02 4.781517133604449854e-01
6.927146381989078561e-02 6.194750406462135039e-02 4.882223909745259105e-01
2.828020662417330897e-02 5.747810422077861969e-02 4.701018938832603467e-01
8.164813847521817936e-02 5.532762120290131425e-02 4.999312034100118485e-01
5.711990557681793229e-02 1.527811063440052963e-02 4.652586736252227739e-01
7.746209557596224482e-02 2.879628006680858693e-02 4.897808510374227486e-01
3.075572811900696701e-02 1.519148096763680515e-03 4.477718364268898354e-01
-1.238127994507295243e-02 4.170435473233276291e-02 4.555170093877889959e-01
4.504453139850081445e-02 4.878026823475777041e-02 4.696682697532797990e-01
1.840254077707005696e-03 4.932014315205790478e-02 4.613672318388974403e-01
3.462879087567351938e-02 5.831690166013843435e-02 4.725036426788706279e-01
3.424225722326838806e-02 4.617813679065120580e-02 4.657640858824454999e-01
-3.588768309069667595e-02 3.512708958352585460e-03 4.446548383305576890e-01
3.919949566199923408e-02 5.816521130672891449e-02 4.793953737108038182e-01
6.539629504956308292e-02 1.300523934413962829e-02 5.170730266898920791e-01
6.564277516903373189e-02 2.731439973101527224e-02 4.739400632317367079e-01
2.569270532024882283e-03 4.025859470999904044e-02 4.560300161255642082e-01
8.110999296532414582e-02 4.912303206879850559e-02 4.861650700069718445e-01
8.030391780659516809e-02 5.855037143297903840e-02 4.976948079392533586e-01
-2.461085966036723888e-02 3.256445822174147513e-03 4.419860668778384793e-01
-2.151547361927489549e-02 1.466888515813002426e-02 4.475769722634785341e-01
6.626556946172929008e-02 1.991789282084244911e-02 5.251123081827008265e-01
7.990438148125562912e-02 3.595120762072710058e-02 4.964923851139939059e-01
6.881451228705340317e-02 4.390936245953494521e-02 4.789970426859836983e-01
7.307457655030419330e-02 3.159144648201621386e-02 5.191029463679918132e-01
8.060312974030099664e-02 4.646746664203737359e-02 5.038222182341726141e-01
4.626878356815860432e-02 6.751931961592435097e-04 4.564207497298017890e-01
2.941351169496618859e-02 4.021404383259503945e-02 4.622942454838356308e-01
6.495596293523209219e-02 6.189474670517440547e-02 4.876251718888542919e-01
7.201004291891738296e-02 5.557832475842535563e-02 4.828953285940102980e-01
-2.192615073682530405e-02 3.433716009643161989e-03 4.418753334693304446e-01
3.221514520485131011e-02 3.102147336043281980e-02 4.591170212036027043e-01
3.314939474322606619e-03 4.515913264836089736e-02 4.581269748125269548e-01
1.535814696487254431e-02 4.212470978791105908e-02 4.593564790674184439e-01
4.248998158063831132e-02 1.408903825277688267e-02 4.571022961221646863e-01
-9.485860667799099477e-03 2.710009448461027717e-02 4.506600693182734041e-01
6.724752699419959956e-02 1.071641667745469075e-02 5.071142447772830630e-01
5.759393388309055895e-02 6.059390534462900935e-02 4.812466484062084549e-01
-3.224177037043637201e-02 4.612494219901421694e-03 4.434109162063434306e-01
5.256532987388895517e-02 3.664723656182818090e-02 4.692074401885087953e-01
6.612101599594737145e-02 4.373054734595682377e-04 4.895838351335672911e-01
5.153917128322116348e-02 2.093033388231768308e-02 4.636369069924787811e-01
-1.687881939639679363e-02 2.503475893182748394e-02 4.499239672237900223e-01
8.140378059465536165e-02 5.298127602241209377e-02 5.033746221713537583e-01
6.538370471330282041e-02 5.312035895685730119e-02 4.791697388915980294e-01
3.731236574536465206e-02 9.973598998323843917e-03 4.533250890211177886e-01
5.545932204154196965e-02 -4.847472267301988942e-03 4.659303292355743698e-01
5.207132903870695384e-02 -1.258113010188404053e-02 5.277973744903831088e-01
5.556623550038482240e-02 4.042106219326078304e-02 4.711352265033029174e-01
2.697492972224546301e-02 3.049980433398191346e-02 4.573246621498850417e-01
7.196586315468105066e-02 3.169778073140420982e-02 5.214684398675425436e-01
2.579572122095733638e-02 3.074718118734805564e-02 4.570980085823767025e-01
-1.907209828557610357e-02 7.105417168423248594e-03 4.434706290886405999e-01
-7.999351232501647306e-04 2.337700763368151177e-02 4.493738140964640415e-01
4.348522768140911793e-02 -2.721867756173359382e-03 4.541298707692517644e-01
7.048211094687843736e-02 1.538005304077394789e-02 4.849299473966476315e-01
5.960224842718471472e-03 4.234916724472577443e-02 4.574474737180624917e-01
4.110491302491994098e-02 4.695348194174808754e-02 4.679758292103294859e-01
7.767630125121262330e-02 4.766137153687061839e-02 5.078275186500039728e-01
6.108186367292692265e-02 9.531333716522632366e-03 5.223375697932104433e-01
5.317361762268320302e-02 3.531911702635408962e-02 4.690602400564938268e-01
6.906968261687100596e-02 9.370901362460569428e-03 4.918978149522528764e-01
-1.907705524067001418e-02 3.851854294974925430e-02 4.555708632547459946e-01
6.225669587100454011e-02 1.298773802924250292e-02 5.242841684149809334e-01
3.411479139869924571e-02 1.731818059356534170e-02 4.548389398102464787e-01
7.327532087610598432e-02 6.117784053265534067e-02 5.018253648042033666e-01
8.089243641330476353e-02 5.641416329342084646e-02 5.004839250347747903e-01
-2.726010417632628371e-02 4.316250407629448199e-03 4.426973386823701562e-01
8.113987691531523994e-02 5.718445680400653652e-02 4.896606140540727403e-01
7.109048649091578853e-02 1.532914593556696306e-02 5.060856163746271230e-01
2.588422447431685050e-02 2.358997742499393396e-02 4.546722435751949232e-01
7.830900919447907060e-02 4.242302407947750459e-02 4.837569344055953069e-01
5.101618566173223707e-02 5.650518981475723818e-02 4.752209937336022150e-01
6.885131279678555205e-02 4.487690844229039883e-02 4.797368693069264389e-01
2.773723264256434257e-02 1.934005319770041968e-03 4.468247645790537348e-01
-7.960802424178193767e-03 6.750601756192573140e-03 4.433432687530026728e-01
6.604909531913798204e-02 2.031314240208474675e-02 4.739800624399593265e-01
