7.561670567313015512e-02 2.624988729744349644e-02 4.904250836789244561e-01
8.208990751803947605e-02 4.058615118668919969e-02 4.916684060774096920e-01
7.155732416259305562e-02 1.906755856366856849e-02 4.865048786536409486e-01
6.294142442701688989e-02 1.298275312683771013e-02 5.223190591644059078e-01
-1.931462159883514870e-02 2.341141770268651001e-02 4.499735046849823172e-01
1.748984283587434047e-02 1.713178342768108611e-02 4.505597402755246450e-01
1.416049773209381024e-02 2.018347994977489832e-02 4.509737009301263977e-01
4.672622633286639682e-02 5.848040458085386473e-02 4.792957801615463920e-01
3.276179165747201277e-02 2.077772954206022829e-02 4.560393376090104423e-01
5.942883210273784689e-02 2.993050428876501204e-02 4.713354147853382470e-01
-2.013124179423275359e-02 8.777954939848278335e-03 4.444627813452317611e-01
6.960796660510447376e-02 1.267696198080419875e-02 4.885985726659610728e-01
2.358877856885815277e-02 5.915551964133235890e-02 4.734858232219747998e-01
4.791562161522191360e-02 1.711018165744979461e-02 4.611111793380611168e-01
2.525429270724370914e-02 3.833211537983777228e-02 4.609051284150298966e-01
7.801321908943020800e-02 5.833848999752855313e-02 4.896088338918253569e-01
3.292430530590853555e-02 3.503517466790153495e-02 4.614737552293139422e-01
-9.085497812828443112e-03 1.420778734945028071e-02 4.457348624376988866e-01
6.334460716493535426e-02 -6.042744699706523691e-04 5.029588037033120296e-01
5.504560564548442725e-02 5.414471430596563134e-02 4.756066889615228055e-01
3.269672590510405014e-02 4.411070265275704450e-02 4.651533845505075870e-01
-2.387999194553889690e-02 -4.903868339677115024e-04 4.405016170285886434e-01
6.850267064449458432e-02 4.009802456011699046e-02 4.774289533721746692e-01
8.076416714757048143e-02 4.308527844950213459e-02 4.987399733870759300e-01
7.212492890578886540e-02 1.643984575931988629e-02 4.921225430658116018e-01
7.731795792769988185e-02 3.585491329351112727e-02 5.069473588202225711e-01
5.984517255983085732e-02 4.912639293510111076e-03 4.698524518483819246e-01
6.580414623594144086e-02 2.476274243467594532e-02 5.293564599904062584e-01
3.493847097143575053e-02 -1.899578018258374704e-03 4.487309200988527369e-01
6.626682792555357859e-02 3.899121383273946619e-03 4.865798675476314394e-01
7.644813119225636611e-02 4.135533480312020282e-02 5.104197366295895044e-01
5.899522757748459911e-02 5.389968242680580335e-02 4.774708550352240177e-01
5.027953873764707399e-02 8.357988411886931035e-03 4.604059379760895299e-01
4.125038710863168645e-02 3.186651161369055685e-02 4.635068800943076273e-01
-2.080384828590059812e-02 2.931582373547949455e-02 4.528376947261977814e-01
8.664139283245973766e-02 5.049193803507814882e-02 4.945324533122844035e-01
1.908173399108911011e-02 4.364397488856260054e-02 4.613223862746673731e-01
7.415336200539693334e-02 5.029670106832306170e-02 5.128790661805343598e-01
7.188063533202941613e-02 4.433037513503033239e-02 5.170828871037560504e-01
-1.358879583834098244e-02 2.769605263310586513e-02 4.510360457259732780e-01
6.674283090995339340e-02 2.157406254726529707e-02 5.254231304474846764e-01
7.876362633886671571e-02 3.434980509028110612e-02 4.941588562268716123e-01
6.982504111928657109e-02 2.270194203261197141e-02 5.205581112640407238e-01
7.285577671009861589e-02 4.182694573830647577e-02 5.166160883474455456e-01
-9.321311680857606932e-04 -1.529097866717653688e-03 4.410866020196531623e-01
3.484998452617577014e-02 2.988328793214415149e-02 4.600772692179143641e-01
5.282193230984459122e-03 4.533753804111546881e-02 4.589490843700634870e-01
4.930893688391024821e-02 2.208537611755738081e-02 4.634213890789313783e-01
6.058394351559343721e-02 1.413304692770279113e-02 5.282621878301151375e-01
5.505889736223234382e-02 -4.712612074708074500e-03 5.223247887210659135e-01
6.468100945656722611e-02 1.506077479122082223e-02 5.212472443545121958e-01
4.874007250765847316e-02 1.563336749996774994e-02 4.609963399790512617e-01
7.696237587086632304e-02 4.943661430617175834e-02 4.850713171723508577e-01
-1.670188854334272305e-02 2.134681889617248002e-02 4.489100826262535371e-01
6.299224570897739295e-02 2.866781318824846402e-03 4.757124690838951397e-01
6.968377471623440900e-02 1.428339652293281019e-02 4.860431020686398762e-01
5.637889856262978672e-02 -3.513447946855588564e-03 4.673267092679513346e-01
3.468823637599247056e-04 4.908314674037266012e-02 4.614967261762027428e-01
6.350764012189277774e-02 1.039185794649656602e-02 5.161915009630789752e-01
4.026002088179119268e-03 2.286565788272883117e-03 4.430560580248169011e-01
7.357229764427949958e-02 5.616407087600255865e-02 4.848195966033822524e-01
8.881727700938958636e-03 3.157191741479282998e-02 4.540806147578649310e-01
6.098334899651277480e-02 1.558398265653678991e-02 5.290258964958283183e-01
7.544841040074322380e-02 5.662904080103469545e-02 5.080468358218293012e-01
6.377648153201741221e-02 3.283899655832024644e-02 5.306993397032566673e-01
1.637123910643981106e-02 8.102093265522272020e-03 4.469973254534639895e-01
2.401010878688819919e-02 2.531929385361909868e-02 4.550606743787041220e-01
-5.706114284013474175e-03 4.394582971491922674e-02 4.568179200456129463e-01
4.240308678903758483e-02 3.317425764587823150e-02 4.645632385101702289e-01
7.494725504775379132e-02 2.371870934878100509e-02 4.994957521774515685e-01
-3.525598539376526008e-02 4.581245720880630645e-03 4.471961118914671296e-01
3.984947815311331437e-02 3.541476037315036129e-02 4.643002025702441249e-01
5.606787980076322064e-02 -2.178339917005037932e-03 4.664384388316060170e-01
7.079347420832182713e-02 4.497238409876445908e-02 4.810687473902589550e-01
8.142396457600140081e-02 4.247180423608332145e-02 4.966137942643931713e-01
4.655265950952650056e-02 3.021632756995819291e-02 4.649963587405910870e-01
9.032205773850016800e-03 3.250404570697319750e-02 4.545229253462813035e-01
4.992021115908262113e-02 2.172756635451984775e-02 4.635891174772754364e-01
7.218638164674587299e-02 2.174973136720102437e-02 5.126129234717083927e-01
7.381023800337699337e-02 4.075726844279634054e-02 4.810924067046800090e-01
7.917070773251710936e-02 3.561203602018384040e-02 4.946605616376278380e-01
6.106981315384794190e-02 6.713061813395392041e-03 5.168792609889801826e-01
2.964758090395645113e-02 -3.712402926439617792e-03 4.456636823794637992e-01
3.067364212812491789e-02 5.345206636305663284e-02 4.680473163768729683e-01
-5.022649659615662995e-03 3.762697352184731642e-02 4.545420469787121442e-01
5.552929983350387427e-02 5.709254933262316797e-03 4.638634377165313238e-01
6.703734806368730204e-02 1.164331850162337971e-02 4.798908958506455380e-01
6.128364791053005078e-02 5.342100766781165272e-03 4.717957178486872349e-01
7.413996985684735697e-02 6.177761674006446158e-02 5.026703581518263686e-01
7.014571830818232268e-02 5.719711220463899459e-02 5.096123579824277661e-01
4.704844770765979206e-02 -8.856453977616769030e-03 5.313065321549677034e-01
2.472033135185854741e-02 5.227850186053543957e-02 4.663402476483491377e-01
6.932463895115595354e-02 1.784726603794587266e-02 4.808055341919758030e-01
7.373433154364819608e-02 4.206929171660128003e-02 4.814313650452398674e-01
7.803159235575803099e-02 5.142857714869472630e-02 4.862872575442838130e-01
6.452193293208116631e-02 3.008737059887024376e-02 5.334055333295729673e-01
7.337317697226049262e-02 6.331217617574093348e-02 4.939025302982997800e-01
3.432743116119425092e-02 1.068579430276357135e-02 4.526949008390583895e-01
1.012050700527225219e-03 4.827024285779401430e-02 4.607645840414579252e-01
8.193290974289314799e-02 4.033703062971328440e-02 4.913173155263875769e-01
2.363012587850207152e-03 5.014024358573116597e-02 4.644968516063467945e-01
4.420765747748135049e-02 3.852540839721185079e-02 4.672608237832572842e-01
6.463068264129130658e-02 -1.492116612375691534e-03 4.841632705047654861e-01
4.680729284939179335e-02 4.783458384632313654e-02 4.706645441904917515e-01
5.923046292459941548e-02 5.125057034241026384e-03 5.199992807157647334e-01
6.040825468618048200e-02 3.809764345360179896e-03 5.145137187711147364e-01
4.346666590635658856e-02 1.715868628855553302e-02 4.590439108525651291e-01
-4.309625083822316363e-03 -1.442440448698204588e-03 4.407464535467425781e-01
-5.872390210658686577e-03 2.313644367589361150e-02 4.492573564739778536e-01
4.634175142530613106e-02 8.396897396993018708e-03 4.579377460374471354e-01
7.115705404215234842e-02 1.463973735313458223e-02 4.935266924041967762e-01
6.898004490841527780e-02 1.586275662018300434e-02 4.818347535462846887e-01
1.396875537167988762e-02 3.970050620590253460e-02 4.585494666857118373e-01
6.810730732373031227e-02 1.252907712950878175e-02 5.071366763188348559e-01
1.987326498941709152e-02 1.803819348639026585e-02 4.513734104173230954e-01
-3.316175302294058040e-03 4.165962296496559386e-02 4.560872261531222494e-01
8.132763616710478316e-02 5.793477032965605594e-02 4.934636659894843791e-01
4.005390466585732889e-02 5.069566521124338476e-02 4.697249108068779488e-01
4.879621874259167102e-02 3.789375315505096736e-02 4.689545429982489022e-01
6.623332924010912059e-02 4.232081607092355070e-03 4.949042229795099779e-01
1.619513631835224968e-02 2.005520306575029818e-02 4.513374976326003374e-01
7.473897066345253082e-02 3.631508603874702978e-02 5.145348095907191777e-01
1.872756952991383103e-02 4.858719695911254549e-02 4.633717993870400398e-01
6.454172882079611817e-02 -2.685008498985167000e-03 4.966501307058575065e-01
4.168822383004153892e-02 3.493931054151031002e-02 4.649679649106536750e-01
6.910257111211630388e-02 2.129199049086540410e-02 5.207484720367516751e-01
7.103667080348172180e-02 1.861172372417466830e-02 4.854453611396614132e-01
4.407695130631970881e-02 5.444583549879384449e-02 4.721819368133248762e-01
2.954401340051124314e-02 1.824999946301778322e-02 4.540235503255748428e-01
6.301962132219124380e-02 4.301925080754380459e-02 4.766774930449829695e-01
4.438403528148849794e-03 1.707881830130520556e-02 4.481722346931290013e-01
6.581687963914244210e-02 2.000622392388081566e-02 5.254514269788257419e-01
-4.839226891196306279e-04 5.406817458483827686e-03 4.437660936850084115e-01
7.593806361600492771e-02 2.900255967672637006e-02 5.021177522707785945e-01
6.610401181487236821e-02 5.769903984656044732e-02 4.827846857566713279e-01
7.319772074841132681e-02 5.878504646427008817e-02 5.063473533332096821e-01
1.833945199500329123e-02 4.717153850766421519e-02 4.625056064224776775e-01
2.484859623004163562e-02 2.450203186044911004e-03 4.463509297725202218e-01
3.310225041903872706e-02 1.119076862907359381e-03 4.488685733384910059e-01
6.505901388705599697e-02 3.511201186399023205e-02 5.273790627203268633e-01
6.908581016839376865e-02 1.573738916517214773e-02 4.823085023277763339e-01
8.637287356620847872e-03 2.533951356917115219e-02 4.517282103277737715e-01
7.337944362973256029e-02 1.939735764632511197e-02 4.996758309952451516e-01
5.183257386619549711e-02 -8.259419196618846687e-03 5.267911617356443310e-01
-1.314574146217589723e-02 4.385719944324817376e-02 4.572761450695659313e-01
6.540903295769212589e-02 5.737668202483835189e-02 4.822934515478198847e-01
6.938625439378873216e-02 3.779729065419273892e-02 4.775483146547335744e-01
-2.862808254802624852e-03 1.036860881912477980e-02 4.449942325859236880e-01
4.812317579592480937e-02 -9.275458692434526697e-03 5.305962301785448476e-01
5.284106816924385996e-02 5.619499237880642289e-02 4.763828946335856851e-01
-4.314939014110032167e-02 8.503274341691148368e-04 4.418256432682775015e-01
5.824083159702662243e-02 1.546868130192544967e-02 4.668085589098819321e-01
5.581026605713683419e-02 5.688278057545866767e-02 4.781906234967284175e-01
5.771084557063033138e-02 3.372718963293482725e-02 4.711632817679516361e-01
6.980023453354242124e-02 2.328940433836720544e-02 5.212982217710030453e-01
-2.356005689138716830e-02 2.620239405514136061e-02 4.525583633550915863e-01
6.911947538523863233e-02 2.763099572118667482e-02 4.776158436849222144e-01
5.726317243098481141e-02 3.743557800653924544e-02 4.716370898264599099e-01
1.452380821463567645e-02 4.108085499490202186e-02 4.592068899357271139e-01
6.850424553950880402e-02 1.943826087607605085e-02 4.788296614464437329e-01
5.091889591876354315e-02 2.720285375082971691e-02 4.658864016083396065e-01
-5.397917659224014258e-04 3.433143344805548308e-02 4.538271176138917173e-01
7.052272487715330329e-02 2.171075565636058566e-02 4.814114597820984276e-01
2.382589771403012535e-02 4.024199935598345157e-02 4.613420053585220448e-01
6.451558092556117230e-02 -1.382183735134112591e-03 4.835484711687919046e-01
7.328746364096917765e-02 2.250626845256816291e-02 5.094669592175697925e-01
-1.293254988212241309e-02 2.741423499801829908e-02 4.509513124308280885e-01
5.460735743332152670e-02 6.074391003197213146e-02 4.805151963599354481e-01
6.641034152323659068e-02 4.673646984692772510e-02 4.805549558629530482e-01
2.057336406596661088e-02 5.330402105981954519e-02 4.660799773812296931e-01
3.161160524439654562e-02 1.066899603296714641e-02 4.516234889140980924e-01
-1.086619098482723492e-02 1.275547994602401446e-02 4.452453740295997942e-01
5.250225321975733259e-04 2.850140918154706049e-02 4.517198366317833336e-01
7.661627358149283862e-02 5.910651608237948995e-02 4.893134491465813141e-01
4.819647786761852015e-02 -1.386078253642390214e-02 5.316445461202855549e-01
-2.070256106822585679e-02 1.769243614945679999e-02 4.486650613177114444e-01
3.869950049949162640e-02 1.511083353937618667e-02 4.558270994937149712e-01
6.611961391741542904e-02 8.293212355792816542e-03 4.802006929493782272e-01
6.376339818720024033e-03 1.677878094014750507e-02 4.484117966775609254e-01
2.718613380973001689e-02 4.383465001785940771e-03 4.478464700587635461e-01
6.378828280884324409e-02 3.729416965973591635e-03 5.037615635846051099e-01
6.752653945958796144e-02 1.272450823631491451e-02 4.804600528790898273e-01
2.919106794216381334e-02 4.064906926273769566e-02 4.629127701358404234e-01
6.928663775434186489e-02 4.908023923293806240e-02 4.820836429421717639e-01
3.603620146996004692e-02 7.981768154456407929e-03 4.525534293420505616e-01
7.198229839342774536e-03 2.561112459600549049e-02 4.515834833984485042e-01
-2.206101408615428194e-02 1.207624736568195523e-02 4.463879856754179309e-01
3.954925985917745468e-02 3.298436024652057902e-02 4.632870781591613696e-01
5.424598604596224741e-03 1.607141935748476400e-02 4.480072126925092602e-01
-5.402005989482691617e-03 3.453238672087471234e-02 4.534857491134169916e-01
6.570377990144260494e-02 7.257133074120613106e-04 4.910211078254008710e-01
6.275171223189751624e-02 5.523126030766873501e-02 4.800866344627761073e-01
4.369213997937393401e-02 2.471799529813685503e-02 4.614884643908975237e-01
7.929640386450793887e-02 4.594518017627109707e-02 5.050699334059507439e-01
-3.523716267330425506e-02 1.980443239446630192e-03 4.420119365334359562e-01
5.616919867810140493e-02 3.201377500047682990e-03 4.650704444011362626e-01
6.374337267382358674e-02 5.702633241530915414e-03 5.075266463764264158e-01
5.767572411316373299e-02 3.100469518247670701e-03 4.671043885413746488e-01
4.919570978628664409e-02 3.232112742810745731e-02 4.671112647164902820e-01
-1.679805061063299743e-02 1.862027908073417282e-02 4.479293296025027571e-01
4.335634901595229046e-02 4.580108674373602196e-02 4.689987560246322573e-01
-1.275613351075863787e-02 2.431851019405174841e-02 4.497206346330421822e-01
4.886173837990946678e-02 1.303124791802228594e-02 4.603660502178452685e-01
6.362752067720825466e-02 3.353586271395930796e-02 5.299258202718809541e-01
3.483614099560665422e-02 1.259655456330714685e-02 4.534955927228276895e-01
7.340366689003079148e-02 2.459684133003478199e-02 5.125169294264737552e-01
4.656757349193436230e-02 2.804252565000817099e-02 4.640369726319213961e-01
7.796702196636423610e-02 3.847484136667664312e-02 5.062593164985602634e-01
3.317293704081774892e-03 2.551070821245084511e-02 4.509273732460400974e-01
1.018193122074708551e-02 5.134659639419527494e-03 4.447728897457784991e-01
7.902437859715294444e-02 5.935333340566691790e-02 4.994211011294568126e-01
7.656004796798394907e-02 3.056341184129861277e-02 4.862386542583837512e-01
-1.536341483841618255e-02 3.583034597182407910e-02 4.540739513923198745e-01
6.847223240799091282e-02 3.376474024932551304e-02 5.255674231964879706e-01
8.281530662269664944e-03 4.332987845216428741e-02 4.586376738022657773e-01
-1.917277069453230884e-02 1.026415738920874281e-02 4.450534514668275654e-01
7.955696204966725138e-02 3.688736773406049024e-02 4.946101288045205435e-01
-1.711453195897511687e-03 4.969069456674576890e-02 4.652031185267025970e-01
7.540440310136108104e-02 2.577250092396678877e-02 4.901774555521267729e-01
2.227181281347364455e-02 5.910690765108994604e-02 4.726809588674877882e-01
7.929113770295492802e-02 5.233315992698467367e-02 5.062537758870216953e-01
6.491723030573102668e-03 5.142645206108557160e-02 4.638547352585317696e-01
-3.562778503088164829e-03 2.830630696273907579e-02 4.514395592576680993e-01
6.758894551371373571e-02 1.456305282838676884e-02 5.132944300966413298e-01
2.215579627930570200e-02 4.594975207508700255e-02 4.629912140447411950e-01
7.466212247139551728e-02 2.719337664278454955e-02 5.112112128326081750e-01
1.971233338694231008e-02 5.531437602275077192e-02 4.673263457393491138e-01
6.937276908265394004e-02 1.234200466302815165e-02 5.015480775521657941e-01
7.326207201027470917e-02 4.312011798240034804e-02 5.157018924604079846e-01
-1.122012810989077292e-02 2.168714391689889956e-02 4.486125652574184386e-01
-2.310065554163252821e-02 5.355249229302853041e-03 4.429342426237523056e-01
9.429428013717868970e-03 4.818942137273724696e-02 4.612952261599087556e-01
7.742077241934941512e-02 6.029265194054011373e-02 5.013686786635453974e-01
7.745890829980538184e-02 3.334220793697085378e-02 4.855967479728548475e-01
-2.936786558247865726e-03 1.581124345908820408e-03 4.420506461690706379e-01
7.086923208892308146e-02 1.408962059730199320e-02 4.914498741014582950e-01
6.088062484940995334e-02 4.194076055560772009e-02 4.748382026388795474e-01
4.039670970376454950e-03 2.962770425127956436e-02 4.525516807021985888e-01
6.694240376486837452e-02 3.068208206473331881e-02 5.302089182757718788e-01
-1.010105976328914100e-02 6.639954231904382845e-03 4.432568935890754958e-01
3.919691180562893083e-03 4.529639285098002038e-02 4.587244010467944055e-01
5.528870652057486790e-02 3.275650576172906003e-02 4.699713479064150379e-01
7.401830925835090058e-02 3.969051165593164704e-02 4.810420814131220468e-01
6.392343623564705757e-02 1.437523400620678744e-02 5.219801637303114195e-01
-3.930172067238837334e-04 3.976456724651527413e-02 4.558423983713140726e-01
7.799258923566657065e-02 3.389741498985601731e-02 4.871545589128321030e-01
-5.332395191984364360e-03 4.788503892600001755e-02 4.602440347142841559e-01
3.086466149738941595e-02 2.080465589886537972e-02 4.554159852490051175e-01
4.593710070138619372e-02 2.723995929543702316e-02 4.634317265522640561e-01
4.162038263680703509e-02 3.047012482641967349e-02 4.630352176830583866e-01
8.398147633857859506e-02 4.220666122321310720e-02 4.919049857023414241e-01
6.387445441490283149e-02 5.960805942761860342e-03 5.075534586781004220e-01
5.998790584975435825e-02 2.932324848151695619e-03 4.704864716515650414e-01
1.513804640989506109e-02 1.394499661282367318e-02 4.489621845881532902e-01
3.208446746013625395e-02 5.896634571800809382e-02 4.731812906911868621e-01
7.481976310202330394e-02 2.564542217436930130e-02 4.871471737856733486e-01
-1.047836345966410287e-02 1.406243041959160701e-02 4.456836650970354974e-01
5.249575801224104499e-02 -3.354177412843036520e-03 5.246088227654492897e-01
-4.805536144325038908e-03 1.054950615562621000e-02 4.448168043755661438e-01
7.184399968866701791e-02 2.165217583198434867e-02 4.842613995361336743e-01
7.839476668562507522e-02 5.552187707000020428e-02 4.882996130295620962e-01
7.643643587493934022e-02 3.325352254467403568e-02 4.843430835004062240e-01
2.532422444014885074e-02 5.143689334117455131e-02 4.661191130705085728e-01
4.870216805632744672e-02 -7.718661027147297356e-03 5.291593495645043888e-01
2.705176649066350775e-02 1.205922248681717823e-02 4.510060493826423267e-01
4.473913963165786212e-02 4.060762097892497979e-02 4.680163356194425583e-01
-3.253424565778093025e-02 4.902018613032925812e-03 4.452251883864408732e-01
-3.304841297172585179e-02 2.549129598216156103e-03 4.423121840821911399e-01
-2.097195841728560425e-02 3.255999383446219614e-02 4.542352836466783672e-01
6.537913359251038004e-02 6.315359411237053688e-02 4.908180384861468015e-01
6.317963930197453837e-02 -1.745506035380556525e-03 5.029571829296908270e-01
6.409809807261497572e-02 3.608366992295651901e-03 5.024654393890973791e-01
5.864499203269985667e-02 2.432075331373951405e-02 4.699581493597293491e-01
-2.329484650759488379e-02 1.634987211898468462e-03 4.411849327733597947e-01
-3.450161448233723255e-02 3.917989395993561920e-03 4.447118215131549701e-01
1.206817730823489011e-02 1.545499908437013119e-02 4.489106231081360643e-01
7.090430962334147436e-02 2.921179097266335747e-02 5.226157424778611338e-01
-1.001446457542689780e-02 4.176051480927965576e-02 4.557183883045822226e-01
1.759466132608190209e-02 1.248730780703447398e-03 4.445055140571201324e-01
6.184789001815608339e-02 9.527736822730429114e-03 5.191076726766662430e-01
7.242002559561919184e-02 5.511596946353311544e-02 4.838176762999862324e-01
7.044482905091492553e-02 2.498243554498924546e-02 5.216302848943915604e-01
6.921079615103374605e-02 1.104410384810720208e-02 4.939277952995744236e-01
-1.783486719260815589e-02 4.024606323865060481e-02 4.571128054366246363e-01
7.984838988483970723e-02 5.019783746720520717e-02 5.053043032497518405e-01
-1.942075146361698507e-02 1.343925180348426451e-03 4.412786032647709744e-01
6.047020334431917749e-02 2.119991382480098871e-02 4.700425405235761356e-01
5.331007351483504908e-02 3.299989674698863146e-02 4.690911940011600612e-01
4.581659756313302689e-02 5.764607130713875899e-02 4.753054156732315905e-01
-1.709227094898847429e-02 3.263681762509216405e-02 4.531627779323173510e-01
7.038778485193571133e-02 2.561594377423778365e-02 4.797169047828632737e-01
-2.009744289575277759e-03 4.962960533134009450e-02 4.621181140328531334e-01
6.335044199143317900e-02 1.612229365976211581e-02 4.715770753342560795e-01
8.721606711733459472e-02 5.230789246771649220e-02 4.967444069913872218e-01
7.606338797413270125e-02 4.725373456233714076e-02 5.103228194297658726e-01
-2.926255170160386998e-02 1.889188601872754739e-03 4.417071511686292973e-01
-1.402171303556441415e-02 1.436560802730603090e-02 4.459535274469149657e-01
5.316073200630432039e-02 6.109226839983743218e-02 4.821517803734443608e-01
8.367097141487836454e-02 4.214196547709292417e-02 4.924344497814754362e-01
7.640068009197786836e-02 4.107667366073985277e-02 4.837232488319929691e-01
6.932090982024594061e-02 1.978611198555452547e-02 4.800930988098561225e-01
7.980272482570786863e-02 4.258308682583525351e-02 5.029819942812281397e-01
4.199197567587053398e-02 5.749845479340198046e-02 4.741392557949694053e-01
-1.619920222310100230e-02 1.047872805798420910e-02 4.446591645560424855e-01
6.414546718559048510e-02 -6.643958403178356308e-04 4.811956517175695058e-01
7.286208998660290148e-02 3.026896524411264860e-02 5.184568270624708708e-01
3.175612954823143347e-02 4.061226740865367564e-03 4.494477746844585120e-01
7.483975983399668297e-02 3.375609092748953904e-02 5.140390338151433758e-01
3.610226128152242697e-02 5.863042175908139003e-02 4.738817172568015601e-01
-1.603365852761767449e-02 2.320236740300069683e-02 4.494286568195496878e-01
7.761950336017083008e-02 6.054784956874698781e-02 5.000068177329520802e-01
4.652488835470507123e-02 4.039779899083278947e-02 4.686576618523325966e-01
-8.288826422076921163e-03 2.536065311302779582e-02 4.501212022236641408e-01
5.702838942088687968e-02 6.126283720812600309e-02 4.827914766240146704e-01
3.482401363436491565e-02 4.381688981606356170e-02 4.656324778354250515e-01
5.771627321359249635e-03 5.192641847126620164e-02 4.671077551183119847e-01
3.870252620718099557e-02 5.855630126323888539e-03 4.533182502305783679e-01
2.299808558635426173e-02 5.039748022789991393e-03 4.470562960437621247e-01
7.692638832669096427e-02 4.252317808585343029e-02 5.089839783928921113e-01
5.566740220765880459e-02 4.300274703613228555e-02 4.726046935903345791e-01
4.645051533378661418e-02 1.419315784918642222e-02 4.594044332880853898e-01
6.395983485466566476e-02 3.897107444028430259e-03 5.034850881869510353e-01
-7.833426887649874715e-03 1.961890341921533609e-02 4.477475521297688554e-01
8.252414016076996262e-02 4.165218892488822822e-02 4.936652663253445761e-01
1.827734594545520758e-02 4.336220230859753194e-02 4.610107489571873551e-01
7.251697301358409065e-02 3.046515631805554736e-02 5.192358441781552703e-01
7.768057646844879482e-02 6.088395315478374592e-02 4.948134181699538892e-01
7.119337063492700568e-02 6.296366808400526149e-02 4.904773890166649886e-01
3.774777229420660241e-02 4.168213180486975838e-02 4.658287562232496515e-01
5.931760066858184077e-02 3.271807372300234579e-02 4.716687650836188239e-01
1.013950694096797667e-02 4.141387836027885655e-02 4.583159152612196197e-01
7.017676044164353200e-02 5.159350501689935475e-02 5.151040955288276324e-01
1.166824101454600610e-02 1.339660854129537913e-02 4.481236406213084389e-01
8.113423405816798384e-02 5.743809859847345822e-02 4.955076631622464811e-01
3.112140081662558358e-02 5.934124416451065642e-02 4.767844862174978604e-01
5.986639085406178507e-02 2.339242860842965024e-02 4.704461723746535817e-01
6.180670173252889033e-02 9.757595151787319676e-03 4.711997134161236001e-01
7.861160144364519320e-02 5.173801144630830323e-02 5.070075315029582974e-01
7.188716059243868695e-02 1.573148799462987732e-02 5.001030759037226048e-01
1.669289227324550345e-02 4.721597319595174230e-02 4.621433683479487242e-01
8.125281730428302041e-02 5.798526482064845361e-02 4.929350713046109500e-01
-1.708101804395719542e-02 1.333345207964376986e-02 4.460485865748573531e-01
6.137926251067370165e-02 9.694298791058595863e-03 5.208862738405557469e-01
2.744719014873508653e-02 5.244370012454444008e-02 4.669440444335286045e-01
6.398663196381933205e-02 1.877568476790450122e-02 4.722640959122159088e-01
5.203534127358305783e-02 1.051395842788987664e-02 4.618334819044134232e-01
6.622567790882036287e-02 7.305661422581907587e-03 5.019582227240149130e-01
7.395089084775649524e-02 2.044119889311387869e-02 4.955957319987019383e-01
7.851211343223002403e-02 4.564866242947326902e-02 4.850055476276050048e-01
6.594036064242715656e-02 1.577521633755737951e-02 5.196750918858336066e-01
7.222916318419551895e-02 1.801439569344913047e-02 5.033537845630932095e-01
5.842558969461789792e-03 1.602356521698253267e-02 4.480645383178397112e-01
1.137703837182799452e-02 4.543849652877719747e-04 4.430593767891821688e-01
1.058184713894095436e-02 3.652920375974449269e-02 4.565056400088296495e-01
6.904273805748138704e-02 1.601471910033738788e-02 4.818678278259516112e-01
6.164749947049609491e-02 5.829469611949856384e-02 4.815051676715720874e-01
7.630849819340573825e-02 3.420770962689596156e-02 4.839670373222904609e-01
6.531881592039258388e-02 -1.398893068153711202e-03 4.871990372802897928e-01
7.587222803228493850e-02 3.252410500061780896e-02 5.085679600517690746e-01
-2.487830830374890972e-02 1.691044812154322494e-02 4.495067621610959185e-01
3.070911133599142986e-02 3.836004328699051114e-02 4.622384505188399939e-01
9.994388392085870165e-04 2.691462158844516381e-02 4.511134208708453830e-01
6.208220084869568375e-04 4.093890977016297755e-02 4.564025135204756722e-01
6.375488573568777184e-02 1.036796855466533621e-02 5.154874101477331383e-01
-4.573072534756786323e-02 -5.836653825485095017e-04 4.449096887246962728e-01
5.839981178868219186e-02 6.990198505755423203e-03 4.674626187533144628e-01
7.016544174184580207e-02 1.423858240761792515e-02 5.042478793265495751e-01
4.114081660950573253e-03 2.169999409583655767e-03 4.430213807524399638e-01
-4.487664074233469781e-03 2.076071283143267679e-02 4.483338048651854812e-01
3.146172469994061582e-02 1.306653884168009275e-02 4.526100442645443200e-01
7.933244917560974829e-02 3.960241369959852098e-02 5.011965955679508200e-01
4.392862140279088501e-02 1.155492795387467846e-02 4.573679277949051492e-01
1.690452716119035179e-02 5.552097975726871110e-02 4.686969802986603040e-01
5.319231583724924606e-02 5.746642236168348489e-02 4.776083004972311863e-01
4.214406278029421415e-02 7.967139546607058045e-03 4.557260295401589500e-01
-1.027175924737346729e-02 3.044804771788615916e-02 4.519703392283723198e-01
3.636271165157745067e-02 1.988991457537349350e-02 4.569034767350907966e-01
7.659739201168026812e-02 4.789372957088276761e-02 5.089917658614936391e-01
7.983472244844100341e-02 4.685677190575217310e-02 5.042977546326813387e-01
7.041973388838922154e-02 3.822682518922226186e-02 4.781584472477120040e-01
-2.206005820617663871e-02 1.476350580908596111e-02 4.478449689697556191e-01
6.889072157154385589e-02 4.018877273400879580e-02 4.776575023440820522e-01
4.513061924754560583e-02 5.844423520062090593e-02 4.798142972079962876e-01
4.493991747934066028e-02 3.322254343184766895e-02 4.656859138870742543e-01
7.834974922839428590e-02 3.445954902274360465e-02 4.880332441846654268e-01
5.095136273766063401e-02 2.990906153326280958e-02 4.667549736127292181e-01
6.604759056726547395e-02 8.728661046999293752e-03 5.053295252598075660e-01
-9.053935551000565421e-03 3.547676394657711500e-03 4.422002452104931147e-01
6.993924385456477821e-02 5.841291827348117638e-02 5.074161913885580910e-01
6.380309884929669106e-02 1.951387327217539436e-02 5.284262999306429398e-01
2.894858964798988077e-02 2.495145398452754126e-03 4.476239961432704750e-01
8.287737278741388880e-02 4.194757866059811019e-02 4.897728921298485361e-01
7.354174637229675404e-02 2.025649168879253489e-02 5.016019258805580749e-01
7.357476451122618721e-02 1.984121016435905216e-02 4.967854160642304340e-01
7.532252830485589024e-02 2.903121993083412553e-02 5.089832925381589934e-01
6.525070390066298187e-02 2.079434320672676750e-02 5.272771902009618650e-01
-2.088476440429731101e-02 1.138990055195404638e-02 4.458404080894735055e-01
6.228335038408083779e-02 9.788402848122768063e-03 5.183378121606433409e-01
1.748734314882697746e-02 2.931874308074006175e-02 4.548250216051838990e-01
5.813861957825992161e-02 -5.300582135966950235e-03 4.703746192946720583e-01
7.574129402743541573e-02 3.114490228759235826e-02 5.069152190638087641e-01
5.132800199839413630e-02 5.233048761690392570e-02 4.735817532220126247e-01
4.605663484158752097e-02 1.145437304161185318e-02 4.584602421027560992e-01
8.485227951529492052e-02 5.602276642102311383e-02 4.948081984788199605e-01
4.582089377280181008e-02 1.301974343283025977e-02 4.587574768987810470e-01
6.937231013627474796e-02 2.410754510059600481e-02 4.787501787780923390e-01
1.949763025398353750e-02 1.010237556384248336e-03 4.448187609519052010e-01
7.086890074730627098e-02 2.742264083754108323e-02 4.799158898513183336e-01
7.425345633307489646e-02 3.757169696579704121e-02 5.159460794293913022e-01
-8.534335887837682377e-03 2.878354810550518700e-02 4.514381049109185140e-01
-4.253765903259472403e-02 2.290525202257527419e-03 4.438021568523016214e-01
2.760560281237781424e-02 5.823795551433130074e-02 4.714297910244362733e-01
6.238660088443591378e-02 5.309879471628041470e-02 4.788919731640946531e-01
5.598655389063834920e-02 6.153835539605052862e-02 4.846076349254552773e-01
7.250414488739265195e-02 6.319852809619760925e-02 4.927735127160044470e-01
6.865509686080124852e-02 4.889223919176732824e-02 4.818233721692402605e-01
6.198844835422197969e-02 8.439854000481271379e-03 4.719190128121729666e-01
7.121091744490047615e-02 2.132474517556404159e-02 4.828995623757486033e-01
7.877912994462951679e-02 5.677168792442423284e-02 5.045588032658490096e-01
8.477023940898842369e-02 4.688970317123824366e-02 4.924663132082799377e-01
-1.440949156986078353e-02 2.946535549563478532e-02 4.516019661376058925e-01
9.591107088920450621e-03 3.655954239764142716e-02 4.563401535424246869e-01
7.550866796548232063e-02 2.478225930640048577e-02 4.968122806163486338e-01
3.091003141806935098e-02 2.831271195609752489e-02 4.579811675580726660e-01
7.252711680143095196e-02 3.739525889729235913e-02 5.194371049640698068e-01
7.249825755810174188e-02 6.190108984589581115e-02 5.027964405374560908e-01
2.897519786303846129e-02 3.969791881123514721e-02 4.624427467011383297e-01
7.240854388702185063e-02 1.738574333360018084e-02 4.917195503111519983e-01
4.308954780829656397e-03 5.080611829116195299e-02 4.648418219310198052e-01
-3.176532503172216360e-02 1.581419811253597860e-03 4.417456329095524881e-01
9.651073875168135474e-04 3.289909320249650992e-02 4.534533032824088483e-01
3.402266861716334717e-03 2.989036253341151653e-02 4.525663904573347107e-01
8.695088300929325331e-02 5.172955394221154940e-02 4.975181033411121279e-01
7.049622046784327634e-02 5.010135135989926547e-02 5.159653269104704787e-01
7.910686532939455173e-02 3.540165660676944381e-02 4.913281416287256786e-01
5.512648886910677393e-02 -3.778675151516590509e-03 4.656861975093259942e-01
6.234595294554026029e-02 1.806809172111539449e-02 5.293010516502897334e-01
4.875093977401725315e-02 -1.142198175388253051e-02 5.308333356007088888e-01
-1.604816805153464268e-02 2.007622468803791846e-02 4.483217664770700606e-01
6.507016173034906037e-02 1.038656341254663371e-02 5.120540675130083041e-01
7.613568802777737066e-02 3.903178015302501830e-02 5.117096821892530567e-01
6.310076285909352323e-02 1.698508652113921852e-02 4.712288390029559237e-01
7.657342136448562486e-02 3.951608330800573249e-02 5.105895197488931059e-01
7.186092385187681231e-02 3.398380611527938161e-02 4.796078762785492833e-01
-4.432672206001370824e-02 -1.233223013090287623e-03 4.413371252600257200e-01
2.966498550619665539e-02 1.785503007683182305e-02 4.539227236265699350e-01
6.529367936339737499e-02 4.916063882209620491e-03 4.808051772616568909e-01
5.099282054686635202e-02 2.261106583950640153e-03 4.603473098722858925e-01
7.224643826639470801e-02 3.891813646967897528e-02 4.794672585282302446e-01
2.453716620039976190e-02 4.232176105198860033e-02 4.621850553551131169e-01
7.010756008898581804e-02 6.218555083397089844e-02 4.888000642084466829e-01
5.274322976927464657e-02 -3.755950399391331726e-03 5.245018307185759232e-01
6.982928023761812708e-02 1.897239700133376145e-02 5.152936820467991508e-01
5.254648454983180256e-02 -2.199334354996708082e-03 5.242203056398808680e-01
1.842147459126157807e-02 5.767868922175440824e-03 4.464308541263308228e-01
4.909313813250267000e-02 5.171334325905858897e-02 4.725526556419250013e-01
-1.615382744725448946e-02 2.902138352399269081e-02 4.515298916572039745e-01
-3.606253186572513925e-02 3.380079418313860357e-03 4.443767074997865274e-01
-2.029690844648533027e-02 1.757711425668449443e-02 4.484779037834760729e-01
8.044502566089545281e-02 5.127971205066961247e-02 5.047122889399056067e-01
6.745183851883743142e-02 6.149098787918953063e-02 4.871648811081626396e-01
6.642879964499459611e-02 8.439109254697728379e-03 5.034784942174107547e-01
9.127067046335590739e-04 3.428161857741227059e-02 4.539818646484939380e-01
6.706938698965872470e-02 2.278469668769778078e-02 4.760359218025464467e-01
7.695638996781357412e-03 4.912630382062187218e-02 4.618723790711499189e-01
7.850596752652928834e-02 4.343633870924518831e-02 5.058418072002919263e-01
3.069214516034118531e-02 8.879069116609633258e-03 4.506456275073296713e-01
6.172866368406831894e-02 6.173945101930852775e-02 4.870572841878127446e-01
5.892866195109992128e-02 5.378929964638933664e-02 4.773725387447750879e-01
4.268003496916315115e-02 5.822510146274123555e-02 4.790614052609806772e-01
7.936056165536127527e-02 3.612510490681450359e-02 4.938452079884452783e-01
5.623626088199123844e-03 1.241935474552095971e-02 4.467541528595108113e-01
2.928015668726146811e-02 1.694882172177716168e-02 4.534929603803798948e-01
7.174107913353383603e-02 5.889653905789148103e-02 5.063748644862915427e-01
7.246070881715303835e-02 1.840281861882978390e-02 5.030292694489216787e-01
6.500986962438522199e-02 1.381865586320895310e-02 4.747938464093363065e-01
5.580904106858684127e-02 5.200114796516418919e-02 4.750766647673330123e-01
2.751055347775458598e-02 3.568415212899753858e-02 4.601063839027483837e-01
5.328273225802349772e-02 2.026296876324100785e-02 4.649529458983875374e-01
7.620434571886830488e-02 4.280607479396029286e-02 5.106095538875151663e-01
5.905897828395437199e-02 1.902383792737244103e-02 4.682598090936017088e-01
2.190017780579625248e-02 3.667613873365278138e-02 4.592655411280293642e-01
2.872258456677279082e-02 1.719171648341324011e-03 4.472541353183958623e-01
7.908931322698074806e-02 5.656112541849488834e-02 5.043276202790403229e-01
7.915041390458681103e-02 4.613305781149348167e-02 5.054139107153382549e-01
-5.261571942562628251e-03 4.713082756764864351e-02 4.595714168967083291e-01
7.202412028218907469e-02 1.612531692834621652e-02 4.943056169977226300e-01
2.834865596505823510e-02 2.883150391254619624e-02 4.574852063515798539e-01
5.907296425556905067e-02 1.012559802715595064e-02 5.261662274637050052e-01
1.504081395805974969e-02 2.239059014519070856e-02 4.519205954284906124e-01
8.676577122030809663e-02 4.931741838281378937e-02 4.944591217469346822e-01
5.501830792660718228e-02 3.239939204284893876e-02 4.697296720778551538e-01
7.125198206711515214e-02 2.104859336454237284e-02 5.150767757341057074e-01
3.708782150204521788e-02 4.082609130232624228e-02 4.653554467606353939e-01
1.450744715611344479e-02 1.036357154242344668e-02 4.475436179505820622e-01
2.150007661257477554e-02 3.603110721158942625e-02 4.588445095795364304e-01
6.314346018564974405e-02 5.541161844272114029e-02 4.803291970358091190e-01
6.613993046298347056e-02 3.442056069390809353e-02 5.273743318788500778e-01
5.043560832486992940e-02 -1.166408559861592271e-03 4.599994546406461771e-01
5.252331721845428930e-02 -3.562209915429210942e-04 4.615680676983826558e-01
