4.086870860084109575e-02 2.060400079061384948e-02 4.592789011645455055e-01
6.337948361339267034e-02 -6.406936867101863413e-04 4.794752316844188567e-01
-1.495333990722161679e-02 2.339740435405190250e-02 4.495784649000236222e-01
7.086549025871244356e-02 1.573590135830204087e-02 4.900947916181942476e-01
7.912486810748638189e-02 5.792680292232619405e-02 4.907714357337048527e-01
-2.318491809978025925e-02 2.319380929230716731e-02 4.511719234607329820e-01
-7.095900470434226767e-03 9.055958396712289124e-03 4.442311244936620329e-01
-2.765579569850338398e-02 1.107638359719884807e-02 4.480787452255673431e-01
2.234670892050337129e-02 3.143936354754046231e-02 4.571207400892189354e-01
4.721469719891373262e-02 5.774041794646023879e-02 4.760769676520186233e-01
6.729242073762649323e-02 1.286445992887455016e-02 5.093357852727884438e-01
4.194637475943674421e-02 5.281567501660805464e-02 4.715060633664580614e-01
1.975675616896744821e-04 1.089132561115769768e-02 4.456158417208707645e-01
6.098312482405758572e-02 5.467747978513595730e-02 4.796577724227540918e-01
2.336306152764116434e-02 5.258529498946711705e-02 4.665834631419040757e-01
-1.082899456740276517e-02 1.545003790317730531e-02 4.462536494085833638e-01
-1.422639260674104025e-02 4.289751544244341935e-02 4.570810411079496705e-01
3.760586319019446067e-02 7.028504510295554598e-03 4.531107987792158953e-01
6.703154573044881048e-02 6.426881218489004233e-02 4.917169100273157123e-01
-2.894014664537917191e-04 2.903379558119804915e-02 4.520344472816117953e-01
4.484258487251569641e-02 1.738392068373322344e-02 4.600032398581745396e-01
5.164694979201762265e-02 2.148827165462930105e-03 4.610648391239152710e-01
-2.722296603893111649e-02 -1.405123318447323508e-03 4.400759205627109982e-01
1.504594674731384377e-02 2.229341595659405789e-02 4.520685211952217841e-01
4.595594421018466685e-02 5.100209324006788059e-03 4.573101818836836086e-01
7.013114364267951373e-02 6.351079792715624839e-02 4.909642456793755216e-01
3.327615521457999437e-02 -2.037769540136666769e-03 4.478358088886147392e-01
7.888379598210114307e-02 3.811770842574517537e-02 4.980565820013406753e-01
4.830570606096791508e-02 4.028493838991902692e-02 4.698043048021576240e-01
-1.787189489969419343e-02 2.145234810249796106e-02 4.493053716883038673e-01
6.999409261817991779e-02 2.243505159995156858e-02 5.191260924769085516e-01
5.666824619501936028e-02 5.294255362855172092e-02 4.763197878053390122e-01
6.302983633078043657e-02 1.715238600133415017e-02 4.716225800536072987e-01
6.865742615371211999e-02 3.170433900121631676e-02 4.780277245078954351e-01
7.496553571590644505e-02 3.149162345929324563e-02 5.116126216167175000e-01
-4.858712080758375088e-04 4.948425623092822523e-02 4.620787356176582761e-01
7.596896859396150281e-02 3.692520308051576439e-02 5.109310642747980635e-01
8.140898493827157523e-02 5.015574935787975308e-02 5.028272827361726094e-01
-3.798926479402613132e-02 2.297599789300862078e-03 4.421137377316610162e-01
7.105609129016811354e-02 6.004065164620927403e-02 5.058194188416164083e-01
1.548018883013309310e-02 2.111752702508415402e-02 4.517695591347218875e-01
2.812769289666963018e-02 1.127030762464337199e-02 4.511042777370404822e-01
1.565152667218571228e-02 5.647780885025414921e-02 4.707404275986538100e-01
-8.029006495537116539e-03 2.423766675256995920e-02 4.497556958469450805e-01
5.725868090370298674e-02 3.503908183677329619e-02 4.716922564641977678e-01
3.718057216131123027e-02 5.684093019453991674e-02 4.723095193227834221e-01
8.021093076116574822e-03 5.245921530367188973e-02 4.647648875604999952e-01
6.486647010521132128e-02 1.957994821170421645e-02 4.743749335471648121e-01
7.388913322555833163e-02 6.250383532547590382e-02 5.023702571174400999e-01
7.707512086215090319e-03 -1.253146352470837360e-03 4.421135306386614339e-01
7.948239735230079595e-02 4.196072312942020210e-02 5.004517598813681412e-01
7.191295105536310572e-02 2.857006652438400310e-02 4.817884785108163537e-01
6.936678799162929177e-02 1.968144647635788544e-02 4.811207548511806098e-01
4.868686008218269488e-03 3.883592071635828813e-02 4.565035552391211726e-01
5.724525059725184967e-02 3.334465397775407403e-02 5.323756942422744887e-01
2.675500875205038057e-02 -1.478689594241855854e-03 4.457503367754998003e-01
4.596713250413536622e-02 1.946623220933722115e-02 4.612543173139829755e-01
7.524566972222437866e-02 2.760021321935748895e-02 5.009471954679239891e-01
6.781374086535583989e-02 8.259060968565525018e-03 4.930091884087646759e-01
7.207533096117886562e-02 3.756473804559843505e-02 5.198552516687399150e-01
5.044199982127783866e-02 -2.447055014470257087e-03 4.603025121421431831e-01
5.873624324675422170e-02 6.144312993050926597e-02 4.831809900507517130e-01
2.566117274064087447e-02 5.951049773876722349e-02 4.764810324175413059e-01
1.606437533452851479e-02 1.749261884776160542e-02 4.505441458491478146e-01
6.566792679741370597e-02 3.237805354473812132e-03 4.954083394982003452e-01
-4.740698496606315232e-02 -2.512754747753483987e-03 4.441888951838825483e-01
7.324237344896233903e-02 5.014567156339237025e-02 5.139841880167728139e-01
-2.002688918922608530e-02 -8.569010046339479297e-04 4.405908322591652881e-01
-3.279091327645350384e-02 1.087693537843611698e-03 4.415081292847355954e-01
7.003962207957076247e-02 1.582292648466415361e-02 5.076535463506917090e-01
8.059536178232906689e-02 5.660523207112121147e-02 4.912479282391162272e-01
7.773690048227208105e-02 3.450237710249334094e-02 5.006486679228041581e-01
3.110258886332672654e-02 2.738063198958425384e-02 4.579324766584749185e-01
2.587495314110783810e-03 1.888225872033974864e-02 4.486390504689669601e-01
1.656798609729778424e-02 1.563668844924581691e-02 4.499784504733264634e-01
-7.273477153528077818e-03 1.159638279181830420e-02 4.449268047419609462e-01
6.898219628789235836e-02 1.619772204429226203e-02 4.829711621646722297e-01
5.541960164582313692e-02 4.498224219009998304e-02 4.735683806151791964e-01
4.820627269994010033e-02 5.930730700531564731e-02 4.805441075373768633e-01
6.356673594920729531e-02 2.068286961765277571e-02 4.727815711969946544e-01
5.789438287617184459e-02 3.618728979014235875e-02 4.721788675055272333e-01
7.059575118451670572e-02 2.972621799743974808e-02 5.228605462130473391e-01
-8.541373256920607726e-03 2.872590146896119787e-02 4.515533447167328629e-01
7.011330090380693547e-02 4.167662871786408790e-02 5.198344678750944636e-01
6.524207769077987329e-02 -1.105434834798952812e-04 4.930186678192720606e-01
6.219537815349877180e-02 6.402534978086640849e-03 5.128307378548101481e-01
4.520666182606150607e-02 5.922869812400508721e-02 4.815782049511453389e-01
7.141250739724253060e-02 4.825296440312085156e-02 5.167162054789562475e-01
5.199286512659744008e-02 5.743561752479843519e-02 4.775529679471487987e-01
6.169678956727072533e-02 1.454454131025994905e-02 4.700741343520812299e-01
2.273245987906845431e-03 5.030912349742977518e-02 4.649930122906215657e-01
7.301210487082873679e-02 2.385903955070790491e-02 5.113690047203348632e-01
3.349027550176787889e-03 3.249651940342059703e-02 4.537789037256522717e-01
7.683879433349564969e-02 5.630973808038755579e-02 5.079141950064312017e-01
4.942293482600880472e-02 1.853211910159392739e-02 4.625592664760500017e-01
6.490486965798632213e-02 2.990626960944748475e-02 4.753182967639309475e-01
6.603917798281402907e-02 5.996067327922025361e-03 4.990310421975478472e-01
5.567521951979370609e-02 8.339856625385569378e-03 4.645657428556148605e-01
6.675094307395672277e-02 4.772296603934823161e-02 4.816731180699581061e-01
7.632558141099266003e-02 6.190356711524677702e-02 4.980352651855417534e-01
6.389652755049864130e-02 5.395780644450648422e-03 5.056585948570143652e-01
6.797956810547864381e-02 2.043230186998302653e-02 4.785425955656326669e-01
-1.990410088377306264e-02 3.665840868185883672e-02 4.553280122969908250e-01
6.612762526846539812e-02 1.486067993356236447e-02 4.770951822735915449e-01
-2.267178132753969177e-02 3.654583514527930989e-03 4.421071833331575163e-01
5.880243846635967858e-02 3.829178250978686193e-02 4.729616175404581790e-01
8.083252350664639485e-02 5.271273714777802849e-02 4.897005674734937752e-01
6.496224006680220708e-02 1.261728568829136206e-02 4.759347124445613697e-01
6.078804831760885319e-02 7.317354288390378290e-03 5.181003796632470682e-01
-1.009802475637043562e-02 4.664853442542243878e-02 4.600264020212377902e-01
5.849300074745492073e-02 5.128334881988126648e-02 4.764878838809400996e-01
-9.459665424292313871e-03 6.638664913591277132e-03 4.433067169280664466e-01
6.853132387895166655e-02 1.343092487282815384e-02 4.845512401423766047e-01
4.010717996377625993e-02 3.880061243746626282e-02 4.660058437176177737e-01
5.236546154525456576e-02 3.102203791654892587e-02 4.683396560955980781e-01
5.704688736503453483e-02 5.566814732587731934e-02 4.781145566159517024e-01
7.518378837030822992e-02 6.187066300813311159e-02 4.932129042283536213e-01
6.957397970013128041e-02 1.278069041025705135e-02 4.901817078208032807e-01
7.280551219541815666e-02 1.896539992925474691e-02 4.947537187090725874e-01
2.861423457672597481e-02 5.817310570488115097e-03 4.489591064056028813e-01
3.830620001607795699e-02 1.010296191586273259e-03 4.520122174408457427e-01
-1.176002595450102630e-03 2.626797735526607142e-02 4.508851988491250906e-01
6.430234340740137444e-02 6.059336310647939899e-03 5.054893601733964070e-01
7.369188381632704732e-02 2.505741052125126656e-02 4.868296728735638790e-01
2.940199987742800336e-02 -8.753041016521150366e-04 4.466858855110251159e-01
6.244147367310800417e-02 1.282219814149327709e-02 5.227919735635664367e-01
6.378443522265976606e-02 1.353705878061592198e-02 4.735864601939798746e-01
6.899028043734360682e-02 1.451618348498813493e-02 4.848700301598513063e-01
3.817700223968967244e-02 4.752401470074672785e-02 4.684317932087920799e-01
3.733330975317836892e-02 5.424391373588824394e-02 4.707514316190115067e-01
1.327348901941564040e-02 1.352597648867707829e-02 4.485918985656762725e-01
-1.437233417186912880e-02 3.554190788009205671e-03 4.421747555904806393e-01
-1.805511331907624570e-02 3.034466264407318856e-02 4.524669035228263136e-01
7.756547439187801152e-02 3.600201279583530034e-02 5.040207925113664444e-01
7.726959339620040335e-02 6.032224352104276210e-02 5.018575862340025617e-01
-2.318372681590703116e-03 1.064357389909755848e-02 4.452267304484643917e-01
3.890579532467677848e-02 2.707412488667587311e-02 4.606416669536860797e-01
6.759016718473168095e-02 9.958533771155856501e-03 4.856878574325831366e-01
7.986682902477727775e-02 3.954900008239753406e-02 4.881746114793381053e-01
6.493937064112791091e-02 6.053813049245847233e-02 5.041471568144646476e-01
6.997595603556892863e-02 1.601915730916786407e-02 5.082268120535351486e-01
6.865852758065282835e-02 2.954753940702698270e-02 5.267839004405299175e-01
1.787302050707027454e-02 1.813780349348097232e-02 4.511538829460502442e-01
5.178527789552691413e-02 4.380703791306003042e-02 4.719622771833315023e-01
3.222740228251487482e-02 5.057253805193498430e-02 4.678087617808219800e-01
-3.633673030015559247e-02 -1.379714747840841971e-03 4.399305400244451492e-01
5.623981612365008126e-02 1.382471790843756328e-02 4.654783298167161076e-01
4.528285277543953047e-03 8.810460240232145801e-03 4.455132537771379631e-01
5.277838998939117510e-02 -1.332076485331252017e-02 5.273562466269474669e-01
2.971792813046327322e-02 -1.778990578258672541e-03 4.464556509497564218e-01
-7.247920128065294190e-03 2.296845742609212801e-02 4.492479439712918632e-01
3.043493678830366811e-02 5.699649204411732367e-02 4.707226402094339401e-01
3.344455318291569834e-02 4.408650039484438704e-02 4.657233121179420454e-01
3.703911917758703071e-02 2.918799725594567115e-02 4.608718806600110574e-01
6.822384975198697576e-02 9.272692968395298760e-03 4.905677358879089733e-01
6.039687098786929859e-02 5.546571373833358940e-04 4.720584944668956839e-01
6.960207578438513953e-02 4.007428714002996689e-02 4.786275928145605207e-01
5.871560412177660032e-02 1.236652982939037519e-02 4.673843726217712935e-01
-1.309468282966868950e-02 3.248002143527306540e-02 4.529232711952291268e-01
-1.483608663060032549e-02 3.921503488284304277e-03 4.422763893356346787e-01
6.402054805154210049e-02 6.069653960770526012e-03 5.064644472639434625e-01
3.608097048502977022e-02 5.396762483717197634e-02 4.702571781823591812e-01
8.044518620230517447e-02 4.577792526773750287e-02 5.026996182647187617e-01
-1.233200326895264598e-02 1.984513069182502858e-03 4.414043911576521206e-01
1.251412131696292424e-02 4.111730029893321398e-02 4.590302352569342603e-01
6.792309569008692094e-02 4.887899872484811198e-02 4.823341129826190232e-01
6.658444862637019623e-02 3.826202313209776940e-02 4.766937427966112528e-01
3.538664657369080396e-02 2.885224514945640070e-02 4.601102983516278111e-01
5.925002535474097054e-02 -6.777326818891132171e-05 5.146720962348317885e-01
2.763549781908591213e-02 8.990713272481326568e-03 4.500412803613408896e-01
2.634619624815602926e-02 1.190022725171272985e-02 4.508945995589738187e-01
6.757507512345627132e-02 2.701000505991445200e-02 4.766140581210508431e-01
3.824064983976797893e-02 1.102843295867551171e-02 4.544445634044371185e-01
7.093416234072204285e-02 4.569159318419607069e-02 4.820314540731374664e-01
7.365887130032734709e-02 2.264041010565353423e-02 5.049173738971014513e-01
8.207016672806331792e-02 5.676806405585382159e-02 4.925239092181181166e-01
7.296323820576525176e-02 2.286706975630825936e-02 5.098996728560412084e-01
-1.036756835947580217e-02 4.555806540328280474e-02 4.585608908851858678e-01
3.680221236271913332e-02 2.843389787056218448e-02 4.604539034776829465e-01
8.922005489630333019e-03 2.036982030538662600e-02 4.502233047064886917e-01
7.014746922167144905e-02 6.390901948618921136e-02 4.919466464792782157e-01
6.360401414212564497e-02 1.156960887342832825e-02 4.739348218211246744e-01
1.719274461075085900e-02 9.342385474766953107e-03 4.477926937451957579e-01
2.817299307128712585e-02 4.508047191446575702e-02 4.646017810119941749e-01
2.982142927447365560e-02 1.778428156984384473e-02 4.541393792969996013e-01
5.440313555165499082e-02 -2.669707060533546387e-03 5.226689330263012412e-01
3.614255191920246607e-02 3.491581391260011741e-02 4.629601114238621196e-01
2.736787829667674393e-02 4.472892658400733079e-02 4.642330680355945538e-01
7.018903786146213353e-02 5.704101733135717028e-02 5.113231433915874646e-01
-4.788618258333047356e-03 4.215672574074841999e-02 4.562925572018718401e-01
7.265894217118490372e-02 2.895248088829947136e-02 5.181127567513658105e-01
2.504758476655275304e-02 1.239443359826763319e-02 4.507605703454010682e-01
7.796088442826162868e-02 4.366730887830821278e-02 5.063098324260271177e-01
6.681807534268227600e-02 3.859393600544938630e-02 4.768645118110704240e-01
2.938186606719306315e-02 2.592178040128833086e-03 4.479250307086418692e-01
7.960573962409041304e-02 4.180951845981889514e-02 4.993285508570329267e-01
-1.645904777357428544e-02 1.158122648128862703e-02 4.452135845646874035e-01
7.465008880037957151e-02 3.321195590599045760e-02 5.136371657286643577e-01
6.727164799464080414e-02 1.052826355802189383e-02 5.037441505654178808e-01
4.599194456416382665e-02 2.305261766797499570e-02 4.622914138170006737e-01
6.011429265445557280e-02 3.306156923389592245e-02 5.320976728462107896e-01
6.748334097926847464e-02 5.969172323114413370e-02 5.067801725938869684e-01
-3.689016173869432563e-03 4.634422486848480127e-02 4.591289510613584257e-01
7.986940223646706027e-02 4.525963700568703951e-02 5.030183761338671289e-01
7.137826221907583868e-02 4.669339789552912068e-02 5.170324904960742485e-01
7.267753947688246341e-02 4.952271107296921798e-02 5.149735306548546276e-01
-1.121567124249829052e-02 2.135064418520726814e-02 4.485725203277092787e-01
6.655555407469053442e-02 1.750815965249833545e-02 5.204631581074706803e-01
-2.396595943323019326e-02 -9.025023386776348869e-04 4.403883754599465239e-01
7.586407128172112380e-02 5.883396260694038343e-02 5.061973873129005375e-01
-1.521231401977379653e-02 2.560087253841265148e-02 4.503942195590289743e-01
-1.043250085401399921e-02 7.234095546479631361e-04 4.408977642229028882e-01
7.450709704382890708e-02 2.437166686520319051e-02 5.011547279725894199e-01
3.902451496998272928e-02 1.914793560920428905e-02 4.579811245742916870e-01
7.315922345523134807e-02 4.603978622008540050e-02 4.830795297245671360e-01
-1.215387659799302064e-02 5.748078141793117393e-04 4.406891518842975253e-01
4.634047056052770230e-02 5.927346928225969008e-02 4.812347812193328300e-01
-1.769294465568203162e-02 8.905116704215731982e-03 4.442303296114771261e-01
4.537706246424751816e-02 4.221755095369054966e-02 4.691177020881320825e-01
6.932858569822060446e-02 1.464095715388924121e-02 4.859107989887669898e-01
7.220540003735130552e-02 3.262720404607902941e-02 4.810984929953244227e-01
1.913661922589054293e-02 3.425736129352654341e-02 4.576088274617265417e-01
4.213694899230478047e-02 3.328484318606374226e-02 4.648463807579753526e-01
6.658689028832944466e-03 3.598780350771605546e-02 4.557305077298863805e-01
1.196985838351754226e-02 1.284225541473684416e-02 4.481059778456649711e-01
-2.186665817871204578e-02 6.318738764057529878e-03 4.433613052028411161e-01
6.642690416230881412e-02 2.132491983107856481e-02 5.254235705116002686e-01
6.901801034606760976e-02 5.142325480550014039e-02 4.827421793771878300e-01
2.710512761489372591e-02 5.738004852265987665e-02 4.704506468433241051e-01
5.522355983356358466e-02 6.657575828122000439e-03 4.640285966836721343e-01
7.657880964849717031e-02 3.979862026908317918e-02 4.850340943243742209e-01
7.760625999700400401e-02 6.001573534596940651e-02 4.928307596919004330e-01
5.310684097377926793e-02 -1.765935901706637036e-04 4.621975126855751848e-01
5.129273477163780182e-02 3.514968720446404616e-03 4.608467713442512270e-01
2.002098935491703272e-02 6.339952438177319342e-03 4.470952801807153154e-01
4.150940170862180839e-03 3.392889283635915770e-02 4.544571472496996001e-01
2.793217669631352373e-02 5.677251770480176013e-02 4.699084483684576319e-01
2.956406497945464687e-02 2.241156500267342186e-02 4.558035591103107298e-01
6.702093362453279135e-02 1.251849014350286601e-02 4.803434247430815041e-01
7.960210747086209071e-02 4.929273054140631549e-02 4.871186591995773640e-01
7.227437759809576812e-02 2.436388726501443475e-02 5.153114597251415852e-01
-1.585210264110175835e-02 4.983408175290570188e-03 4.425807228825029971e-01
6.143919419425332429e-02 5.018612243825675001e-02 4.781311132824066501e-01
7.571987669423368983e-02 3.211763691785049502e-02 5.063889829866656811e-01
7.740349835589256655e-02 6.007131440795179800e-02 5.020004272447955440e-01
2.056320511266507278e-02 1.039806103773706358e-02 4.489535705706891311e-01
6.412835138997968754e-02 3.796272292312547272e-03 5.018985993422954150e-01
7.821968538120260828e-02 4.883216670346583049e-02 4.861234383329735564e-01
4.282232426177863538e-02 -6.715317408625834719e-05 4.544039683738512192e-01
1.082131497628786680e-02 4.685737356014066900e-03 4.447600704970896546e-01
-2.578706205439542168e-02 2.828557794125222818e-02 4.549955498607124449e-01
-1.215121924140887162e-02 4.047598507525427408e-03 4.424033324250041255e-01
8.616004936970983463e-02 5.217475309884267443e-02 4.961196142904374384e-01
6.605993410845027725e-02 6.906136153920083495e-03 4.825557633366515664e-01
6.459638280420176848e-02 8.239941875681739553e-03 4.772885745201008167e-01
6.914378546923743984e-02 1.166338674017664521e-02 4.929684398093544528e-01
7.350673295175638722e-02 3.715257261528796817e-02 5.169544618938202163e-01
1.013591188518254277e-03 3.797140604489286642e-02 4.555924197605751291e-01
5.552090289667618861e-02 4.138629653499356631e-02 4.726111838510739238e-01
7.381668787446732383e-02 2.199306694322956252e-02 5.020037709138476245e-01
5.772953543267528992e-02 5.896918066265272040e-03 4.672137699095290642e-01
2.101952156973342298e-02 3.382631806163213795e-02 4.578642912071335669e-01
5.333152419365857870e-03 4.010875542691787199e-02 4.570986244321674219e-01
8.039897750882853134e-02 5.620284758459093838e-02 5.004755660470940892e-01
5.660391617512935958e-02 6.164508481124026523e-02 4.831054964854298861e-01
6.773669607998493436e-02 2.872884542699925825e-02 5.281802697078622488e-01
5.073437605206302520e-02 -7.262959078284648116e-03 5.275206947122134116e-01
6.590158339781820862e-02 2.956423468005575823e-03 4.923127904535165578e-01
7.574765376133488215e-02 2.898220929412148247e-02 4.887806690676241850e-01
1.124521098616813528e-02 5.031468456744115497e-02 4.634153491125904134e-01
1.658679286685596152e-02 4.530993611605765164e-02 4.616708554686848043e-01
2.193519790749877060e-02 1.769005309759885680e-02 4.519447334777844105e-01
3.189816949985591066e-02 5.959148745331101921e-02 4.783776813077288970e-01
4.290164019075327212e-02 1.063179835149494559e-02 4.568780951573451765e-01
4.235206060616807794e-02 4.395035367899995105e-02 4.684959463551051639e-01
3.238654186942181712e-02 3.108607984109510239e-02 4.599575954534127487e-01
4.378471993943368334e-02 1.202833485795520851e-02 4.576477756356929771e-01
6.055068477232983248e-02 3.514445298709612756e-03 5.131976623871455923e-01
2.952500921197126135e-02 5.832492582273147985e-02 4.721048066376509755e-01
-1.277177120882206328e-02 1.173203796816353096e-02 4.449794347176391773e-01
2.275069916757904015e-02 2.859610746537099429e-02 4.561252754472202575e-01
6.493451531951936750e-02 -1.630808423570620719e-03 4.946184995577097565e-01
6.879175224663805488e-02 1.319545191522429953e-02 4.859547396179586531e-01
5.115945455760437244e-02 3.706074425264207356e-02 4.699503098076724950e-01
-1.815232056100139421e-02 3.697578635741011199e-02 4.550096190586573885e-01
-1.383133363837735219e-02 3.051567893454820712e-02 4.521914869802580728e-01
4.836806303593386286e-02 -2.112393472720477516e-03 4.584572739476066028e-01
6.929652178637238369e-02 4.424307765219152172e-02 4.803500322800775546e-01
3.827024935673887379e-02 -1.523956286607153297e-03 4.512002438962158801e-01
5.801637669106522732e-02 5.382933284762483894e-02 4.775254754837788274e-01
6.899972317202947292e-02 3.546010387823841925e-02 4.779365214007843532e-01
7.363550047969824597e-02 2.425849410544670542e-02 4.878613302174019672e-01
7.400829155523917791e-02 5.175949173574671824e-02 5.124780623516201894e-01
6.648001132304776073e-02 3.476300401891897068e-02 4.763879354810467981e-01
6.113165181350756205e-02 1.569905185163204819e-02 4.696976415308025676e-01
6.944327912408070069e-02 5.543392400737939124e-02 4.834459479358826917e-01
6.907070237632656484e-02 5.858466589500437721e-02 5.083771828423798711e-01
-1.562279974716303255e-02 4.211391976500485079e-02 4.572993469350309925e-01
7.393379776164890615e-02 6.143973103062179419e-02 4.904646826737672494e-01
-2.055763981735590079e-02 2.440153735413603392e-02 4.506792330416444781e-01
7.653362708621817834e-02 5.670803485720141840e-02 4.884252872462407913e-01
6.174288324538412809e-02 4.945763863000851926e-03 4.730103381265539642e-01
5.077352460244978494e-02 4.725321694464314909e-02 4.724869536530432179e-01
5.079771357878316157e-02 2.767688269802394060e-02 4.663421523691529402e-01
7.287272312414640185e-02 6.271585585396720341e-02 5.029897078107015140e-01
7.373790851265879520e-02 6.344960509494980416e-02 4.985245394033313571e-01
5.745279998129729920e-02 -2.007723479824025884e-03 5.182351497453671074e-01
3.517696306017370489e-02 4.666061490125037597e-02 4.672543755460368264e-01
6.403916017236745140e-02 3.546161767051582425e-02 4.750014985273709467e-01
-8.633421480238760715e-03 1.714618866177110637e-02 4.468935282677358178e-01
4.605836165238675478e-02 1.179915614483227279e-02 4.587834758016509085e-01
7.758888445592462824e-02 5.568663807231932772e-02 4.887362245737285615e-01
6.907046846874924373e-02 1.430745979937098414e-02 4.854011115518088726e-01
-8.389501645343321046e-03 2.723907404082092504e-02 4.510476218184802377e-01
8.985978574677484787e-03 4.140313984934418379e-02 4.583214228342700758e-01
1.709967456422935642e-02 4.204230627898578043e-02 4.605000903084170982e-01
6.164585335547594774e-02 4.761945701508113471e-02 4.781486954112489363e-01
4.330114584679061601e-02 2.944140110310239714e-02 4.635822727457943326e-01
5.642023583641180701e-02 5.218482106371154922e-02 4.759349785580457293e-01
7.416833661889940532e-02 2.264930136973709526e-02 5.007862778773710666e-01
4.874633059380100580e-02 2.509077697620964303e-02 4.642744934608354912e-01
-1.425272412811724038e-02 2.489822790293413218e-02 4.501293385186004303e-01
1.403415596448551010e-02 1.883212481355158591e-02 4.506053566970918411e-01
2.631321743306925046e-02 1.939647022346448896e-02 4.536822562831904215e-01
-3.501517905175584224e-03 1.042931150979381667e-02 4.450243666038152801e-01
1.940028237152422591e-02 5.635124857581264024e-02 4.694782650093129450e-01
7.915796672902652986e-02 5.826729234583818973e-02 5.004299596791497162e-01
7.042924045338831707e-02 3.488981907056864368e-02 5.232252756054858178e-01
6.596357220310995750e-02 2.124981928110073609e-02 5.261558351264881139e-01
7.700158884328185682e-02 5.186869747294842181e-02 4.866425349585452587e-01
6.563887300205641095e-02 2.348425518289103814e-03 4.934300793845586286e-01
4.247063565069572610e-02 1.099435859442927758e-02 4.567465798098219731e-01
6.400211775232186873e-02 3.028360726678064677e-02 4.748025060034734013e-01
1.425969700947035679e-02 2.974890120978993663e-02 4.545053991755979572e-01
3.145634798516795672e-02 -1.312226193396299079e-03 4.473135609185864836e-01
3.499133115617709955e-02 1.630633928472415700e-02 4.551933479664463933e-01
4.946178843135728281e-02 2.098909176898538023e-02 4.634080628363058119e-01
6.679064150220591356e-02 1.308183266777817808e-02 4.789871008283090315e-01
-2.426320656762828709e-02 2.793096748504756907e-02 4.537254769032598722e-01
6.198603664636421345e-02 7.298400297706616330e-03 5.146923243177475848e-01
7.172520059697469474e-02 2.224943051406798322e-02 4.848829237120984570e-01
8.665510958962491239e-02 5.016287533889404043e-02 4.961261928386913045e-01
-1.087767621440759516e-02 2.824229782634427380e-02 4.513737187987552635e-01
5.549662499513701580e-02 -2.556079328044579945e-03 5.212473200829629283e-01
-1.899897209279136773e-03 2.351770680560204968e-02 4.497019765767479305e-01
7.776015063067448496e-02 4.288742612922882141e-02 5.064630284042331843e-01
7.203283985110262022e-02 2.318543357165240085e-02 4.847642609138705372e-01
1.293126794610828002e-02 2.611637575034346515e-02 4.529924636963129636e-01
4.418565009540721678e-02 4.513084626303800334e-02 4.694689523864142289e-01
1.567930370639353602e-02 1.396358200061835302e-02 4.491997820076298331e-01
3.538898571742371286e-03 4.976828539802823081e-02 4.623118830044318783e-01
5.182873176994918368e-02 5.634457338411289623e-02 4.765368462897066615e-01
5.542988947312391113e-02 2.185551775194196147e-03 4.645063452745072374e-01
-4.100634377641805550e-03 3.887235590574138200e-02 4.552240396611797468e-01
2.857332492300999893e-02 2.282299898017338055e-02 4.556901799740573633e-01
-1.007497713265628932e-02 1.428915485480960861e-02 4.458387057087121463e-01
5.441804474173772554e-02 5.451401475917019152e-02 4.761050949721215564e-01
-1.427287456692096640e-03 2.509093933122656835e-04 4.417646030014911740e-01
6.101933970839260729e-02 8.081661332067365325e-03 5.185698890448220411e-01
2.545390072157665412e-02 4.972741755262760632e-02 4.658151478147401492e-01
2.027595417946878240e-02 5.673938079667154716e-03 4.468698595108498428e-01
6.537970657843944489e-02 6.161366060770415848e-02 5.017661504969453956e-01
7.100136634478376729e-02 6.018456532651247221e-02 5.056028393929251630e-01
6.190058304560182995e-02 6.265274321252063683e-02 4.887133174286165116e-01
9.179533043130978093e-03 3.521863452878613854e-02 4.558547743020370246e-01
6.078453921618329203e-02 5.935357700744855330e-02 4.824752457013844475e-01
5.327233983107679260e-02 5.933257423802525132e-02 4.795576696125654625e-01
5.803583065876299213e-02 6.180984795859829906e-02 4.900524674752612664e-01
1.643427427944711000e-02 7.185408284194980816e-04 4.441699277121273215e-01
1.486367408986611315e-02 5.356833077518925040e-02 4.659583781712789974e-01
6.134372804793311595e-02 3.891281370656271554e-02 4.742804931149662284e-01
8.255391304971441968e-02 5.391033657110617938e-02 4.998632804513138961e-01
7.648208535397812979e-02 6.106070265796253310e-02 5.014730398725772975e-01
7.674452910940155782e-03 4.827215573883189559e-02 4.614016593333799543e-01
3.671021103048682788e-02 4.355615143659494898e-02 4.664888752501193947e-01
2.540835216927912060e-02 7.726955616425923955e-03 4.489442547059017130e-01
1.258514841370654211e-03 4.121875846328667409e-02 4.568236503306652985e-01
6.982567272351307419e-02 2.421494341079336726e-02 5.216076279414435524e-01
7.787700375135672703e-02 6.053119853473554884e-02 4.954625394386111270e-01
2.441134841874109673e-02 2.829076195021042531e-02 4.564623690826036251e-01
4.545190448180931597e-02 5.678619323759811696e-03 4.571024972012422416e-01
1.799683023547570850e-03 1.667430320805990407e-02 4.477397025402580222e-01
-6.443972513980713961e-03 3.875822764006968055e-03 4.426474192758140247e-01
5.970481746482847463e-02 2.665714025490059993e-02 4.715388037158001477e-01
-2.217265452460567485e-02 3.558817158744945197e-02 4.557964958376568565e-01
5.032921702717361306e-02 9.018722548131666641e-03 4.608159228858400014e-01
3.719262283831979016e-02 3.556625090092122715e-02 4.636057554402926995e-01
2.436259955989623568e-02 3.924414166149846339e-02 4.614293586793574709e-01
2.486529957881650557e-02 5.804912684162163300e-02 4.709646338367076690e-01
2.421178695982124235e-02 5.270060599697164866e-02 4.668000414851244950e-01
4.792898049583053238e-02 1.289838023580360156e-02 4.600766061600484735e-01
6.667642143368933405e-02 5.759004888545971035e-03 4.944774254973308691e-01
5.887295895482562436e-02 5.958394933327817999e-02 4.819013087421076258e-01
7.444902877246833972e-02 3.616613302264449353e-02 5.144708576254261034e-01
3.107397224751087816e-02 3.809792249852450574e-03 4.491740165395310957e-01
7.229442071529965097e-02 2.399369615605718986e-02 5.146029022469424952e-01
5.198172006183976457e-02 -1.387964017939694213e-02 5.282666957530943730e-01
7.013087091230614523e-02 4.847896359740570815e-02 4.832520781004603361e-01
7.917946734735042957e-02 5.026161668662208759e-02 5.058620666929800613e-01
-7.721037169481904244e-03 3.024464382733494869e-02 4.521391335014171564e-01
8.146633831347997734e-02 4.220653040052661092e-02 4.948142571080919594e-01
6.306830330322334144e-02 -2.437301509662765341e-04 4.784056501006184736e-01
2.791585296922832748e-02 4.084516442738871100e-02 4.629761656988497509e-01
7.176987488888919575e-02 1.901743150078020680e-02 5.071567449280375284e-01
-1.396946413437829757e-02 3.264433160649253540e-02 4.530545463202679257e-01
1.098173355283052141e-02 3.215951985308813585e-03 4.442278833291788409e-01
3.749669470741828076e-02 4.076938781303041104e-02 4.658796840247937943e-01
1.587875402903984878e-02 4.278474868703429496e-02 4.605070460130564203e-01
-1.723866946615592796e-02 1.687361769011928858e-02 4.474399464149589889e-01
6.934310191993417472e-02 1.201213570837181971e-02 4.963385824151727022e-01
7.867123045140327064e-02 3.724784433235046877e-02 4.978517401123146446e-01
5.470249656561719520e-02 5.768894730284460787e-02 4.788919609184898452e-01
6.866512520228493233e-02 2.034768642416130702e-02 5.199495580636409597e-01
-1.437033487929967150e-03 2.395063835273981284e-02 4.499041297132677086e-01
3.524586750217940847e-03 2.962921375786864084e-02 4.526565709619221889e-01
-1.232128877978770805e-02 2.162123826498992679e-02 4.487386956864335974e-01
2.216283377639145444e-02 2.757269372211235831e-02 4.555815452042771274e-01
3.727931655637242020e-02 4.495528415311468746e-03 4.523377260877990969e-01
5.123185815580173774e-02 1.434745462536440863e-02 4.622457679473536696e-01
7.555096114968126719e-02 3.128765807623505590e-02 5.058054008331726026e-01
7.280183864015965511e-02 3.328535236204192838e-02 5.185930664247708766e-01
6.232599021382367183e-02 4.200983178003225849e-02 4.760783595123383449e-01
6.409605854395832025e-02 3.679840136410513635e-02 4.752183612156385406e-01
5.301925477237949547e-02 -5.484764468544221262e-03 5.247681987104622081e-01
7.999891185336195643e-02 5.155406510587844798e-02 4.886757752549096279e-01
-1.348330793689844417e-02 8.333450174099091973e-03 4.438350093768686500e-01
6.900897834422853316e-02 1.877812666307544093e-02 5.162716628443390077e-01
7.327566444186114913e-02 5.916939435124998065e-02 5.069085960063409724e-01
2.214404053331141264e-03 2.709484565841134562e-02 4.514773165990484949e-01
5.679403701023406914e-02 3.417102572820662071e-02 5.302897246195344971e-01
6.007410859647342727e-02 6.276490218626990664e-03 5.187076173711432370e-01
7.280303016521125214e-02 3.181924697390980938e-02 4.818883114881265528e-01
3.000324953894112356e-02 1.815255759379127282e-02 4.543244648335693636e-01
6.291388699989755584e-02 -7.840264578151171469e-04 5.037989772369634300e-01
-1.803894167168574800e-02 1.194657322688729394e-02 4.456428457954239031e-01
5.885569144597378732e-02 4.004663665513248129e-04 5.161297943502691776e-01
6.481201589221007725e-03 1.106264548089931112e-02 4.465464871929467061e-01
-1.964271552366490467e-02 2.284153635603593593e-02 4.499311620603230755e-01
-1.773167804672996090e-02 2.310757932964085937e-02 4.496974064262249660e-01
6.146128861599134754e-03 5.271511156831280853e-02 4.686838232732064013e-01
6.056752092335171943e-03 1.118318410562544815e-02 4.465201645761612825e-01
-7.863985290333880621e-03 1.141258727624038828e-02 4.448641411109897636e-01
6.601980269792129263e-02 2.289594310738965639e-03 4.896376477941122296e-01
-2.114620612756481013e-02 1.267345694574700810e-02 4.465086313205777202e-01
7.875259138165376094e-02 5.401673240403345039e-02 5.064683626214596668e-01
7.091975332550391753e-02 3.435980083428929327e-02 5.224691263799934315e-01
2.444321245471824458e-03 7.911516810917323256e-03 4.449909439887624329e-01
6.916487053395094231e-02 2.022480424103893434e-02 5.184149976383900515e-01
7.408775580069285049e-02 2.665616365779351071e-02 5.111010802640997275e-01
6.601538268938993148e-02 1.993939072939975021e-02 5.246792698051425674e-01
7.666157558035426034e-02 3.158949307321352873e-02 5.005066608439278086e-01
6.411701611349165941e-02 1.367643944775557684e-03 4.804076187340290405e-01
6.340838644854170092e-02 1.274431125121267168e-02 4.732388386395151580e-01
6.856635486012449543e-02 6.308550472450520641e-02 5.019960107747588607e-01
7.146073733443854270e-02 4.519601238104360708e-02 5.172642336239222649e-01
7.724560670289458419e-02 6.117318897994233201e-02 4.984317278866071677e-01
6.103814521380887537e-02 4.534774760212741812e-03 4.720966605107747571e-01
3.255057465925313004e-02 1.044298475779162697e-02 4.520950079718225045e-01
7.877390275891769239e-03 4.758200246801055217e-02 4.609452351272931292e-01
9.515856353742723969e-03 3.135545635753687541e-03 4.440378017374171371e-01
-3.774991636447057319e-02 2.798181789730167825e-03 4.424276943828039377e-01
-6.233248223173817361e-03 8.993173948857249855e-04 4.415112777795785481e-01
2.083350505956797771e-02 5.899842905648145647e-02 4.722631158317588396e-01
5.963679613791998679e-02 -6.626659280949916998e-04 4.713423840695071809e-01
-2.277521442215671779e-02 1.829109169618997610e-02 4.494621806148437204e-01
1.336779291113677614e-03 4.496910250432005485e-02 4.584119151355092181e-01
7.017090333218173239e-04 2.546888973494905797e-02 4.506552377354741679e-01
1.303604094643502978e-02 2.848089259266528214e-02 4.537950294735016987e-01
5.309486640382728856e-02 5.981626515349378753e-02 4.798352862042898903e-01
7.147193838898180385e-02 3.454958602359279457e-02 4.800707227939041699e-01
5.845804482985821754e-02 3.380164372180222143e-02 4.719677858116236302e-01
6.962247334831483947e-02 2.446331307070017530e-02 4.798522127742397281e-01
4.495971661234811345e-02 5.844870915571487302e-02 4.766165925406437576e-01
6.981589650313468724e-03 4.437689095792358290e-02 4.591121266149886804e-01
7.353293857867650163e-02 2.441931339572308082e-02 5.098790360708856939e-01
2.870032217307919367e-02 5.941408949003756934e-02 4.754376486104298638e-01
-2.305568898757826002e-02 1.442016405926001103e-02 4.480577046521594942e-01
7.278467157031069668e-02 2.012420247599286394e-02 5.032113217265857807e-01
7.765400008605549687e-02 5.867868944386854524e-02 5.039294689195769061e-01
7.826470280116311351e-02 5.461486848399167010e-02 5.069526116153790785e-01
5.833321351549202588e-02 2.445966572617362753e-03 4.686447191206927765e-01
3.713778694399542252e-02 3.627190316425955158e-02 4.638595406128317444e-01
1.458711580445163150e-02 1.822553520750951062e-02 4.505013364028161438e-01
7.593021261056295823e-02 4.567794925251043164e-02 5.101112242594341151e-01
-2.086828394369070333e-02 9.042339972552635580e-04 4.411001020942014739e-01
7.676728738827368059e-02 4.878983358309940677e-02 5.086126861386035536e-01
2.878996434350591938e-02 4.204383226953600089e-02 4.636008874377945954e-01
-2.278106409994941350e-02 3.477096164479032830e-02 4.557470497829855804e-01
-1.632227766547264449e-03 4.150126144057449812e-02 4.565216631345651588e-01
3.964365378151861463e-02 2.072353496099891765e-02 4.587996705870851510e-01
6.287882795288712856e-02 2.837086892394181589e-02 4.737849781059244036e-01
4.397423668851180301e-02 -2.795699357290664950e-03 4.549805983406217114e-01
-3.185405723723088063e-03 1.331945587353625636e-02 4.459167525939023435e-01
8.308798425349456229e-02 4.545693711906674539e-02 4.982464801931592580e-01
5.990201712930825345e-02 5.880923965217695754e-02 4.817440415641869311e-01
-2.560507765951214321e-02 1.066564180138258530e-02 4.466383220446507041e-01
1.878487351007746345e-02 1.394374658242088227e-02 4.498879391920397319e-01
-1.744284345858894414e-02 3.262026819762352953e-04 4.410306220944086308e-01
7.266317992432895501e-02 3.350652089627813301e-02 4.814407012252451823e-01
6.342189214692750543e-02 6.054497937549955383e-02 5.020797606106440769e-01
