-6.251441734275575701e-02 -6.019169004121528027e-02 4.362714978454224068e-01
-5.826459437775492745e-02 -9.638236986890751090e-02 4.519844878651296805e-01
-1.040524380709010321e-01 -1.152102410298007501e-01 4.527978800541668791e-01
-9.270096315692218092e-02 -1.121601256298673938e-01 4.535978951406570703e-01
-1.117346864830711939e-01 -1.189181992270318677e-01 4.749266444160613054e-01
-2.746213551091396601e-02 -1.137641843521077778e-01 5.519494958958955921e-01
-8.410362865124039466e-02 -7.950575388972982993e-02 4.373584642399605538e-01
-4.652885676851899188e-02 -1.017762608118190359e-01 4.607426786195006896e-01
-5.529113446334938536e-02 -5.626553761073758986e-02 4.372048122681093107e-01
-7.311370970773017897e-02 -1.102063756785904847e-01 4.646692504977368854e-01
-8.614408513949108059e-02 -7.024524462882546227e-02 4.381135981898192644e-01
-5.136761721501151290e-02 -6.388423107243244858e-02 4.389742669970613798e-01
-9.850937626933911617e-02 -1.064210256042076586e-01 4.470376990359183900e-01
-1.095753819416830366e-01 -9.319614306740982290e-02 4.476949206840836193e-01
-1.140168418342606821e-02 -1.255630899490546015e-01 4.950781404176276546e-01
-4.005115508788349710e-02 -1.089680636904881011e-01 4.699000686986201103e-01
-7.528949283636436618e-02 -1.146017881930681687e-01 4.731901249419233624e-01
-3.118207919659596317e-02 -1.163953029797625549e-01 5.465676258426176437e-01
-7.058366423771673948e-02 -8.619657787808016058e-02 4.418575373362467196e-01
-5.188804109845886192e-02 -7.708841914984070065e-02 4.429355015603758106e-01
-9.882452939058289365e-02 -1.069556491756352146e-01 4.469744164644399720e-01
-2.370694031661748843e-02 -1.216769308581863579e-01 5.424612114399723906e-01
-5.786213684899477183e-02 -1.194814420882489708e-01 4.980915590220177380e-01
-1.175716456234187496e-01 -1.013660167752621771e-01 4.555284223437793822e-01
-3.651920486710674707e-02 -7.651985877995207130e-02 4.438329168818287429e-01
-5.312153773115664557e-02 -1.153221631080405402e-01 4.815087836873751526e-01
-5.620054767441035742e-02 -7.808020933284520737e-02 4.420495444266874796e-01
-9.361757253007349511e-02 -7.786447281054247049e-02 4.420271680715566198e-01
-2.551189972862687172e-02 -1.187802458110256004e-01 4.840725760631320873e-01
-1.003522486620651855e-01 -1.034865687952688934e-01 4.468039205942810899e-01
-9.821234906105379137e-02 -1.166567885016486922e-01 4.984641953310955942e-01
-8.029158876940092893e-02 -1.186996938001670110e-01 4.815925161918055974e-01
-2.948678974177098427e-02 -1.209725553293986983e-01 5.400653092191336491e-01
-6.929043430126224923e-02 -7.150648010424959233e-02 4.360818635260528819e-01
-1.844634892438956966e-02 -1.013463370848514677e-01 5.618716818929624379e-01
-3.005678896432929792e-02 -1.020615855254084908e-01 5.494872551576640562e-01
-1.182422553314704528e-01 -1.159430592869356985e-01 4.762032373162800591e-01
-3.917274711204042636e-02 -1.220047280915241006e-01 5.263487250774118165e-01
-1.133869876557591500e-01 -1.008445441616984822e-01 4.506672544117732992e-01
-9.654995261280925611e-02 -9.818136452148593096e-02 4.449299604899243366e-01
-1.137648055681540343e-01 -1.003864963494303514e-01 4.510545716642122560e-01
-6.494142823841059231e-02 -1.159568249731539463e-01 5.194670934897798187e-01
-6.566831378759586946e-02 -1.128062112099289249e-01 4.729440220958952001e-01
-3.020149907754792612e-02 -1.053689902583809512e-01 4.642125859228771190e-01
-4.401584132396786642e-02 -1.216922359009088433e-01 5.114691283914438724e-01
-2.918677053045122885e-02 -1.239067542983694065e-01 5.294207095210867742e-01
-4.223793894414189926e-02 -1.085549901843958776e-01 5.363244094816222995e-01
-2.074824257178960879e-02 -1.220397492992531807e-01 4.894471381764374796e-01
-6.650412738392919021e-02 -9.824547896748192510e-02 4.514002759414619259e-01
-1.021809167884122904e-01 -1.212610719047642477e-01 4.687683741490524802e-01
-5.777711896598981128e-02 -1.116266844667504338e-01 4.728995965770825816e-01
-1.018168963500891561e-01 -9.991708103032558019e-02 4.454964142485667300e-01
-2.739708938034078264e-02 -1.096681810438247667e-01 5.543765414865398089e-01
-7.541627508740993135e-02 -9.897376772761286301e-02 4.504256659948209229e-01
-1.855474227125635672e-02 -1.214551054765506816e-01 5.451053587525824806e-01
-9.747166678524347982e-02 -1.077744050475204635e-01 4.475915816716884432e-01
-1.112357048771499407e-01 -1.188609347837129571e-01 4.676174725089556894e-01
-9.963819474484281180e-02 -1.158263280591953631e-01 4.978926239641159879e-01
-2.091767895685251594e-02 -1.097274998206788088e-01 5.583862183783359079e-01
-3.937842862267987298e-02 -9.081059462664427262e-02 4.523750853402431771e-01
-5.672710560450971301e-02 -1.120986112556472264e-01 4.740805722028813007e-01
-7.026276861603267254e-02 -1.161414523139938509e-01 4.784140621197833787e-01
-8.340251971420088728e-02 -1.193032180320064556e-01 4.827382738192932399e-01
-3.495723748793476415e-02 -1.075260528573052099e-01 5.436804048974077652e-01
-1.054992070680947913e-01 -9.891011548431376255e-02 4.458967521032722869e-01
-1.049802730775277297e-02 -1.235251449059706075e-01 4.887810979584956694e-01
-1.849986495926329161e-02 -1.268689421154499675e-01 5.092107005148538423e-01
-2.568708997711019112e-02 -9.843503341039011589e-02 4.554976350734022961e-01
-6.718384777069204283e-02 -1.202682968071838304e-01 5.006857239751097977e-01
-2.676081597611857515e-02 -1.242473428545206870e-01 5.311885272003187275e-01
-6.652683699986683408e-02 -1.062975453778699508e-01 4.604806612375195174e-01
-7.604473861651601940e-02 -1.158794827449880493e-01 5.136866912244907324e-01
-9.625303661459755356e-02 -1.202951678235414240e-01 4.760980949495627335e-01
-3.440387641644197803e-02 -1.233712517668197478e-01 5.226494031158819276e-01
-1.720756199419607238e-02 -1.235116476589601803e-01 4.914581159725397996e-01
-1.939502562693614859e-02 -1.001557569207118525e-01 5.617417230431333008e-01
-6.248793538538453124e-02 -1.025243391034646456e-01 4.568915201555175942e-01
-9.253268175775412885e-02 -1.195101032869661795e-01 4.951103091323369454e-01
-3.006116860087020004e-02 -1.225696036162184366e-01 4.989825214680908005e-01
-7.799432315010837447e-02 -6.319545112442299939e-02 4.339399114832973581e-01
-4.267659791832980470e-02 -1.150677091604938168e-01 5.351199636364001311e-01
-7.034797596484297644e-02 -1.194749666884692696e-01 5.083397972245610186e-01
-8.891037131474638366e-02 -8.867907457390650228e-02 4.412808651097548940e-01
-2.767889649466448790e-02 -1.251897650604853751e-01 5.223915523482826062e-01
-9.355572436818783422e-02 -1.118580630013006755e-01 4.529121002578165855e-01
-6.263475766948953249e-02 -1.197509366238432849e-01 5.054047091048001761e-01
-7.113587604237595063e-02 -1.197824560274597105e-01 5.053666571319719303e-01
-6.843331331852392507e-02 -7.193796529133272832e-02 4.364369507068495690e-01
-9.768421009576407077e-02 -1.062948269308501698e-01 4.473371939140267650e-01
-5.198204289539460482e-02 -1.199411853413190482e-01 5.208762180017082466e-01
-3.223352893894523841e-02 -1.109994623633965422e-01 4.730716521860189872e-01
-1.068690785366217637e-02 -1.287429303877744013e-01 5.110227643369589234e-01
-1.265033449625003331e-02 -1.244509438678390451e-01 5.334582187151213351e-01
-4.685680130490279399e-02 -1.191164300206716820e-01 4.936671815686187736e-01
-4.995083058413099519e-02 -1.133876237970504047e-01 5.305283424353701704e-01
-1.517869523273299159e-02 -1.189121100464440722e-01 5.496854216566096074e-01
-7.464295798695393114e-02 -1.053964975239612134e-01 4.566806126026303203e-01
-7.604092119872557509e-02 -1.179693733174859982e-01 4.802479497414837706e-01
-6.906852776597781352e-02 -1.159566227369194791e-01 4.786758395670779320e-01
-8.182604359702565222e-02 -1.136861113327438527e-01 5.129762543449893908e-01
-4.269155914403437863e-02 -1.212273256220439549e-01 5.266782472899830259e-01
-9.557009308854715057e-02 -8.598971651337422584e-02 4.413742331135636077e-01
-3.410970180943574681e-02 -1.118901442546723912e-01 4.752129484253727609e-01
-5.248812607579089046e-02 -1.169269279581365700e-01 4.858694118104255333e-01
-8.289208785851544248e-02 -1.073214524222199234e-01 4.548953960463936741e-01
-2.920856702649920339e-02 -1.226796384012494717e-01 4.984597889106908708e-01
-7.060323933442785860e-02 -7.460112320744312353e-02 4.364670065552901379e-01
-8.157957562200549018e-02 -1.183362045033020810e-01 4.795429025911521204e-01
-8.619749460818804110e-02 -9.253476877323855987e-02 4.433932324819622184e-01
-3.681622991208328977e-02 -1.138937918155511070e-01 4.790820647448519876e-01
-1.186476172965763576e-01 -1.126452439862458133e-01 4.697364331911256796e-01
-5.169345756278506676e-02 -1.203557511971054816e-01 5.031259604228279780e-01
-4.139719530300618733e-02 -1.003195438757104180e-01 4.598785760549759516e-01
-9.428025656756308659e-02 -9.022131986146796068e-02 4.414165364295859484e-01
-1.168749204630442351e-01 -1.028382635548003576e-01 4.549949860615180031e-01
-5.202550627145766104e-02 -9.523584192390846526e-02 4.530549137090691403e-01
-7.591396010880230305e-02 -8.907163158981390438e-02 4.430731204000519230e-01
-1.730779961609358805e-02 -1.270034969497015331e-01 5.232207258035949105e-01
-3.467452073179994043e-02 -1.232700829631008660e-01 5.230472701506795330e-01
-2.071207192323193044e-02 -1.084342534388954005e-01 4.646685103681272300e-01
-3.206843175373103733e-02 -1.217692113753418570e-01 4.973969244641409659e-01
-5.841668555463121193e-02 -1.143785879662800736e-01 5.247766268771252296e-01
-5.584133727814041825e-02 -1.191916715991150344e-01 5.182368016682483702e-01
-7.372721255777830995e-02 -1.135184233974883411e-01 4.715713345762735931e-01
-4.267780518620947761e-02 -1.166336249370745204e-01 4.851136649629236297e-01
-4.097354371028825992e-02 -8.400334880769295964e-02 4.475702091958005946e-01
-5.615183352313008608e-02 -1.119771978243799537e-01 4.738784209204648934e-01
-7.724800104685201896e-02 -7.154827791257839520e-02 4.346668286683084137e-01
-4.385390732227029131e-02 -1.176250697272227252e-01 4.878747528912075748e-01
-6.245779713476420913e-02 -1.173987269380766391e-01 4.874666296874446969e-01
-1.502805146879885451e-02 -1.276926607933928370e-01 5.083027412480690677e-01
-3.379381348992427370e-02 -1.160245844430690537e-01 4.830858496119724843e-01
-6.808640984647597316e-02 -9.494852392311661782e-02 4.484385156257713612e-01
-2.492095388175765217e-02 -1.225628299361273127e-01 4.941081032989695920e-01
-1.152064436354970078e-01 -1.125423622140975938e-01 4.591937983003064883e-01
-5.533442198082198782e-02 -9.318545579869273732e-02 4.502430870792428208e-01
-3.189280057650838857e-02 -8.464865828101725276e-02 4.474850282201810470e-01
-8.677811010294848859e-02 -1.178283510945805357e-01 4.707606817803089427e-01
-3.267269232925931050e-02 -1.117003166329513797e-01 5.473893919303982614e-01
-5.543328961102151481e-02 -1.178610013802835754e-01 4.898788416838903426e-01
-2.984056302373149644e-02 -1.032155668378949426e-01 5.504095289923922607e-01
-8.590860547614279086e-02 -1.164109738441807262e-01 4.662889037757694255e-01
-3.552998359700587638e-02 -1.230289791102542885e-01 5.234751142994269468e-01
-1.356489993366855919e-02 -1.188842115612190747e-01 4.792401447951261662e-01
-4.695907658933651599e-03 -1.290039185381079700e-01 5.095310501939805947e-01
-6.527844692962815609e-02 -1.161415567078376565e-01 5.189202442808954485e-01
-8.246572864627338406e-02 -1.199609129394389739e-01 4.867516152717202838e-01
-1.949620667643018473e-02 -1.223527522217520425e-01 4.894775056841745853e-01
-1.713694307652481597e-02 -1.272769795409495752e-01 5.103712434589174896e-01
-3.545131127833457685e-02 -1.211084287084151639e-01 5.344884981414385061e-01
-3.729235890109004053e-02 -1.210829790905890574e-01 5.318634695463962947e-01
-2.610307098537556145e-02 -9.912168711134107524e-02 4.561914378436038309e-01
-5.500936597639466408e-02 -1.166324303856484251e-01 4.853317382176486894e-01
-1.038712929160296450e-01 -1.189883130759315649e-01 4.862251008666066965e-01
-8.181617069094793138e-02 -7.066415663192042451e-02 4.347733858597495060e-01
-3.996112465755251308e-02 -1.205018235987362768e-01 5.315561850309630243e-01
-1.785116544515550838e-02 -1.033548388462505879e-01 5.613996495559486766e-01
-2.625938144103189334e-02 -1.083505971416361957e-01 5.565320564921640845e-01
-1.172160825733995493e-01 -1.128218096404863813e-01 4.643511523961155740e-01
-9.498915403903264443e-02 -1.200671999781605243e-01 4.833237125905163745e-01
-1.098968881411907517e-01 -1.144640805449593512e-01 4.561756132814839826e-01
-6.912578038515909684e-02 -8.577201082908610108e-02 4.419715615450466317e-01
-1.206602199900730366e-02 -1.240832779836412159e-01 5.345524580858850294e-01
-2.883643579510554444e-02 -1.187492481640194664e-01 5.453253700747411337e-01
-9.884098749202427370e-02 -1.216213314504989429e-01 4.644349811593802002e-01
-4.485839805041762912e-02 -9.155537525513572639e-02 4.522777534472258165e-01
-4.936211646921111890e-02 -1.187348414641960365e-01 5.277972827122164867e-01
-5.221973170159129735e-02 -1.157192653036033386e-01 5.278432203523366617e-01
-1.850720293078498765e-02 -1.174690104123359696e-01 5.521067277369638981e-01
-9.116710191665335083e-02 -1.171937461808044423e-01 5.026851418595672527e-01
-5.187646956303235829e-02 -9.381838734873676477e-02 4.518775724461948085e-01
-7.912926902532751994e-02 -6.338905364587561764e-02 4.345789936065750925e-01
-1.439280569498864980e-02 -1.279008401568699216e-01 5.211191126306076171e-01
-4.869301160325379546e-02 -1.188346156869627412e-01 4.927819542178363266e-01
-1.019853784621934795e-01 -9.775601321827098733e-02 4.447904139497446119e-01
-1.515789432170929624e-02 -1.202999511131565280e-01 5.472696979855816712e-01
-4.797276609381500440e-02 -7.697555137996782426e-02 4.435739319888863941e-01
-4.240078588669408260e-02 -1.097371566073124249e-01 4.713076648192293661e-01
-1.002139733800418014e-01 -1.161989584186600977e-01 4.962059579545238797e-01
-2.335856290552975473e-02 -1.086714707262101121e-01 4.659865516364820603e-01
-5.358059705368187903e-02 -1.113236695007954469e-01 4.726384649217191258e-01
-8.056955443529209560e-02 -1.202810103864927344e-01 4.949886066636565163e-01
-1.123133307292229488e-01 -1.084096806871671509e-01 4.532405418871744973e-01
-7.119694533975948203e-02 -6.045660284187567152e-02 4.343026492066957567e-01
-5.268823560009645163e-02 -1.195119059943064027e-01 4.973034088781933537e-01
-3.170281138909982616e-02 -1.006038412745130783e-01 4.591512259509215044e-01
-1.506242930545419884e-02 -1.219351038662375569e-01 5.432541870378951865e-01
-4.487648838453239808e-02 -1.059510565340213706e-01 4.657890159491575033e-01
-4.358002025522179912e-02 -1.218040634432467073e-01 5.196631060903298405e-01
-4.776689969578070544e-02 -5.914662125898570433e-02 4.384577424552623115e-01
-5.313781416843591648e-02 -7.824271163694690445e-02 4.429623756283025959e-01
-4.747880925597888074e-02 -1.116225818024018657e-01 4.740037757542083785e-01
-9.118520327371341938e-02 -1.205255544232655823e-01 4.763256644786010296e-01
-3.446774787612728874e-02 -1.010988534521216481e-01 4.602831881759594235e-01
-1.183794684947691092e-02 -1.287313801224497511e-01 5.146911258622607344e-01
-4.026521506353156199e-02 -1.216597665979605308e-01 5.049964330632604748e-01
-5.966319627088578770e-02 -1.196065194439456941e-01 5.145927578913918055e-01
-9.641178724164639613e-02 -1.089667995298825437e-01 4.488867392224052955e-01
-7.660007330611426357e-02 -1.198360928476832482e-01 4.878439570774482092e-01
-2.668113267986912951e-02 -1.207480847330867774e-01 4.901614540942074716e-01
-8.035337592732866296e-02 -1.200725485982450380e-01 5.004344284090999073e-01
-9.091019867157068557e-02 -8.839172429212026338e-02 4.409581891590751979e-01
-8.209037764590867980e-02 -1.201378112239770563e-01 4.892328340654211183e-01
-1.140545179824190881e-02 -1.233211542974336217e-01 5.364389998550369576e-01
-1.962063617996181661e-02 -1.264674522602533269e-01 5.073219586342676557e-01
-6.639166668693124995e-02 -1.177625014212935889e-01 4.857774436448422106e-01
-6.480993736548601447e-02 -1.155833245907954554e-01 4.796548624986190501e-01
-4.937420498910195105e-02 -1.210142355440026601e-01 5.091851092072134932e-01
-2.257426902443902469e-02 -1.222927970039938417e-01 4.915368148898270895e-01
-3.151145752840294606e-02 -1.050906720086313972e-01 5.482081857640775935e-01
-9.570671420273661745e-02 -1.152592912029889310e-01 5.011159750844146332e-01
-8.889006610559746502e-02 -8.466987447240223452e-02 4.398842227791245896e-01
-4.883475302884478925e-02 -9.884118897135650561e-02 4.568939331226041789e-01
-5.957538577511791583e-02 -1.055615710744556429e-01 4.615380892928135359e-01
-4.958545501250907761e-02 -1.160830907358078173e-01 4.834641526172918646e-01
-1.029145169799326048e-02 -1.254951312631910898e-01 5.306949418408241081e-01
-4.823860591578042062e-02 -1.205251602948010786e-01 5.020338475454224625e-01
-1.080487834742329539e-01 -1.155090109688933220e-01 4.889847823022683837e-01
-3.977730143765344228e-02 -8.477401265108486239e-02 4.480824896057923890e-01
-7.461254027708742742e-02 -8.632031120024430404e-02 4.414145520575737391e-01
-1.239964021239632272e-02 -1.262716590882708989e-01 4.976680640195558780e-01
-6.444123747274142777e-02 -1.183161321799501148e-01 4.897632643547942255e-01
-4.445478894809522241e-02 -1.102674804666557706e-01 4.723849847798266555e-01
-7.186615324041695230e-02 -6.755622897515456415e-02 4.344125433018052873e-01
-9.842576749911632894e-02 -1.158830142094885440e-01 4.987985609538860277e-01
-8.171742659906502948e-02 -1.057651494899698036e-01 4.537094681321398038e-01
-5.306700170658289195e-02 -1.023440549030535524e-01 4.599408007514839691e-01
-7.753304800676998065e-02 -8.391449702642127251e-02 4.394482812013716932e-01
-3.356869380735966191e-02 -1.097675671905488787e-01 4.710130385618397919e-01
-3.282414347170310720e-02 -1.115365813317134441e-01 4.741148731970686869e-01
-5.665813679432568639e-02 -1.060019161320128050e-01 5.293821420311572989e-01
-1.008914929631470336e-01 -1.145237430312993077e-01 4.514768771919366874e-01
-3.340605020268987146e-02 -9.525729570961916082e-02 4.554988428769620734e-01
-1.037112277824948914e-01 -1.178647752319759157e-01 4.888935080642075603e-01
-4.529357915384023964e-02 -1.188678885647097005e-01 4.923952432137293500e-01
-3.396830483436390907e-02 -1.221402401612941557e-01 5.325588130809414400e-01
-4.928544336987032010e-02 -1.194149106831565443e-01 5.273238890952838265e-01
-4.759330823198915789e-02 -1.176261822552070319e-01 4.877433739243570154e-01
-8.050955370938495115e-02 -1.190340615306316602e-01 5.062474513703598689e-01
-6.281527004162122674e-02 -1.173745056900296901e-01 5.190132349021543412e-01
-1.112151921109058306e-01 -1.190066926034344802e-01 4.668257903539780318e-01
-4.500227287642405427e-02 -1.162650006532460339e-01 4.840060891371825158e-01
-1.119239532827652761e-01 -1.190034548584307239e-01 4.732617826691930540e-01
-6.145604310087769695e-02 -9.463391753521840921e-02 4.497642232553191177e-01
-1.432881201426364041e-02 -1.171183036931301436e-01 4.758375035370706052e-01
-4.663397614392563589e-02 -6.142284012293008216e-02 4.390578815912087873e-01
-4.470181309479380471e-02 -1.214805439938425879e-01 5.217037272898661371e-01
-3.035525927164770682e-02 -1.097654021880832970e-01 4.708454930566993157e-01
-2.423926876249376389e-02 -1.237651717781987348e-01 5.365610832310069300e-01
-1.414978392056757614e-02 -1.272776219464844261e-01 5.034115158102759890e-01
-3.951141755059413979e-02 -9.693256323323019841e-02 4.572242096142047352e-01
-6.424317320791061992e-02 -1.194471705501964215e-01 5.102071215893683176e-01
-5.483360290578475488e-02 -9.406331130961717579e-02 4.511606693767730158e-01
-3.936986008912257001e-02 -1.068471075454885677e-01 4.672082050017596355e-01
-9.105232565813164980e-02 -9.386651971692072660e-02 4.431101874018907316e-01
-7.464137614346222360e-02 -8.782990357518201396e-02 4.424377050888304019e-01
-4.007519789628537915e-02 -1.202431107035032004e-01 4.964938712258687992e-01
-5.651456747181850260e-02 -1.197357679936000563e-01 4.996131342423079102e-01
-6.791063815172419804e-02 -1.197041513965656223e-01 4.958184694308295781e-01
-1.854447430279538081e-02 -1.267166608654589077e-01 5.066039829816233464e-01
-1.166200083092199247e-01 -1.154079778408647478e-01 4.668430957014656491e-01
-5.442447147282219316e-02 -1.206196393452558385e-01 5.132184027562889383e-01
-6.351851161440680293e-02 -5.764848121296858169e-02 4.357064675448507618e-01
-1.822273679885571748e-02 -1.262745028071159403e-01 5.269689492733103942e-01
-6.908497883837076692e-02 -1.154127590855482111e-01 4.776670511115573836e-01
-9.937353857165205639e-02 -1.151473855475821234e-01 4.525258848651734223e-01
-1.076381274047198827e-01 -1.039813243001883325e-01 4.485924637058210651e-01
-3.000973463955285483e-02 -1.127240215520289579e-01 4.750493898373491786e-01
-1.165561611756909949e-01 -1.031397175266130090e-01 4.545378883817876026e-01
-5.460371528669098751e-02 -7.024968600135432506e-02 4.402125306129244242e-01
-8.969269042143798720e-02 -1.200357534341369853e-01 4.865540192524950847e-01
-4.081657935119926972e-02 -7.543760435975052636e-02 4.435695621846192926e-01
-4.905000740917014879e-02 -1.002392231723791549e-01 4.584173543944838891e-01
-2.142709877496053877e-02 -1.099305472585269255e-01 4.668401401831039355e-01
-1.134965190866877582e-01 -1.141847381287868224e-01 4.591407888558569073e-01
-1.086023843412475542e-01 -9.910010850869160892e-02 4.467287450518386271e-01
-6.248464233133755458e-02 -1.147253481880763926e-01 4.782649531413746269e-01
-9.677751601067084708e-02 -1.212856727846299831e-01 4.674828776771632333e-01
-3.215343596032751300e-02 -9.234221637959806606e-02 4.531500424045097342e-01
-7.738029778938142200e-02 -1.202582324032563516e-01 4.943829596585754271e-01
-3.200152805187434640e-02 -1.158239047454766579e-01 5.458570805697603445e-01
-1.047698901848095748e-01 -1.019808241058171167e-01 4.466506761071118436e-01
-6.838421579902044523e-02 -1.096956430383703718e-01 4.657370008819576301e-01
-8.396210313761424959e-02 -8.824297947774692452e-02 4.413960599261269047e-01
-2.365344484403528180e-02 -1.259830423702681390e-01 5.155684892296719113e-01
-6.158737236833542600e-02 -1.094577980724342758e-01 5.247986958135679725e-01
-1.533441318315362061e-02 -1.235618347776379078e-01 5.377122373754050777e-01
-1.055082066217533782e-02 -1.283246118579669248e-01 5.242262177265959444e-01
-5.582593500064234049e-02 -1.069062785514831027e-01 5.297972188152640927e-01
-2.712724611684155795e-02 -1.209324052340808586e-01 5.421694859151080514e-01
-5.892020685659262597e-02 -1.075868751909477561e-01 4.645576430349444563e-01
-9.258324598517195247e-02 -1.057283108412995914e-01 4.491815624904701432e-01
-9.898409934594856741e-02 -1.215608329676595295e-01 4.627811505610744391e-01
-4.221037800501839521e-02 -9.662824891497047430e-02 4.563888594529313947e-01
-7.441699647752664237e-02 -1.140545030498519852e-01 4.726102906092186640e-01
-5.951315499768341372e-02 -1.011594127267071291e-01 4.562653458785287941e-01
-2.151444562689495618e-02 -9.906890720796675265e-02 5.607611547361063264e-01
-1.152341640048147042e-01 -1.177350221538277092e-01 4.754771750050763579e-01
-7.777697992105973845e-02 -1.146447952078453458e-01 4.719554724036553184e-01
-9.295638273855733047e-02 -9.597121848087265816e-02 4.440349105749700764e-01
-1.162911624660083881e-01 -1.171734630298054691e-01 4.735365073270641489e-01
-5.625911912023423556e-02 -1.061857071382242557e-01 5.296285157668771948e-01
-5.295091572214449122e-02 -9.862212801063201251e-02 4.554355263659232711e-01
-9.303279390088342593e-02 -1.200779029421464444e-01 4.851194443375007048e-01
-9.480167001642537949e-02 -1.183730275588402714e-01 4.980553500909205566e-01
-3.129683154192706984e-02 -1.238003073678999588e-01 5.114593289065834103e-01
-5.788207949845201178e-02 -1.153955718004115311e-01 4.817832036535747986e-01
-5.033843631274131925e-02 -1.206516466026378576e-01 5.054445827606341979e-01
-6.161643931550431913e-02 -7.461717134510896521e-02 4.393543219384244414e-01
-6.933222693115689839e-02 -1.200914980557078876e-01 4.990529455532822789e-01
-1.085309987389173891e-01 -1.194391401851006562e-01 4.778638769712238443e-01
-1.072743974809092365e-01 -1.184685742578446138e-01 4.836508484725366430e-01
-8.439176472515341754e-02 -1.202248024290404338e-01 4.917658349378852267e-01
-6.122264847668742321e-02 -1.153423240242858888e-01 4.804054734789318659e-01
-2.613704491102445543e-02 -1.189731263479556767e-01 4.849611719052491221e-01
-4.333445953967415137e-02 -1.156988385222860183e-01 4.825556131517457770e-01
-9.994922337926248623e-02 -1.193026138787877111e-01 4.891179185870355717e-01
-1.168970737047137359e-01 -1.031069933728830101e-01 4.551363800207102184e-01
-1.123231406455398596e-01 -1.033178933039121256e-01 4.499868241779955147e-01
-4.171952955745306807e-02 -1.180018330799218196e-01 5.335139811922273712e-01
-2.890858226581166646e-02 -1.173276959481815984e-01 4.833846119840858324e-01
-1.517132833256007625e-02 -1.263247198532002902e-01 4.996780455766819951e-01
-1.135915059849459952e-01 -1.069378220382769668e-01 4.531144766816622149e-01
-1.085708299838886032e-01 -9.530511230487374863e-02 4.466120523492925765e-01
-8.728319059992391271e-02 -1.123138527190281205e-01 5.085569563215655009e-01
-9.301297964617127878e-02 -1.137470569701127115e-01 5.036576608950766865e-01
-7.147130845571261770e-02 -1.168901717811030583e-01 5.137926699536735642e-01
-4.583217014092907243e-02 -1.123799988970325681e-01 4.755734657220321293e-01
-1.118940093364506061e-01 -1.185822773904392224e-01 4.640324622239090369e-01
-2.981885431782925130e-02 -8.894913866382778145e-02 4.499086425004789058e-01
-3.810847948137962432e-02 -7.746710664255543333e-02 4.444523437189615844e-01
-8.552940789999760596e-02 -1.100267845272244610e-01 4.563728556722825291e-01
-3.473717896599831656e-02 -1.148460006132869526e-01 4.809663650573863247e-01
-4.295830828367787346e-02 -1.090965489874824307e-01 5.359824653719927889e-01
-9.563805546371371979e-02 -1.179364138044933508e-01 4.990804006299579543e-01
-1.817166047203949697e-02 -1.228830988850075773e-01 4.901193357767666403e-01
-6.790392321934976549e-02 -1.182201050412758359e-01 5.132895274669219132e-01
-1.264488969521591899e-02 -1.235413603540732042e-01 4.893971170517932845e-01
-6.937826259858337341e-02 -5.439142671499593712e-02 4.365476514128353025e-01
-7.682268575734503557e-02 -7.837754554793145700e-02 4.365459207359960736e-01
-6.248545180105153501e-02 -1.185696379674161111e-01 5.166335158332933108e-01
-5.643763500544764916e-02 -5.843233078648356338e-02 4.372997944739607790e-01
-3.565235547238411462e-02 -9.213678822805564106e-02 4.535522192790626406e-01
-1.123463800940172480e-01 -1.185193524519004005e-01 4.652580568066231326e-01
-7.748501434662111165e-02 -8.859073804528058704e-02 4.424902024023348313e-01
-1.796028157378926418e-02 -1.270133735228463623e-01 5.092125003604101030e-01
-2.485381870018357059e-02 -1.200613387998899911e-01 5.453962896593430587e-01
-5.339372004932203125e-02 -1.207506966195573961e-01 5.098629032744087519e-01
-8.603340329856632579e-03 -1.283749623840080289e-01 5.251118512912411607e-01
-3.279220870504710034e-02 -8.446489095967053828e-02 4.476194426445675445e-01
-6.134336902643801326e-02 -8.908970924444344075e-02 4.458121608307394346e-01
-8.657446951872671548e-02 -1.177739423915978439e-01 4.739684343450271120e-01
-8.889636964826645726e-02 -7.209352588682879648e-02 4.402533849003610888e-01
-5.864786278899925681e-02 -1.192795679169189049e-01 4.970975565680159636e-01
-7.136152253826290315e-02 -8.722694875125046321e-02 4.423576332765628560e-01
-9.867492230459638802e-02 -1.189023162619761848e-01 4.928141470474598496e-01
-1.091035892464011781e-01 -1.130244357911902170e-01 4.899042919653939787e-01
-5.941245280391889427e-02 -9.639265653483630736e-02 4.517350600041425412e-01
-1.042268347505607706e-01 -1.218556663576421673e-01 4.596604485832153086e-01
-2.058546874871484966e-02 -1.205824245989559063e-01 4.854180911991353709e-01
-4.916205299851577476e-02 -1.160767568417975931e-01 5.296859157763473824e-01
-4.032445593521111898e-02 -1.154424718804653999e-01 4.821664392894478568e-01
-8.894878384395001059e-02 -1.201367193935624078e-01 4.826685391494682231e-01
-8.579346528909098657e-02 -1.200375835011164988e-01 4.942615631778067287e-01
-2.051363841579766090e-02 -1.265970865658277711e-01 5.129406260031331710e-01
-4.305747696700593097e-02 -1.163822647012821426e-01 4.843892629164398556e-01
-3.431195474791081529e-02 -1.231767234711331205e-01 5.249282814824099974e-01
-2.432145022706699161e-02 -1.190076545170261069e-01 4.838967853240017658e-01
-9.503702162679161791e-02 -1.210016665567754529e-01 4.700681224269580016e-01
-6.260786867334862393e-02 -1.196883939170489963e-01 5.090375753704547979e-01
-1.987891503815892441e-02 -1.244637394083444731e-01 5.347711712605246470e-01
-4.527009445987226904e-02 -7.677535388221312651e-02 4.439685401022387401e-01
-1.028351211593651199e-01 -8.607774585890326513e-02 4.471915960284801317e-01
-5.579801550840506053e-02 -1.186545548549662182e-01 4.930699753024420651e-01
-1.127563422591950915e-01 -1.186217087344759447e-01 4.744429257803248201e-01
-6.955853588047120062e-02 -1.181261222880008177e-01 4.845263335348544143e-01
-1.905361849596406629e-02 -1.113060589663546207e-01 4.677852974625266169e-01
-1.456580258485820276e-02 -1.202142129887181221e-01 5.474288320825995147e-01
-3.944865961188211145e-02 -7.550539953829250861e-02 4.435908145396835756e-01
-6.178896557446862670e-02 -5.995991372216425558e-02 4.364153389873692279e-01
-1.789785377395957180e-02 -1.228280311830331761e-01 5.423800700081682358e-01
-6.798753580391404816e-02 -7.108574304554560186e-02 4.363404780046356013e-01
-8.614111829283092533e-03 -1.275351769959874038e-01 5.275371902178638273e-01
-5.682872478582108589e-02 -1.140807881737850443e-01 4.784520241971513266e-01
-4.613429965294973956e-02 -1.027505509179509058e-01 4.619327880541273523e-01
-4.873683799330748301e-02 -1.190312164573557596e-01 4.936289228710667998e-01
-5.909051931010488729e-02 -9.739330792418617044e-02 4.526999573927345533e-01
-5.394274976255907655e-02 -1.194990107759385661e-01 5.197911676554306526e-01
-8.228827947777753171e-02 -8.543669855001313762e-02 4.398556592959961820e-01
-3.386609957447280633e-02 -1.230235982292927216e-01 5.272662219919608262e-01
-5.730386437273013445e-02 -1.087121999816432483e-01 5.284029035130720642e-01
-2.006180609697226849e-02 -1.115116734470596033e-01 5.575973422198393648e-01
-8.940157506999421577e-02 -1.183100745760764239e-01 4.720120691824061798e-01
-9.901263941608791364e-03 -1.242393690650332866e-01 5.333535580168674572e-01
-1.765712446244862080e-02 -1.247133665453238616e-01 4.955525334172531382e-01
-2.927072894171410533e-02 -9.431877668597317410e-02 4.536587552088818809e-01
-9.658360163138147991e-02 -1.107533593978911601e-01 4.504550497994143088e-01
-1.516817160993787043e-02 -1.280284200552679330e-01 5.152649177302325301e-01
-3.722444363188274347e-02 -1.222410783131783196e-01 5.065324922839938848e-01
-4.419820072747035478e-02 -1.214114366816951424e-01 5.074351019968180720e-01
-8.278792663085095260e-02 -1.065952757637603776e-01 4.539190851239878199e-01
-8.824084302251833378e-02 -1.200180545144548111e-01 4.866001877903864403e-01
-6.932797509835303407e-02 -1.192010809696661955e-01 4.912736681481761347e-01
-4.704194061605001392e-02 -7.329617887215909844e-02 4.423712874013813745e-01
-1.026339292348799476e-01 -1.142287833714749345e-01 4.939458005116726391e-01
-5.076803799144662122e-02 -1.128458557399019541e-01 4.762140639823916888e-01
-3.718939768283356651e-02 -1.116957710904504797e-01 5.405208877431503245e-01
-8.156551856558832969e-02 -1.188620213841876938e-01 5.067092070473031562e-01
-1.125906007574599410e-01 -1.182761597887762722e-01 4.681607367455620783e-01
-9.824298155989326375e-02 -1.150952693385151465e-01 4.994499837912084184e-01
-1.031600168000921525e-01 -1.178166562876877960e-01 4.893711875147898627e-01
-1.524937314896741836e-02 -9.965948454560515091e-02 5.640754760769813858e-01
-5.608804346940231972e-02 -1.160329636517666019e-01 4.836060002453100304e-01
-4.094432887026464712e-02 -1.222543634816536245e-01 5.191545413706595280e-01
-8.645116784188917880e-02 -1.115565700574337876e-01 4.571945057188266381e-01
-4.203359527987599042e-02 -1.218048051515416286e-01 5.096138519199466810e-01
-7.247542722902569623e-02 -9.907695558470591690e-02 4.511078067312654927e-01
-5.614135128500472027e-02 -1.129533198737308480e-01 4.760270298650490228e-01
-5.906959600864462867e-02 -7.921047995400221087e-02 4.415951567112188503e-01
-6.874605778293833847e-02 -1.112849981940049887e-01 4.689494507365044029e-01
-4.745097418804842399e-02 -1.212928941742092565e-01 5.130694170229891382e-01
-1.330744835899197107e-02 -1.221261578521071478e-01 5.413876986072442277e-01
-5.530389310380920409e-02 -1.151128216665310566e-01 4.810430107078031980e-01
-4.023347090256985253e-02 -8.229859261021343908e-02 4.466894473881327654e-01
-7.137792451397960425e-02 -1.173641880711379509e-01 4.808577912345626815e-01
-7.250384034588362725e-02 -1.064782551635438251e-01 4.589699527651276423e-01
-1.743393004657052547e-02 -1.248905211069393367e-01 5.327168552423175996e-01
-6.485388432790806235e-02 -1.015850518561804833e-01 4.551112886088528042e-01
-3.883924238884287755e-02 -1.222984087224527061e-01 5.234409505367613180e-01
-2.038293139552607713e-02 -1.118190320383414676e-01 4.689872319049318561e-01
-2.414407992697254965e-02 -1.155134028074484565e-01 4.762832677848389817e-01
-3.300848495774034302e-02 -8.453232483533440478e-02 4.477244524950906301e-01
-2.337658096131327301e-02 -1.215445797763170105e-01 5.429023720854952995e-01
-8.089222365456996688e-02 -1.098445070964976789e-01 4.601977394604339633e-01
-1.179864088508294773e-01 -1.115472483307640705e-01 4.647036049298446381e-01
-3.316712958120660026e-02 -1.218749191737535792e-01 5.348064562600091110e-01
-2.201779686268332675e-02 -1.116563641482660463e-01 4.695392691652014450e-01
-9.178949966176812303e-02 -1.085270018786431284e-01 4.509347658073636911e-01
-5.987288325791591259e-02 -1.148309046003785222e-01 4.794013464881451414e-01
-6.399690679874123211e-02 -1.121846548537448335e-01 4.723835625133049887e-01
-2.432104813470320481e-02 -1.253176147423711861e-01 5.071439945325780796e-01
-8.824407025217566314e-02 -1.100310899104789963e-01 4.542141507293108726e-01
-8.211434076598138343e-02 -9.411466929526038361e-02 4.452573854315790558e-01
-1.115457768235683933e-01 -1.186423493139001917e-01 4.779085835803759119e-01
-2.730236079267615162e-02 -1.242840210433823062e-01 5.050696836486652241e-01
-9.520727857384189696e-02 -1.087678278586925729e-01 4.495511704126483044e-01
-3.017069176120795032e-02 -1.235048619328805025e-01 5.054714815966453445e-01
-1.181410539248662350e-01 -1.082070993810860388e-01 4.592339166053776012e-01
-9.656555657481399879e-03 -1.288445991326269136e-01 5.102796936892879387e-01
-2.414788389023588694e-02 -1.173406361305932705e-01 5.507393408322516226e-01
-2.862708026888220042e-02 -1.181792649277929041e-01 4.849123592588447940e-01
-1.056848104474518296e-01 -1.206113988305480000e-01 4.747595664148050454e-01
-6.954379314766773179e-02 -7.703434565842966208e-02 4.374560188559885043e-01
-9.144631032528434400e-02 -1.187062226474260018e-01 4.688769571266748204e-01
-3.587670359573295886e-02 -1.227825131797094793e-01 5.252172916436780303e-01
-3.538160570996708165e-02 -1.221644293023848443e-01 5.303688220075386539e-01
-1.032983098587515469e-01 -1.145183998251325663e-01 4.505519385286040901e-01
-5.968224415557308454e-02 -1.109580479238434086e-01 4.711700170224857320e-01
-4.663357587386761371e-02 -6.854611184608683239e-02 4.407750944554685302e-01
-7.899882043433088807e-02 -1.141304750401122003e-01 4.687149184151344072e-01
-7.554085067559625222e-02 -1.162732387868719575e-01 5.131709259943006973e-01
-4.244630273389474184e-02 -1.220193362067160947e-01 5.180945246974351104e-01
-8.075854334424610592e-02 -8.793188053844533392e-02 4.415265745568719979e-01
-4.536735523152254923e-02 -1.195759039847779509e-01 5.296549134310222229e-01
-6.650334503801230701e-02 -1.119227112708643668e-01 4.710633546235949987e-01
-2.869327111219831597e-02 -1.246139206120811943e-01 5.142381189048892409e-01
-1.427838948733330809e-02 -1.252165088506891621e-01 4.951245396318408876e-01
-4.323792822557167431e-02 -1.034898302784929142e-01 4.630584875979039672e-01
-4.021387635779164610e-02 -1.106418745711795215e-01 4.727681281169892058e-01
-3.560411647019921105e-02 -1.119524932173408538e-01 4.752863597726093570e-01
-9.207672279401198090e-02 -1.170233737761222359e-01 5.022162228187312394e-01
-5.910932672280818506e-02 -5.654475559894128062e-02 4.365946767633993586e-01
-4.504269706314692479e-02 -1.213669465951236481e-01 5.224664704015420380e-01
-4.273509374757109708e-02 -1.218814216341208290e-01 5.125542637248390321e-01
-3.778549603328058837e-02 -1.223809001532690510e-01 5.249717655019509044e-01
-1.011675490977834851e-01 -1.193667739285322604e-01 4.565706000896042616e-01
-2.890276483200086496e-02 -1.135220308410881951e-01 5.509518928743047939e-01
-4.015973805883744918e-02 -8.106606832267389262e-02 4.460781221357874582e-01
-6.418154934922849775e-02 -1.189611889413354495e-01 5.134780014036265383e-01
-1.029162645270710191e-01 -9.603803690160932216e-02 4.444741341136893564e-01
-6.415628018194206861e-02 -1.090654818532620501e-01 4.659834961072840676e-01
-7.876119217016271101e-02 -6.287668448545831457e-02 4.344404336029445424e-01
-4.161655274853521408e-02 -7.390450211088334109e-02 4.428765407687318412e-01
-1.850354409348703433e-02 -1.133448037670031633e-01 4.703776706842363042e-01
-6.847700206444158610e-02 -8.827872204156808622e-02 4.435708602555346602e-01
-3.998795550447119956e-02 -8.087686537409255472e-02 4.459964341068282101e-01
-1.991716881223697111e-02 -1.064541443240540758e-01 5.600662793571256071e-01
-9.324573148297811420e-02 -1.191752683075867486e-01 4.962236614659680800e-01
-8.085581420886119031e-02 -1.199174164259825398e-01 5.022565528221885067e-01
-1.108890674810816962e-01 -9.405074849515288049e-02 4.480591842528172664e-01
-1.181770427581282090e-01 -1.103506953373307453e-01 4.629053868498034796e-01
-7.342133425135408120e-02 -9.367468751849421238e-02 4.469030629476563599e-01
-6.992907438704366874e-02 -1.165072311518490916e-01 4.794930844590940544e-01
-3.866082005470937444e-02 -1.205289133756992093e-01 5.325012283674593894e-01
-3.430288245843578915e-02 -1.104970861400231819e-01 4.724543516882757643e-01
-8.777710202196764566e-02 -1.198330957895351323e-01 4.941570242161791304e-01
-1.026449782489412405e-01 -9.980057103327423518e-02 4.455249430512606135e-01
-5.494925868771405320e-02 -9.056526223227882866e-02 4.483317632342413428e-01
-1.170708751231212957e-01 -1.170373090526458382e-01 4.754591700474026239e-01
-1.048566040731271493e-01 -1.197484793300220007e-01 4.801494474494578113e-01
