-9.525871436863043995e-02 -1.016589708527387836e-01 4.477913619483815943e-01
-2.558767652432424045e-02 -1.042215941806737683e-01 4.613522222237157466e-01
-4.771775038635996113e-02 -1.201179504121891867e-01 5.001232880695160032e-01
-1.082958515584774573e-01 -1.199843906009340350e-01 4.761360010617300964e-01
-3.962392908349663539e-02 -1.222801856597768577e-01 5.142406095297203938e-01
-2.984510714000784132e-02 -1.228820424676064227e-01 5.338985570501134648e-01
-8.154359581999649775e-02 -1.182563695942986104e-01 5.081199902672492996e-01
-9.579784148887623974e-02 -8.273734301477575492e-02 4.424364474987214080e-01
-8.405387233434985506e-02 -1.044211451868216622e-01 4.522752508947385230e-01
-6.351231898880239923e-02 -7.382821089581184659e-02 4.389718235646457578e-01
-6.274509508709401329e-02 -1.115911725730184823e-01 4.723867313482238983e-01
-3.127358036991473300e-02 -1.221326563151946265e-01 5.360134437818327990e-01
-3.538335154636309404e-02 -8.297828126617913524e-02 4.472141853107369225e-01
-8.795614331141854425e-02 -7.027619449938690699e-02 4.404792906063944580e-01
-3.149330281469770593e-02 -1.128280127735515892e-01 5.486566722783470240e-01
-5.354325333777350954e-02 -1.174090441674693758e-01 4.887257336075677139e-01
-3.570863736716445996e-02 -1.187904509594200492e-01 4.900602042331478336e-01
-1.864118706186060001e-02 -1.271926879833008284e-01 5.184769969752841545e-01
-3.273483506526111281e-02 -1.059488501120335185e-01 4.657297470415646123e-01
-3.258759701133169540e-02 -1.191935658132598080e-01 5.416239926600491250e-01
-5.976256310755317241e-02 -1.070545199667728153e-01 5.273756862791877387e-01
-5.828870261016019794e-02 -1.123727394516655237e-01 4.750815131088312326e-01
-2.442293148154885130e-02 -1.254500795586961370e-01 5.109214496179712572e-01
-7.779699510199906964e-02 -8.578029853354757206e-02 4.413064948008250665e-01
-8.620974881952962743e-02 -7.633828171071051216e-02 4.382383066319506248e-01
-4.769343168244603165e-02 -1.212021858975665528e-01 5.144637645827692118e-01
-7.575719135125994451e-03 -1.293281408602158511e-01 5.197262142262932816e-01
-5.589432808426921667e-02 -1.175533452538531365e-01 4.894730828144703838e-01
-7.844016834215057632e-02 -1.198951367095641568e-01 5.037174068321608189e-01
-5.439004941515551000e-02 -1.207232072422856350e-01 5.073493705902637485e-01
-4.404570272281554261e-02 -1.210873217132306390e-01 5.259296182261433694e-01
-5.945739216759170914e-02 -7.465827451497973610e-02 4.406606508160373359e-01
-7.340480872801283252e-02 -1.020283779075480818e-01 4.544026227708319876e-01
-9.522697777506990147e-02 -9.486855425291734756e-02 4.442745751174213553e-01
-3.362437893554773294e-02 -1.156501423252140476e-01 5.437172979361779568e-01
-8.271371900265794830e-02 -1.165883240079210459e-01 5.092956103840395876e-01
-5.245627168164489207e-02 -5.946693679764843837e-02 4.384020897794519978e-01
-5.861809026272619266e-02 -1.001137218724608563e-01 4.558256408647737290e-01
-5.600283078687270238e-02 -5.661818766528332880e-02 4.374928597401916974e-01
-7.635529421452447174e-02 -1.190331587419443948e-01 5.079380434690802248e-01
-4.115581639069693792e-02 -1.163135801792831020e-01 4.845329597491574436e-01
-8.547025023247108166e-02 -1.177605023158127123e-01 5.062076447334561413e-01
-2.478459316703575388e-02 -1.081897001361557531e-01 4.663395411103748445e-01
-2.375814204044352645e-02 -1.256476246504892869e-01 5.264950177162927014e-01
-4.741278018549469758e-02 -1.124831454119401275e-01 5.329662065564704232e-01
-6.138055952174718138e-02 -1.109334895331367948e-01 4.715191087964479277e-01
-6.394397927198151865e-02 -1.101606018558265315e-01 4.690625849875816322e-01
-1.990479432703919777e-02 -1.050194791713297549e-01 5.605053673417479398e-01
-1.760300123342977557e-02 -1.228394496656017298e-01 5.423855655920806207e-01
-8.175543909936590359e-02 -6.803676105851692857e-02 4.356766995083344862e-01
-3.288881519113145968e-02 -1.211696837289792522e-01 4.960948402276079694e-01
-8.081088267557981486e-02 -1.123971924076378748e-01 5.156425045219394931e-01
-7.209920923094409462e-02 -1.172298927112424283e-01 5.129305771590765284e-01
-4.131167684723806299e-02 -1.024627132633677828e-01 4.625943450836011439e-01
-4.016474431182796151e-02 -8.493904239777680387e-02 4.484871161157251152e-01
-3.805301292885748810e-02 -1.126622571370470144e-01 4.770353313695653852e-01
-4.972913033529622467e-02 -1.206788194459769703e-01 5.064608748001445671e-01
-1.129144641005149219e-01 -1.114968093866654936e-01 4.573171024595863998e-01
-2.312792628813015519e-02 -1.255417926241426674e-01 5.076232216476029846e-01
-8.838846344264375543e-02 -1.199048100485302776e-01 4.895849428440633977e-01
-5.977155587195118885e-02 -1.126597327300441209e-01 4.753232552700873415e-01
-3.268492944885496854e-02 -1.048121697042019990e-01 4.641870405004475120e-01
-9.098809236036765891e-02 -1.198801924701855537e-01 4.900735121054168308e-01
-8.901436762545485160e-02 -7.130206651976669918e-02 4.411337969353172350e-01
-1.056095715254250778e-01 -1.177857289757927584e-01 4.885544246763107168e-01
-9.201138544179328360e-02 -7.891795633422764300e-02 4.416659694707217865e-01
-9.293453723055426774e-02 -1.122479296692359546e-01 4.545608769206622712e-01
-9.806945488661368560e-02 -1.210522225776198418e-01 4.642294466335376013e-01
-6.563335094886986465e-02 -1.018117313418619024e-01 4.557396071256932246e-01
-2.741362731455992616e-02 -1.074207935485862880e-01 5.549507592901234965e-01
-1.149329220452581513e-01 -1.144484483462041569e-01 4.844093522829016063e-01
-5.096534048740410106e-02 -1.146850482632775781e-01 4.806228969409728213e-01
-1.087495005774505308e-01 -9.871485202180292629e-02 4.476317477305647441e-01
-9.649934876868250522e-02 -1.178695919534161751e-01 4.994025003486955439e-01
-3.168736189839608391e-02 -1.220685910729513712e-01 5.358089105302676902e-01
-2.565455822806063033e-02 -9.778019220428565972e-02 4.552169594315883527e-01
-2.315700938262013273e-02 -1.254013272026697767e-01 5.058079600848099933e-01
-8.061618318571313335e-02 -1.177915447027625129e-01 4.791436816159831968e-01
-2.536794798101631859e-02 -1.244407217005330524e-01 5.314160569879327056e-01
-5.497487249790879854e-02 -7.548254796103040509e-02 4.419948993976510199e-01
-4.120688364955081562e-02 -9.459483646617260211e-02 4.553689265843709477e-01
-5.200574515358644123e-02 -1.200175170131675961e-01 5.196302022407414123e-01
-4.691345331672260727e-02 -1.172328640300455832e-01 5.308023629751796868e-01
-8.629822304292961155e-02 -7.327235386277725082e-02 4.378133805737672302e-01
-3.937157086049446891e-02 -8.379069631059543610e-02 4.478915045684603302e-01
-1.057249863221359637e-01 -8.911526961719183626e-02 4.483670393963393730e-01
-7.874890627050148972e-02 -1.174245472970383286e-01 5.109199437190128368e-01
-4.018522840447864841e-02 -9.725852975859852756e-02 4.577459305615062535e-01
-5.678492002026622187e-02 -1.202796243494417688e-01 5.051985474429929734e-01
-4.653026146286302900e-02 -1.015483818879073796e-01 4.609390545383291737e-01
-5.661592253632451860e-02 -1.006404282484478635e-01 4.567354071977973162e-01
-7.377583795089678875e-02 -9.015038779587146445e-02 4.448149998152563511e-01
-3.295736795255675006e-02 -1.058304460823592807e-01 4.655747751464793804e-01
-6.802777579694518906e-02 -8.283002425212095121e-02 4.410470518652777616e-01
-8.826264512710652044e-02 -1.199675552974440174e-01 4.870303113444331977e-01
-1.030531133856206760e-01 -1.129798890283386509e-01 4.949300817566988364e-01
-5.664427049812580106e-02 -8.501003798616446616e-02 4.452715884133649493e-01
-3.323040862163111758e-02 -1.131334764695200723e-01 4.776093767124137135e-01
-8.541248147197599838e-02 -1.109900568621652178e-01 4.583638709324925342e-01
-4.331905312577763456e-02 -9.955604681223263752e-02 4.591635420558194403e-01
-5.768276669004798046e-02 -1.093256458727267094e-01 4.685676105972304550e-01
-5.336119167865196328e-02 -1.206367202967889574e-01 5.118359908438522288e-01
-8.518637635454615054e-02 -1.042743450001646227e-01 4.515961602585378820e-01
-2.143248977331801974e-02 -1.257890158412241777e-01 5.053158505104464737e-01
-8.518494144572381910e-02 -7.389857700701969734e-02 4.371660378072513287e-01
-6.380507835932089367e-02 -1.047252106869925592e-01 4.595440410737042236e-01
-6.432765598056405798e-02 -1.187206564236232831e-01 4.927404165457575647e-01
-3.282784646790119776e-02 -9.336469951991419047e-02 4.543124104842611310e-01
-9.357152273665729492e-03 -1.250442088216428271e-01 5.319714619324605875e-01
-2.889263607097872222e-02 -1.041109810467047703e-01 5.526156844271095103e-01
-1.194500587977250471e-02 -1.271533291552715550e-01 5.017471338352352817e-01
-8.504692415437167807e-02 -1.182801550985057154e-01 4.795098361166378886e-01
-1.058823166779260250e-01 -1.209022652686792543e-01 4.710318466539729076e-01
-9.053094206022152535e-02 -1.107698238031790128e-01 4.544401381811196128e-01
-1.490287925582576764e-02 -1.189050564071917199e-01 4.799741558275267272e-01
-1.582732983477718597e-02 -1.273928524899366199e-01 5.079165086441652655e-01
-6.218134205953178978e-02 -1.175393566430238956e-01 5.194015291956025626e-01
-6.637240267628521928e-02 -1.081165668929242041e-01 5.229383117698007677e-01
-6.304491489062304110e-02 -1.012441714290621547e-01 4.559384906554013184e-01
-7.336833256558784877e-02 -1.200652498271070900e-01 4.955269323658169633e-01
-1.008439846523926098e-01 -1.094469174523973742e-01 4.489006561836371145e-01
-7.373881524833528212e-02 -1.200386250034883029e-01 4.936395176639334914e-01
-1.069591508610251290e-01 -1.208529958654822462e-01 4.709412938617996702e-01
-2.994529299744501383e-02 -1.219168797748135802e-01 4.966309056217520501e-01
-6.124150635461640679e-02 -1.186271329008843911e-01 5.173296599174196375e-01
-1.045054405045920884e-02 -1.282034415215553835e-01 5.246595702864604860e-01
-2.416379775668118027e-02 -1.259204681128617553e-01 5.231020123047829262e-01
-4.756542309657451478e-02 -1.093385091819553401e-01 4.711059212383746364e-01
-1.376347104729946924e-02 -1.246121395542232058e-01 4.933649776725218539e-01
-7.693332170240567425e-02 -1.174137182285044934e-01 4.795093000382570358e-01
-4.137314517082361920e-02 -1.014651303442077462e-01 4.614773404979564120e-01
-7.738858967770143038e-03 -1.292155236500631410e-01 5.136273771770950569e-01
-7.503847957001283375e-02 -1.010782268159420155e-01 4.529575791484262703e-01
-1.439161929443915494e-02 -1.224476328766295891e-01 4.873768391869276462e-01
-3.847682725956690780e-02 -1.222302559180702131e-01 5.103639025554180808e-01
-3.897530836074861171e-02 -8.030365674403586174e-02 4.461034940347772815e-01
-8.864964315001921946e-02 -1.110361980843296154e-01 4.560167798845239373e-01
-2.117328664041327746e-02 -1.265563141607470854e-01 5.164494863014756909e-01
-4.510333152889690889e-02 -1.208317845761480436e-01 5.030775049206046567e-01
-2.590079406580751697e-02 -1.105531383945600743e-01 4.702337858766026391e-01
-4.116568148021523127e-02 -1.218391462758442040e-01 5.229579832036264087e-01
-7.341481030083917003e-02 -6.324593661075639250e-02 4.342729668281737898e-01
-8.610528727837456209e-02 -6.842893548525502689e-02 4.387213643681624475e-01
-8.843910788391232125e-02 -7.504681758698371341e-02 4.394659874179675518e-01
-1.030096666033197828e-01 -1.220725019546189949e-01 4.646192969500880787e-01
-1.070782277762540868e-01 -1.026296251549775190e-01 4.486475762686457647e-01
-3.390167957534407500e-02 -1.190244150576180160e-01 4.897265678001096467e-01
-3.532633087093269009e-02 -1.166922522110906829e-01 4.849883067985826246e-01
-2.071921869782995460e-02 -1.122367052132985515e-01 4.700332351453211377e-01
-3.663812657504113279e-02 -1.111868755738650433e-01 5.412845287294438812e-01
-1.158621588979769357e-01 -9.827345405335585760e-02 4.552270503405840829e-01
-2.140733884418611135e-02 -1.264858931872779590e-01 5.230528374384915136e-01
-1.062131925666426474e-01 -1.190669055950863836e-01 4.832823628245234149e-01
-9.674557561824664864e-02 -1.062649869009291287e-01 4.487059728333935849e-01
-7.098708571275418044e-02 -1.124902770612866282e-01 4.710480226114319713e-01
-5.907047756528185228e-02 -7.157738094524575267e-02 4.399615297886929066e-01
-3.673511805359803289e-02 -1.171674457825157556e-01 4.862990095678139668e-01
-4.103500104931596254e-02 -8.985099340096501519e-02 4.518081227302974123e-01
-9.174874434734961448e-02 -1.081337049774271503e-01 4.515781409772455235e-01
-1.010209743678554956e-01 -1.127971155580835549e-01 4.988827091878118569e-01
-3.920554017855687468e-02 -1.030772960374457120e-01 4.634101220763436335e-01
-9.892298447241561210e-02 -1.207219251167524071e-01 4.734396966126559470e-01
-3.865113812925726616e-02 -1.087594246023751571e-01 4.700088522811622926e-01
-4.014445128785889411e-02 -1.162017777701469662e-01 5.366402717361994368e-01
-3.526213589817697724e-02 -1.182962813577657507e-01 4.882048287575247447e-01
-6.404270904917790108e-02 -8.182768408684168437e-02 4.417115765554584517e-01
-5.173890945756150217e-02 -8.643450113820540237e-02 4.469873753006164407e-01
-3.664145009393445646e-02 -1.229492544785512204e-01 5.212109760451397733e-01
-7.431998087886960980e-02 -1.132782852935607931e-01 5.174941914232263906e-01
-5.433804536659344459e-02 -1.083185127443324763e-01 4.683383148148884123e-01
-6.746859922623842098e-02 -7.479148393102667824e-02 4.379772290351789388e-01
-6.645280096316749652e-02 -9.346124568482153117e-02 4.481904374005077352e-01
-3.042665392796540733e-02 -1.134846887630784618e-01 4.770567799655175412e-01
-6.152190714495257839e-02 -1.142396064868022448e-01 4.780366876638206253e-01
-1.107242640790035010e-01 -1.184623997663141193e-01 4.804650181892012872e-01
-9.551638006647084067e-02 -8.125485501802649779e-02 4.427154514042340727e-01
-1.198754928890056748e-01 -1.087270198242685504e-01 4.766230893241633626e-01
-3.831028267279026900e-02 -1.220611238817842920e-01 5.079824319232469909e-01
-6.948754250563266011e-02 -5.301842447228095195e-02 4.375577055914773861e-01
-2.498501543240193648e-02 -1.251346905513480434e-01 5.084426950697398251e-01
-5.590584167091409984e-02 -1.075138837969601829e-01 4.662273374207887011e-01
-5.237790371727044092e-02 -1.148802475536654932e-01 5.286009319433835341e-01
-1.746766416520354609e-02 -1.199374851496249894e-01 4.828257887152396233e-01
-2.089660055903425420e-02 -1.259497950357973961e-01 5.056419492178317876e-01
-7.996381324418808112e-02 -1.157149419686215458e-01 4.738154171761864153e-01
-2.932383226708490040e-02 -9.473293363332190020e-02 4.542065997186767734e-01
-6.049339381162600199e-02 -1.060713379441191873e-01 4.623753926653883517e-01
-4.270751176338393601e-02 -8.718112844385209059e-02 4.496129213699301408e-01
-2.584462850976999501e-02 -1.010169630934882323e-01 4.579311662168760177e-01
-5.870973758548139743e-02 -1.194083263637873565e-01 4.989426209907382725e-01
-5.442230350460799948e-02 -8.431480512159325591e-02 4.454467649423101139e-01
-6.198147249532648395e-02 -1.121723256415033260e-01 5.241051793209097198e-01
-8.416756750013072719e-02 -1.201689109978075903e-01 4.923991244966963721e-01
-1.010600401250753566e-01 -1.211438410789732190e-01 4.709145691790568855e-01
-1.054002074029219277e-02 -1.246899436871087702e-01 5.323357760824096729e-01
-6.705275506545337050e-02 -6.041286440383647482e-02 4.355193121490871788e-01
-5.836440236302131018e-02 -1.139294719049947641e-01 4.781956827369573393e-01
-1.926613653064901746e-02 -1.259407509996348651e-01 5.276219716099994628e-01
-7.001803565791975270e-02 -1.146400966869026566e-01 4.765082561096289360e-01
-8.314852463298168239e-02 -8.865008189836795505e-02 4.424120029766553386e-01
-1.002628446866087181e-01 -1.108156162004394207e-01 4.493490647230862778e-01
-3.517901179700388264e-02 -1.210386430426363680e-01 4.976611894940104475e-01
-4.515014185130235974e-02 -1.210805461435310731e-01 5.056069656936551526e-01
-8.186861965956694631e-02 -9.711305987793594774e-02 4.480512362879219279e-01
-4.160209954258513310e-02 -8.179585910891917777e-02 4.466726562722261318e-01
-1.453941716837612620e-02 -1.235652280498408112e-01 5.374130786225894685e-01
-8.818563432599081653e-02 -1.067876939698278876e-01 4.518336397741293808e-01
-5.850763282439989943e-02 -1.100631067869103086e-01 4.699804404837895078e-01
-7.739890702594688643e-02 -8.751694439316658192e-02 4.425019644141262032e-01
-5.201038298259232778e-02 -7.469381581008796567e-02 4.425422162070818399e-01
-7.082466628688843802e-02 -1.127411549009161851e-01 5.190705334505469892e-01
-6.708547828647389022e-02 -1.184695282983280057e-01 4.892749543641670140e-01
-1.029252819993963786e-01 -1.173288667533309015e-01 4.913261201435964454e-01
-2.984030520910297551e-02 -1.103535343832325322e-01 5.505700034946193755e-01
-9.757596667842781402e-02 -1.183246070966772756e-01 4.573061439660588423e-01
-5.343933938351747709e-02 -1.206866479717410706e-01 5.100940154422901607e-01
-9.684347326952277846e-02 -1.004857176805636909e-01 4.468552330660469085e-01
-1.138643101522542056e-01 -1.177764232888246360e-01 4.707215712886324011e-01
-1.134740945374546617e-01 -1.183942679173930201e-01 4.747535073962270147e-01
-7.548117058367251331e-02 -1.034666074921912898e-01 4.552975960793100851e-01
-3.017266591293474645e-02 -1.075181615680591007e-01 5.508304188743807783e-01
-8.741944406695588421e-02 -1.189946026512508637e-01 4.792950641687523938e-01
-4.419527437900829664e-02 -1.062784657401595334e-01 4.666664138252659688e-01
-9.280548445485481412e-02 -1.163923897244977246e-01 4.601120646445820417e-01
-5.882476581984364544e-02 -6.995652606081657898e-02 4.396076940473395700e-01
-5.044967439905271439e-02 -6.451316152066804976e-02 4.396024622945925997e-01
-6.551751314203493881e-02 -1.093038368589253490e-01 4.666621451723131919e-01
-2.994449446071131837e-02 -1.125118686925660055e-01 4.749709190090299349e-01
-7.501502976920254584e-02 -1.161783786583060057e-01 4.770403576798485923e-01
-2.902751076590916191e-02 -1.196286164695824356e-01 5.435898495741614544e-01
-1.322260365118166185e-02 -1.284186810843922499e-01 5.195862149422122434e-01
-8.933313807080892066e-02 -1.200607650271901666e-01 4.837116615211446979e-01
-1.120436779973870145e-01 -1.171873834034031503e-01 4.628685472160551928e-01
-5.680085168027144971e-02 -1.036819074870444085e-01 4.608994490369603958e-01
-1.182495878324686112e-01 -1.007578744591786785e-01 4.581810646686987343e-01
-1.109282912348183714e-01 -1.125373175088126287e-01 4.562687522752391645e-01
-4.670725176916312033e-02 -1.153270940530920774e-01 4.820242693743513329e-01
-3.181707357211813886e-02 -1.236985489962835055e-01 5.134028015588393279e-01
-5.444815937378563730e-02 -1.206350317519823551e-01 5.101033397706322692e-01
-2.488628889281853732e-02 -1.246127637928897275e-01 5.309893953047168935e-01
-2.448991197711787929e-02 -1.247951341654994217e-01 5.027529050761080365e-01
-3.894316546737990048e-02 -1.159801621986766285e-01 5.381127852931218980e-01
-5.809137751043927378e-02 -1.191390221171309549e-01 4.970668629185365228e-01
-6.785000842947978839e-02 -8.531508645204205488e-02 4.425969287108920680e-01
-2.535274091107127606e-02 -1.251495978656619601e-01 5.097672454028773226e-01
-9.005051660491031340e-02 -1.097431157965251397e-01 4.537171295640660684e-01
-7.261539457293991751e-02 -1.183828226208269579e-01 4.838652832879808963e-01
-2.231516826865629494e-02 -1.253117054622609194e-01 5.297075080890096821e-01
-7.969659230758389945e-02 -1.085106527458539472e-01 4.591071249509323104e-01
-1.103271537675662439e-01 -1.191129856369512602e-01 4.777779508916824014e-01
-7.704519631124075174e-02 -7.052128493339387960e-02 4.350642962233054467e-01
-3.166745446214599274e-02 -8.786458298325140748e-02 4.498711399642284503e-01
-1.053588089664982685e-01 -1.100203328122048435e-01 4.948203197715013157e-01
-5.125668771207862739e-02 -7.747948907649705730e-02 4.436097029767729905e-01
-7.948495292516788435e-03 -1.288395268047782816e-01 5.081921765924913847e-01
-2.723973520235079340e-02 -1.251824389292901518e-01 5.218714192287072784e-01
-5.202621355458960511e-02 -7.940026066744787503e-02 4.441108362001734422e-01
-8.266789041390230908e-02 -1.065018205592503237e-01 4.547188046807816297e-01
-5.187251808147958637e-02 -7.078633973010611813e-02 4.412630011691143217e-01
-8.226783925799426023e-02 -1.125698965888585201e-01 5.139715047815489601e-01
-3.846156929922681794e-02 -1.154383939610601761e-01 5.387693036516848499e-01
-4.844042395241721782e-02 -1.171543839762971967e-01 4.869574399383864161e-01
-6.657349992389552384e-02 -1.177154489789622449e-01 4.862730143494432000e-01
-8.510376389857864099e-02 -7.905272992090128792e-02 4.380220125294070899e-01
-7.946599995878643463e-02 -9.434370994009842748e-02 4.467769351380643794e-01
-5.440474893611722818e-02 -1.206988297891357087e-01 5.081129929657925981e-01
-2.641049614248195884e-02 -1.198236678880382211e-01 4.877064432959298257e-01
-1.052883529349045999e-01 -1.191984837967176997e-01 4.840223252597555259e-01
-4.922943145681939192e-02 -6.503060799074707188e-02 4.398898985894788005e-01
-5.062080625765528336e-02 -1.082493171651276592e-01 4.690709478245327912e-01
-1.732476775882673889e-02 -1.194102864664420144e-01 4.817027159574802653e-01
-2.318493278659852080e-02 -1.104029714816548574e-01 4.686051277741202226e-01
-9.405733784277452159e-02 -1.197090402329063497e-01 4.894884103518363783e-01
-5.146082549344055401e-02 -1.207201666738287882e-01 5.145552090029270609e-01
-8.107256785129576815e-02 -7.283918403564682009e-02 4.353840047126427137e-01
-3.810578645446072166e-02 -9.108690005693813319e-02 4.530865355974167397e-01
-7.042740067447228469e-02 -9.368079101239799866e-02 4.478405184130639372e-01
-1.911858983244393850e-02 -1.163318004682112883e-01 4.758822820717555913e-01
-5.895189552568410457e-02 -1.180485966341996845e-01 4.911869948595598556e-01
-8.037952697839516325e-02 -8.081364605094698561e-02 4.382420162687638565e-01
-7.072832094254720425e-02 -1.123323589686232304e-01 5.192455606190514716e-01
-3.072680905326258954e-02 -1.203057870813420138e-01 5.406348464989803038e-01
-1.029020028077495263e-01 -1.218929737851028455e-01 4.660296089099530970e-01
-6.876111743793382469e-02 -9.779772180337951981e-02 4.513067911679960464e-01
-6.390490523275810242e-02 -8.396312391443774836e-02 4.427560611723780903e-01
-1.542884165685374370e-02 -1.235137204368297742e-01 5.381062527941407048e-01
-9.852911977128701870e-02 -1.212503848662308953e-01 4.697533892100457242e-01
-3.749722327520964987e-02 -1.222348085508184606e-01 5.265251965882127294e-01
-5.343299470699034576e-02 -7.912782700605699993e-02 4.436288115473528970e-01
-6.222033586390483817e-02 -1.074700069886850157e-01 4.639623732739745487e-01
-5.502065849876319054e-02 -6.847474092424621350e-02 4.399772221767471181e-01
-7.447678041802625881e-02 -1.037711570930767713e-01 4.559293164404432663e-01
-3.893834363720802272e-02 -1.220358630106951892e-01 5.089086074347648481e-01
-6.949708084529121477e-02 -1.167262259014961306e-01 5.157063163744848300e-01
-5.428016948232845806e-02 -1.206089205375489026e-01 5.112233734646447481e-01
-8.298790541712279534e-02 -1.077710847518077164e-01 4.563606423552697411e-01
-3.338200355508447181e-02 -1.232159287052559810e-01 5.260069886840751385e-01
-7.370101248759378110e-02 -1.201065992557788648e-01 4.968329314915408412e-01
-2.586030579181227904e-02 -1.214947645934178755e-01 4.921544758157618271e-01
-1.038452951777641547e-01 -1.053817352306506833e-01 4.489051880752401580e-01
-9.843945742340384775e-02 -9.390124346645273290e-02 4.438198866540628562e-01
-1.484130402260063972e-02 -1.261039559613896799e-01 5.292894533692574788e-01
-7.485000392041200878e-02 -1.067534171432843876e-01 4.591203471079980947e-01
-9.729749114957644829e-02 -1.213162482832724487e-01 4.678670031133967400e-01
-9.231407107995638628e-02 -1.191783775055321737e-01 4.697853933029740858e-01
-1.574736380685706760e-02 -1.161080909600414324e-01 5.540599281656363173e-01
-8.637701388217984555e-02 -1.093376361275476411e-01 4.558789793414658731e-01
-2.266571864989829627e-02 -1.210499267739366946e-01 4.884409811892154729e-01
-7.023738463101468488e-02 -1.161487927654123731e-01 5.161505308328224739e-01
-1.524573789953564268e-02 -1.034014317383694925e-01 5.627929005143023078e-01
-4.501452764621187430e-02 -1.214111728615895613e-01 5.101376197906800636e-01
-1.059985738949104500e-01 -1.209658517090399926e-01 4.699400737691762364e-01
-8.728431923491575262e-02 -1.124683188788821175e-01 4.584729950634588436e-01
-3.119075842087602052e-02 -8.780035198432553645e-02 4.496690791387585873e-01
-1.593601710382384906e-02 -1.186710057813554486e-01 4.797886071119509821e-01
-3.165396720603634584e-02 -1.146010601685355512e-01 5.472059964216980932e-01
-6.776132885590133159e-02 -1.042177771196335784e-01 4.580487626099878917e-01
-6.295203160025021095e-03 -1.291698739337480972e-01 5.116934817946686698e-01
-6.326682043575326819e-02 -8.701906454973315497e-02 4.445912636779678073e-01
-1.013680897423058086e-01 -1.177105275271092821e-01 4.923813125296411242e-01
-5.645341731992774281e-02 -8.007431891439953375e-02 4.431409620237787284e-01
-1.797030589367031722e-02 -1.237583219982818089e-01 4.931429929581485627e-01
-5.034382281078538662e-02 -7.345155594792224241e-02 4.423704256856151873e-01
-3.179774789457992523e-02 -1.229688352744388868e-01 5.306797185231538760e-01
-1.668853041297378367e-02 -1.222000957494679269e-01 4.873899351134639013e-01
-2.709839979415530273e-02 -1.054876415326792549e-01 4.637547482214784966e-01
-3.989640862812981331e-02 -1.170805409899825650e-01 4.864666494999403956e-01
-4.809994304984700764e-02 -7.752730866502859086e-02 4.441410475349352183e-01
-1.533726147286531769e-02 -1.264540371279012643e-01 5.008977598324670932e-01
-1.059366112829315809e-01 -1.131226597318429061e-01 4.541070990847244637e-01
-8.039756744720538695e-02 -1.183678021186812118e-01 4.810018958868975680e-01
-3.888466906589584798e-02 -1.203848541863759974e-01 4.974541182405783912e-01
-6.308359416044244383e-02 -7.859250971556730470e-02 4.405230842507791844e-01
-1.042004128857210721e-01 -1.021001045004164831e-01 4.475470952082847842e-01
-1.148758954007606803e-01 -1.040162143205060896e-01 4.535516616823030422e-01
-5.560602591554682228e-02 -1.199933023287539924e-01 5.023997785561638008e-01
-4.391464744618887861e-02 -7.352311440891867722e-02 4.430141437354265244e-01
-8.163674248176609749e-02 -1.062994270095641569e-01 4.550135049620628869e-01
-5.157192440146525503e-02 -1.195756091024972878e-01 4.982176429463627265e-01
-1.144472282158826015e-01 -1.179353742541225381e-01 4.760988494461855236e-01
-1.010797348960053715e-01 -1.167298396701325486e-01 4.947113529616948280e-01
-1.037352284721864276e-01 -1.144372601468086614e-01 4.518377842363826558e-01
-8.055566919326791198e-02 -1.178718443061651244e-01 5.092307815920772418e-01
-4.191707020195933886e-02 -7.407420281774952653e-02 4.432615232511003533e-01
-3.215527419438361789e-02 -1.223687356947848331e-01 5.335164760821867747e-01
-2.800627494707706028e-02 -1.234566180660324891e-01 5.333992125882838220e-01
-8.699786399193108755e-02 -7.331883384873416620e-02 4.385646025848845553e-01
-2.768733312463405455e-02 -9.783893412088613684e-02 4.559709457820614875e-01
-9.331066336706775322e-02 -1.202190612336778153e-01 4.787783818861152119e-01
-3.764403314254190225e-02 -1.224151936924775391e-01 5.243573130544019190e-01
-8.061440710535221210e-02 -1.133731485262668565e-01 5.148269078298413071e-01
-2.907863570907855480e-02 -9.033416658689608081e-02 4.510278261413094292e-01
-8.779946410391303857e-02 -1.191645340531305580e-01 4.790548095099657622e-01
-4.548160048814587492e-02 -7.866736472509450184e-02 4.450249578839700626e-01
-2.613514904693612154e-02 -1.253144927227172467e-01 5.167390011800677696e-01
-7.174785375572649559e-02 -9.863167583402786265e-02 4.515470847292147871e-01
-8.525940900664294442e-02 -6.916683144002470918e-02 4.374087867725368617e-01
-1.338908962476246904e-02 -1.252382000744192425e-01 4.952466469443516095e-01
-1.958183634182465022e-02 -1.124005663787598364e-01 4.697165752662060267e-01
-3.543191830699750355e-02 -1.223433739646000440e-01 5.053188848769206709e-01
-1.087201505315647104e-01 -1.195967072541267440e-01 4.622972401804911757e-01
-2.151462657681289109e-02 -1.241553957521781271e-01 4.973005274455529201e-01
-1.140936173693787165e-01 -1.012964748130269765e-01 4.523349284117384461e-01
-6.351846829758944768e-02 -1.195626560045576076e-01 4.992432643725390751e-01
-5.505170046751393931e-02 -1.130069200505852411e-01 5.281782318754996153e-01
-1.063054877484234939e-01 -1.187465085823402600e-01 4.843328159053766346e-01
-8.998627873894897433e-02 -1.200260454160574364e-01 4.841384113653013910e-01
-1.772790880549103207e-02 -1.248441427977898671e-01 5.327946614413487936e-01
-6.481188352750633097e-02 -1.112697794977552945e-01 5.228210242991307988e-01
-6.480283563255299917e-02 -6.259577147359740579e-02 4.363393949752891188e-01
-9.467189251077172407e-02 -1.109064915888027386e-01 4.526128097663141836e-01
-1.793297631239403056e-02 -1.268469254776440069e-01 5.239405366839595679e-01
-1.080911804711847390e-01 -1.200660950032060720e-01 4.622096469160254517e-01
-5.293701113776134309e-02 -1.026274141378431537e-01 4.608300040818520404e-01
-1.191650263051896586e-01 -1.117618449328744712e-01 4.723851079923808705e-01
-8.979761254262198789e-02 -7.685736721920762016e-02 4.404024972283634987e-01
-5.916303188672318580e-02 -8.499914574240424736e-02 4.445460101756718019e-01
-4.496376826072931432e-02 -1.215761198425095724e-01 5.146016571092201231e-01
-5.081703204779221966e-02 -1.014087222740441552e-01 4.598207729441303182e-01
-4.075682751948965510e-02 -9.704530447542750182e-02 4.574470742945951907e-01
-2.947687929229411002e-02 -1.189448570093267349e-01 5.445439518905588194e-01
-6.220939724468451532e-02 -1.009955373577605120e-01 4.559351912419675190e-01
-7.777634864744803478e-02 -1.108556887759835213e-01 4.638918328469472385e-01
-8.373097901095531703e-02 -1.170256084585846179e-01 4.736958074465943969e-01
-9.544602769809072684e-02 -8.107910749208864509e-02 4.427208407628472342e-01
-3.433837762490205003e-02 -1.164939085393398716e-01 4.844644011651814686e-01
-8.154472796400433210e-02 -1.157175304052601300e-01 5.111251079299842237e-01
-9.192444281041768639e-02 -8.594303508742055786e-02 4.407514688205080300e-01
-8.057171661765660797e-02 -1.091949015106811471e-01 4.599059255445459016e-01
-7.451485223347424636e-02 -6.158120397808272001e-02 4.342505282645533482e-01
-8.045675422989517767e-02 -1.085609678721479593e-01 4.588098911066071928e-01
-1.076182641349526237e-01 -1.153364329984343378e-01 4.566089760286546895e-01
-9.358411451942763581e-02 -1.178387572307238174e-01 5.009005472646332890e-01
-1.130142193152844921e-01 -1.175477489318264568e-01 4.818957729453774985e-01
-6.122062065594494756e-02 -1.120842358999686317e-01 4.737925606608097140e-01
-1.099112149711140296e-01 -1.178452488037839557e-01 4.842770983742384350e-01
-9.779821206679040202e-02 -8.442553357721128970e-02 4.433762255718601830e-01
-7.560374225529195580e-02 -9.532357584696765640e-02 4.482950483575934286e-01
-4.576043554350454901e-02 -1.117293894325692566e-01 5.346905149447369610e-01
-1.060607392117453446e-01 -1.088639387830096783e-01 4.520814636119782626e-01
-3.652539216514533171e-02 -1.215443586125423692e-01 5.310063094174490850e-01
-7.095859966197325119e-02 -9.675358152777838172e-02 4.501707083446945812e-01
-6.946593089034497348e-02 -1.185237692923085534e-01 4.873009801786787887e-01
-9.185250981999797115e-02 -9.847212242334599241e-02 4.460535540903800555e-01
-5.586882534730725630e-02 -1.204801320085180233e-01 5.126696922698327219e-01
-4.161804207222117441e-02 -9.185911557663932470e-02 4.532618338248299850e-01
-9.165295093162958984e-02 -1.198491818682737298e-01 4.903542889828335083e-01
-8.390959657975947950e-02 -1.156274596212818057e-01 5.096938110536647359e-01
-5.747650454681466764e-02 -1.004274632585217542e-01 4.563111126213710844e-01
-9.482011218323292689e-02 -7.935234036685837045e-02 4.428226862036971356e-01
-3.488525767636825592e-02 -1.067434084480268774e-01 5.438914445664130293e-01
-9.854058830841189165e-02 -1.102973906513697172e-01 4.498630693220969645e-01
-7.964485255402965758e-02 -1.199578884528080952e-01 5.020929842037757940e-01
-8.849297082953673510e-02 -1.199139714002971507e-01 4.891555212031636901e-01
-1.004954059243247239e-01 -9.531662389888378994e-02 4.445705933106400276e-01
-1.254993336079633648e-02 -1.279555082301074287e-01 5.071606294763718603e-01
-5.075289232102286885e-02 -1.204880067678481409e-01 5.051046084877903741e-01
-4.333214317155813927e-02 -1.201754645739468996e-01 5.300478411083663355e-01
-4.132983137954489294e-02 -7.998319780639559506e-02 4.457780878348592268e-01
-9.700201573283144529e-02 -1.174724930738486467e-01 4.995692288066460596e-01
-1.599165072604110185e-02 -1.260505399198716958e-01 4.995173081213979960e-01
-4.937494686256700682e-02 -6.379738335997614529e-02 4.395744456904960296e-01
-5.690729075066065096e-02 -1.123576562974025472e-01 4.752234866719212691e-01
-1.200942013849745360e-01 -1.067933408072814644e-01 4.719778585105203206e-01
-6.989511106255091866e-02 -9.226756157473935127e-02 4.467930500547224182e-01
-2.514838106393060824e-02 -1.243364953208343920e-01 5.015274296606347937e-01
-1.304614048452574018e-02 -1.283988113845662415e-01 5.149902849146653638e-01
-5.285940633718289039e-02 -1.176149053934729960e-01 4.893407953652105791e-01
-7.875772985860866882e-02 -7.067421832028229767e-02 4.349458973715004673e-01
-7.060734838796242641e-02 -1.174363737483162529e-01 4.822385158795413074e-01
-3.363716712644997109e-02 -1.157447989959758256e-01 4.829277436660175948e-01
-2.988823850145347349e-02 -1.181429049282810145e-01 4.862201672239135353e-01
-8.709569171180635283e-02 -8.211355235417078235e-02 4.393066852786675081e-01
-1.684867417804774420e-02 -1.159088372154888774e-01 4.743764211362933025e-01
-5.946562916726841341e-02 -1.140158506696572899e-01 5.247139270336595995e-01
-2.215080050092674974e-02 -1.167501556355171333e-01 4.778563799103704990e-01
-9.477715677888099224e-03 -1.244697477604655433e-01 4.913052821464142794e-01
-1.153856713240803272e-01 -1.101560843277532842e-01 4.583202396113931210e-01
-2.379407264597097754e-02 -1.151895719905113996e-01 5.532113984121889150e-01
-7.368753566629387963e-02 -7.999049553109127686e-02 4.380465831784853825e-01
-5.171157267130525870e-02 -1.126364970178950209e-01 5.302706622179863549e-01
-2.983098078574257864e-02 -1.182059265363208239e-01 4.862998894405126116e-01
-3.645929187074085920e-02 -1.229734574137333752e-01 5.183530755935226164e-01
-7.850742938589709563e-02 -1.031870982235327527e-01 4.539925162300630368e-01
-6.157191665187549540e-02 -5.845853303690271008e-02 4.366989668991140827e-01
-9.916565202337900009e-02 -1.187524766543406052e-01 4.931438389762371477e-01
-4.094248037596381895e-02 -1.111763520040988662e-01 4.742205393529898005e-01
-5.754360895968776979e-02 -1.131304454866223358e-01 4.768450316552149126e-01
-1.078423480850932287e-01 -1.207905432618972402e-01 4.702631427013007626e-01
-2.474743652092536994e-02 -1.117116856608009745e-01 5.559006850237228070e-01
-3.853418886581257141e-02 -1.124843704461761934e-01 4.766790696821227025e-01
-3.173641457460173176e-02 -1.239645987243703507e-01 5.194422490828652927e-01
-1.757467876834037379e-02 -1.166649580860047303e-01 5.532881297470036985e-01
-4.149009710197119893e-02 -1.108709654878350243e-01 4.736724221603212936e-01
-2.231695330887342038e-02 -1.109480620433279940e-01 4.689642269875217151e-01
-9.658719890480083059e-02 -1.144927339140825034e-01 5.018483979997140354e-01
-2.237659102047668061e-02 -1.213337339480320826e-01 4.889964052522999816e-01
-1.035533602730860821e-02 -1.216986592183901122e-01 5.397606994460696361e-01
-9.460696612178767090e-03 -1.231144790388044585e-01 5.352728199933957098e-01
-1.900022023015939671e-02 -1.270332799265536383e-01 5.193961599125259676e-01
-2.688825159375279883e-02 -1.069185570664858281e-01 4.656999887094592228e-01
-4.695151333035556956e-02 -8.589409329536661086e-02 4.479747543703411772e-01
-2.897001887390199606e-02 -1.200111113966393361e-01 4.899672409909643367e-01
-7.711696524419107968e-02 -1.191452866404678346e-01 5.071900984541377611e-01
-1.127921526303535538e-01 -1.183069135700114960e-01 4.709843401841704025e-01
-9.814935491423294744e-02 -1.038178371980720410e-01 4.479028432026170292e-01
-3.064511124188045929e-02 -1.057886289045164296e-01 4.651514517069136323e-01
-6.305743150744633208e-02 -1.185879321877522236e-01 5.165139303945877058e-01
-1.205109048106230152e-01 -1.032603710688261012e-01 4.612837250107884590e-01
-2.493419723598238116e-02 -1.158865275878294826e-01 5.519081444108772105e-01
-4.365738386494519979e-02 -1.217673464914686421e-01 5.191112127849306646e-01
-6.909435443384252806e-02 -9.334482678211944440e-02 4.476942516754038870e-01
-1.640223424806523667e-02 -1.077509364546339055e-01 5.605564407305362318e-01
-1.748355472466986069e-02 -1.140720709348124473e-01 4.713768228905405588e-01
-8.409492986477526411e-02 -1.171190966817965556e-01 4.739857432335474186e-01
-7.956834426792956660e-02 -6.260209693585305768e-02 4.353930439980531752e-01
-7.650525842911247432e-02 -1.201886100654737805e-01 4.959724656073119520e-01
-7.509876938019229009e-02 -1.081783754137067149e-01 4.610300931899152244e-01
-3.015651673820501227e-02 -1.119737329428316525e-01 4.740447644131843274e-01
-1.114871647915476049e-01 -1.186344509106845996e-01 4.696194159491376974e-01
-2.896525551028485135e-02 -1.072584321543729596e-01 4.668247097851004335e-01
-6.679379934909902838e-02 -8.691117244343815607e-02 4.437191745510046248e-01
-3.466264090411431964e-02 -1.181587294147426886e-01 5.409767532412095292e-01
-7.831493739468145532e-02 -9.845363984767981080e-02 4.498530243382146132e-01
-6.290928378009767730e-02 -9.432198364034262428e-02 4.497226533799425496e-01
-2.914986928398864696e-02 -9.924563011057964401e-02 4.575839916673464791e-01
-9.851281305861570026e-02 -1.081550641314680955e-01 4.482778475749423786e-01
-8.786491405522808829e-02 -7.939750889337542084e-02 4.389437900905657775e-01
-1.098072078306919219e-01 -1.153388703126913550e-01 4.890089223780997307e-01
-6.945538657294476892e-02 -9.822345899060663799e-02 4.515644297972570831e-01
-9.074477489195909019e-02 -1.162857859540456368e-01 4.622155692672687000e-01
-5.800821162242903589e-02 -1.136879316028672759e-01 4.777826473699923748e-01
-7.040269437519855455e-02 -1.147847908147440060e-01 4.765791876168751773e-01
-1.482066204315713419e-02 -1.140976502586255603e-01 5.564524984486323156e-01
-5.708209905931099781e-02 -1.203301310513326811e-01 5.118266241370751368e-01
-1.038860487043644781e-01 -1.166756620757578994e-01 4.559454854802476587e-01
-5.484134462131850379e-02 -1.157123990031146965e-01 4.833027257287545453e-01
-9.237816808510672384e-02 -7.619381098977268119e-02 4.426048827833993782e-01
-9.092154949366307304e-02 -1.065852501134463698e-01 4.507974357171402047e-01
-3.819519514837926150e-02 -1.101045502376099966e-01 5.394940325633266198e-01
