-1.015387275227633140e-01 -1.213829025148757401e-01 4.648098265813857544e-01
-8.158500498977987181e-02 -1.032203153219431041e-01 4.559318809783921567e-01
-4.758887788401353069e-02 -9.964389269525519843e-02 4.602189514140822557e-01
-5.564408295084424805e-02 -1.172448331313121761e-01 4.909153145410206087e-01
-1.470865809890918932e-02 -1.218605966299055321e-01 4.873491879067093357e-01
-8.431680837696876873e-02 -1.170134970096630839e-01 4.793370159745998782e-01
-2.580428860598371274e-02 -1.052948253989855198e-01 5.574040669409373594e-01
-6.905377445581283545e-03 -1.291694795324134781e-01 5.201903988770560927e-01
-1.197319100153708959e-01 -1.097583893830269552e-01 4.819765675360228596e-01
-9.001893364328612812e-02 -1.152368337265202436e-01 4.643739292729466284e-01
-1.217476253424694954e-01 -1.033726625878949590e-01 4.691014191318837456e-01
-9.458612838680004187e-02 -1.027528784223702557e-01 4.518134177830142040e-01
-5.468793585392525691e-02 -1.126621018038612282e-01 4.782061263205761859e-01
-9.723038542327985811e-02 -1.000859475253130099e-01 4.499305415358419991e-01
-6.960237342125230597e-02 -9.243869210666758041e-02 4.491338230375995777e-01
-9.662480997294370377e-02 -9.343204007237761177e-02 4.465847048426792032e-01
-1.195681765235294541e-01 -1.088711000125908435e-01 4.705955954515184669e-01
-8.647143331995195414e-02 -1.068227614181010698e-01 4.563491184267712275e-01
-1.916456773178944889e-02 -1.264189345736569381e-01 5.257726117733905191e-01
-6.186925407740728744e-02 -1.117747518613750601e-01 4.753816015770909176e-01
-8.537317604237096291e-02 -7.965925189450527577e-02 4.404341528545739903e-01
-7.395493835330708976e-02 -1.061672845804911003e-01 4.615339527794666274e-01
-2.072505861671461447e-02 -1.041614438559445854e-01 5.610021440200451126e-01
-1.027667908504868582e-01 -1.171987215887328460e-01 4.943950755282665033e-01
-1.994735216982034681e-02 -1.241479305261666000e-01 4.976009118561305899e-01
-7.304851627925415536e-02 -7.954771022087661625e-02 4.402024190044132035e-01
-6.841484768315272968e-02 -1.135174638952258369e-01 4.772137621224024628e-01
-8.163557646618235797e-02 -1.199319227880362715e-01 4.948678836619985755e-01
-7.171364051041999310e-02 -1.197763030379626337e-01 4.994958284725108388e-01
-6.077718838987693217e-02 -1.093453245448410410e-01 4.702796465389326719e-01
-1.756989529002673384e-02 -1.027185322902954556e-01 5.619985266647014033e-01
-1.081604605816371967e-01 -1.172126195881091348e-01 4.901284685656194240e-01
-5.248920761778168992e-02 -1.185797792937857004e-01 4.956876208481397761e-01
-5.000209100391051625e-02 -1.077164894385746058e-01 4.702241276057922414e-01
-5.118108122732396847e-02 -7.733377703147389925e-02 4.450445293744264008e-01
-7.586140107690683698e-02 -1.123309479286528356e-01 4.705316039740914946e-01
-7.249849307377165264e-02 -1.197555285422125387e-01 5.032663098783803912e-01
-1.358605881594316875e-02 -1.218351304830448262e-01 5.435546588250589339e-01
-7.436493487099854471e-02 -1.030344918291610096e-01 4.579775672055478308e-01
-8.739602078904645799e-02 -1.182003940336369407e-01 4.807670236308287381e-01
-6.069098270657780764e-02 -1.091194828724453975e-01 4.697749364694613905e-01
-6.812365626740365943e-02 -6.891951150359634792e-02 4.382134923152176675e-01
-4.433820582419754214e-02 -1.070419349221843619e-01 4.693480487952024216e-01
-6.219820512011743630e-02 -9.034433858166708575e-02 4.489863755634674325e-01
-6.680061579770428526e-02 -1.035052075305514518e-01 4.596454546454732948e-01
-3.345032241496639219e-02 -8.728182030508384315e-02 4.509135511655704698e-01
-8.684561650366856567e-02 -1.194206856560789537e-01 5.000119094740101966e-01
-1.773940788807161842e-02 -1.192316927518098507e-01 5.498391347401411222e-01
-6.065715177496976140e-02 -7.706994160806487915e-02 4.427958382143829530e-01
-7.970645083151815802e-02 -8.392342736175917306e-02 4.421715772616193196e-01
-3.033304013781583722e-02 -1.235871846969114063e-01 5.119674727209984066e-01
-3.733338074830387654e-02 -1.136650759799057026e-01 4.805856061492373432e-01
-8.689063019394295539e-02 -1.197055398679895133e-01 4.910937793333215451e-01
-4.964703137853092307e-02 -6.868144316468879906e-02 4.420880912987733002e-01
-5.172415339853491528e-02 -1.193786428312442333e-01 5.001077103202223872e-01
-6.545060265181938675e-02 -1.091045853893565232e-01 4.687949659861097573e-01
-1.020722681564922157e-01 -1.140872019507313678e-01 4.987292849075929957e-01
-6.565464495033025705e-02 -1.173446040751123798e-01 4.885776805886905549e-01
-1.097589555529849270e-01 -1.180477622700060736e-01 4.655585637911446306e-01
-8.116589848323629841e-02 -1.150501082110517992e-01 4.731602528878757763e-01
-1.145880080821280907e-02 -9.856780707961211585e-02 5.659616618930580767e-01
-6.110739413273176546e-02 -1.098728506063076926e-01 4.715087676410654183e-01
-5.809884776964925612e-02 -1.030372554397956664e-01 4.617576014339307977e-01
-5.878648197132214925e-02 -7.354999647221549530e-02 4.423051409408637058e-01
-7.595938542252726744e-02 -1.197464900600227755e-01 5.034154768654699463e-01
-6.925139588460443862e-02 -5.673888820240305386e-02 4.377171633843329190e-01
-1.495004838001429658e-02 -1.015518701320760192e-01 5.641709204001902345e-01
-1.114501003865303458e-01 -1.144444860746801629e-01 4.624699715166857850e-01
-2.086608298429545871e-02 -1.263355986472173009e-01 5.226809474130609257e-01
-5.979955188961809387e-02 -6.482998147100471620e-02 4.395712743535587497e-01
-1.213039438192027031e-01 -1.041171503170805479e-01 4.685102684022378061e-01
-6.470471573255344444e-02 -1.195525259463916107e-01 5.085763292987938167e-01
-5.754007579228646863e-02 -1.198727342235236942e-01 5.154671247110135246e-01
-4.865963497574744834e-02 -8.458431175992542350e-02 4.483991679559028998e-01
-3.071756272932313347e-02 -1.068635295610894376e-01 4.679113499379324304e-01
-9.838951641850360308e-02 -9.407877106228415554e-02 4.469004822839702795e-01
-4.761480328429249648e-02 -1.206935530103226545e-01 5.092123680833909871e-01
-6.511959890616593472e-02 -1.188816519083729095e-01 5.139356757156701150e-01
-7.122412924124280065e-02 -1.062211049608800806e-01 4.625018652916627615e-01
-4.750170553075391128e-02 -1.204207773822507099e-01 5.054764680894010542e-01
-9.012205507311318864e-02 -1.102782907578139515e-01 4.577525368140328288e-01
-6.909109885068184798e-02 -1.191418440750920821e-01 5.115256700671274581e-01
-5.727177958084898185e-02 -5.823862358434179348e-02 4.388919483725263748e-01
-5.962182745008099555e-02 -1.197508280169061051e-01 5.087515396067513462e-01
-2.611165808520045720e-02 -1.244952404466427992e-01 5.090574522253702439e-01
-3.146151643484075555e-02 -1.212130886945717995e-01 4.970211611397014062e-01
-7.376140197322239578e-02 -1.106162313878722575e-01 4.685114780507521060e-01
-4.721083816805085598e-02 -1.071245940382088840e-01 4.695917556119517666e-01
-1.413300946109352640e-02 -1.266933108584798462e-01 5.030510753923901346e-01
-6.104976139668570612e-02 -9.731955908061201699e-02 4.548239308587327390e-01
-9.211960221117343472e-02 -1.151250453949734798e-01 4.615704079461140918e-01
-4.677086733676034946e-02 -1.143682443303561530e-01 4.818203323070923694e-01
-4.523136167974244060e-02 -1.181246013171902975e-01 4.921607895280695755e-01
-2.777406942955798486e-02 -1.138926072108949472e-01 4.778132030352410520e-01
-8.308233045847096543e-02 -1.177510755273331183e-01 4.816663499002376003e-01
-3.249319978932940778e-02 -1.145872300311711889e-01 4.814775091986112088e-01
-1.249484607946533231e-02 -1.241079069418581510e-01 4.926382863596279194e-01
-4.571258254975617968e-02 -7.079415500800771699e-02 4.431703515840116347e-01
-8.180682083745827171e-02 -1.133267315675298842e-01 5.154474244421575202e-01
-8.531888831944003937e-02 -1.195804762818504924e-01 4.917049207602941507e-01
-6.439548940821974987e-02 -1.195271755004022468e-01 5.021398594997321663e-01
-2.648706937938781480e-02 -1.119390614480322566e-01 4.737751897632061504e-01
-6.120583735827390959e-02 -1.194484853171717681e-01 5.053393644129738904e-01
-3.910320948167588656e-02 -8.326121147626829033e-02 4.488026848374344624e-01
-2.695644466220022822e-02 -1.038379509729419337e-01 4.624055405163293164e-01
-8.405099975409462132e-02 -1.191566193930915230e-01 5.057445908579633054e-01
-5.197058476695935736e-02 -9.502828077744054913e-02 4.551451257514612658e-01
-5.307548744279191183e-02 -1.173709711036934333e-01 5.269378360975898179e-01
-4.607659245242908680e-02 -1.062783868542836047e-01 4.683359162717907198e-01
-4.061399416864861639e-02 -1.012154068437833704e-01 4.627762191612458942e-01
-5.571846068504991006e-02 -1.202287102898269844e-01 5.112773485474133572e-01
-9.855527887163162415e-02 -8.377139154971041668e-02 4.466803600697288323e-01
-7.821271270413551746e-02 -1.176002284367596018e-01 5.127430913717296868e-01
-5.340594196053000814e-02 -1.192956563241360790e-01 5.000659439616981228e-01
-5.379143989771245637e-02 -1.202565677354605483e-01 5.072142216779293999e-01
-9.025528532374423041e-02 -9.901084024841497189e-02 4.496218174633652698e-01
-4.980803566565942392e-02 -7.104655598495304702e-02 4.429399206450236326e-01
-3.227014422822332279e-02 -1.217229555704174154e-01 5.357839499613294976e-01
-6.735674972824030882e-02 -7.172161702720106224e-02 4.391673975152455833e-01
-1.180264741790059413e-01 -1.107148233717404062e-01 4.672272937969353945e-01
-7.561200708887007294e-02 -1.192748756165517704e-01 5.084826145602426850e-01
-1.101959140577215140e-01 -1.190782889433751601e-01 4.745773431511922658e-01
-5.460537275463604734e-02 -6.380228502724367978e-02 4.401972779203962016e-01
-5.267081397415774441e-02 -1.198648003717463772e-01 5.036143864277482507e-01
-3.955558744998306092e-02 -1.029425586769046191e-01 4.646862304297214030e-01
-8.319156835113271364e-02 -1.175717476040025605e-01 4.812244364280799380e-01
-4.086532916749632816e-02 -1.168449512162770959e-01 4.877777384331947741e-01
-9.672587997235232438e-02 -1.200971723115690781e-01 4.683698322162453409e-01
-7.063919020694695017e-02 -6.714084473104181550e-02 4.372639139258592267e-01
-3.999319802291090298e-02 -1.212856649443903451e-01 5.289069666741704756e-01
-1.054549893226641027e-02 -1.221766850575081581e-01 5.389874319302119243e-01
-3.808093391107250647e-02 -1.209416540530764556e-01 5.027802203385222102e-01
-6.419557889627609815e-02 -1.100561485711554766e-01 4.712292632453320418e-01
-5.137782374334876057e-02 -7.605896437242201658e-02 4.445824676975691503e-01
-6.531338395948763087e-02 -9.981910539516664072e-02 4.561444475294040291e-01
-4.993098797310751430e-02 -1.203882111665645210e-01 5.078415539524950839e-01
-1.051157649554175233e-01 -1.145350742895231422e-01 4.572849036087532903e-01
-8.658715280748607857e-02 -1.071638721030615388e-01 4.566934533679297692e-01
-8.054349231475600723e-02 -6.665761399314269753e-02 4.371878168867824321e-01
-3.416242344381988788e-02 -1.184503370219057716e-01 5.416092100892392347e-01
-2.418008174538457955e-02 -1.253686826434556312e-01 5.151626116200088701e-01
-2.543257481432725092e-02 -1.151328132819125910e-01 4.780763624683530000e-01
-3.248199961693327975e-02 -1.170161075932838607e-01 4.866236763961771516e-01
-1.190843295757103432e-01 -9.793624017424312767e-02 4.669197483614693223e-01
-7.539739091123669190e-02 -1.164209029041284732e-01 4.806279322523592801e-01
-8.663776331596186042e-02 -1.090788491056284976e-01 4.588855098145052103e-01
-1.476417462304601205e-02 -1.272570333435023016e-01 5.230548086358144388e-01
-1.150182357892351459e-01 -1.144430848769976139e-01 4.870057376091268542e-01
-9.076643482134044705e-02 -1.192741236228559432e-01 4.964702433302530804e-01
-9.954301188442070403e-02 -8.690750114997038145e-02 4.470334440512763186e-01
-1.859602273855215024e-02 -1.156175609458003489e-01 4.754956391356137679e-01
-8.140362218714937426e-02 -8.028528277674243374e-02 4.401712502986991349e-01
-5.588095830618605708e-02 -9.834155531792040938e-02 4.566895421228613361e-01
-2.376102303780613934e-02 -1.246154631142264851e-01 5.314145341664441302e-01
-3.863178197046425455e-02 -1.178514621049573108e-01 4.901918865903489020e-01
-3.480156214994676450e-02 -1.139572163764106111e-01 4.811019131928777059e-01
-3.772431322503727591e-02 -1.157852026726308575e-01 4.848723221178326548e-01
-2.557758783920398640e-02 -1.033773039615349665e-01 4.614554012196067090e-01
-4.589108034025529692e-02 -1.133846424125132396e-01 5.345430003897524429e-01
-1.131347145698648332e-01 -1.173547563922106296e-01 4.694836290368160636e-01
-3.718567566878776959e-02 -1.078170037737405246e-01 4.701936099475957920e-01
-3.523004182102928289e-02 -1.191815096102194077e-01 4.928674242454115784e-01
-7.816737740421769720e-02 -1.059646731756870436e-01 4.595439587615109955e-01
-1.149035075805350803e-01 -1.102644222240533461e-01 4.618192297555885895e-01
-2.403850950169492129e-02 -1.207053062687816064e-01 4.899525259601697491e-01
-5.077402016580868233e-02 -1.201208960949810556e-01 5.199786384502405046e-01
-2.041382615159105518e-02 -1.177820927150246555e-01 5.518542215978128329e-01
-1.191875598638343636e-02 -1.261251210651201382e-01 5.292612366286271186e-01
-9.100937961734117954e-02 -8.217197143925696057e-02 4.427059473372763065e-01
-3.921739197951368272e-02 -1.160148179800598589e-01 4.853975638695583461e-01
-1.499297732654832419e-02 -1.192044132241585064e-01 5.498589099344791675e-01
-9.434115026565352558e-02 -1.188951395733585797e-01 4.973340539314471953e-01
-4.895693916469791296e-02 -1.206813590450712403e-01 5.153092282968606552e-01
-4.647519376665894264e-02 -8.937630747594747793e-02 4.520994250971399619e-01
-3.679802921744891597e-02 -1.188353814537609493e-01 5.381939266057171878e-01
-1.746411825426634479e-02 -1.094492762546022402e-01 5.600942679221092568e-01
-3.359717977159875496e-02 -9.803489187698805063e-02 4.590832768109466278e-01
-8.014492439431064597e-02 -1.197742330325966553e-01 5.014614445679386190e-01
-9.051481426463427182e-02 -1.130491277732642852e-01 5.089249280007840381e-01
-1.028313169792535314e-01 -1.216676412235215554e-01 4.699953710297961051e-01
-7.155044153433390286e-02 -8.827419537807443262e-02 4.457771621060669931e-01
-5.239528388475232779e-02 -1.203821935807933008e-01 5.160464408236467015e-01
-9.850956724114515173e-02 -1.155138962029632760e-01 4.577955707995396972e-01
-1.217046128726827388e-02 -1.278550867581818018e-01 5.087217389900438036e-01
-9.080358034256122424e-02 -1.192183862767730029e-01 4.970582828432114630e-01
-3.183090422203233016e-02 -1.226896086713284151e-01 5.061055464912515012e-01
-8.578136830909123545e-02 -9.543237055553882575e-02 4.487519352950575247e-01
-1.075698043464546755e-01 -1.166286510717817609e-01 4.620720175476353830e-01
-4.789887590011321361e-02 -1.061570763592684791e-01 4.680297561168855758e-01
-8.443041357741011554e-02 -1.197401446038254547e-01 4.987453053509152134e-01
-1.639688579849043690e-02 -1.269191625066353191e-01 5.072660686808229125e-01
-8.675180275678344433e-02 -6.850550893452990453e-02 4.408696008455128545e-01
-1.680747302150290001e-02 -1.181524761889529151e-01 4.801482263944690243e-01
-5.971198699327126547e-02 -7.577700888244416622e-02 4.427245487788147860e-01
-4.772537071966238137e-02 -1.186723369002310458e-01 5.302733554114257286e-01
-8.958853026912853845e-02 -1.182475893812012790e-01 4.764960314415659925e-01
-6.250226141228584775e-02 -1.166065624063369333e-01 4.880142714254074865e-01
-5.363783991475252338e-02 -1.202913217508716909e-01 5.164266019690429976e-01
-9.537727840258468370e-02 -1.108253286165415546e-01 4.560302534211988501e-01
-5.753897263330710887e-02 -7.193488816379388362e-02 4.420680736255809262e-01
-1.587283484817136187e-02 -1.177802284517545928e-01 4.790960870753843692e-01
-7.155852706366565286e-02 -1.195659165842169191e-01 5.061342525050546159e-01
-3.842904449770307568e-02 -1.222507926862692745e-01 5.177322472170138301e-01
-9.658611268360788038e-02 -1.090918282823557933e-01 4.538816958424237158e-01
-5.781610151646988938e-02 -1.143675735249758268e-01 4.819548065126367797e-01
-9.820900763204472306e-02 -1.188843055441456548e-01 4.625499225328623121e-01
-9.223831798859633002e-02 -7.639411491526790221e-02 4.446272481192823922e-01
-8.515776579949904668e-02 -1.148265163948922474e-01 5.116203854258714045e-01
-8.959277152866799987e-02 -1.142824938083712161e-01 4.625506905947670000e-01
-2.696885153142948924e-02 -1.204904385649525067e-01 5.432246979698288625e-01
-7.076475015800544333e-02 -5.869318780836890737e-02 4.369863367023170686e-01
-6.047458365120691320e-02 -9.108707152259322426e-02 4.499149873318218917e-01
-1.088135752767194903e-01 -1.177450592661823531e-01 4.643272696103685759e-01
-6.508974475134965409e-02 -1.195296480645970105e-01 5.091128676843089673e-01
-8.921368952935658514e-02 -1.180380693036871403e-01 4.713372929218673235e-01
-7.359256319517104572e-02 -5.896676958398654883e-02 4.370127322700769756e-01
-7.239135417637430903e-02 -6.071262435571296578e-02 4.365175478844470214e-01
-2.107451333708043606e-02 -1.120544621521996353e-01 4.710125723475515613e-01
-2.399092158985670006e-02 -1.092261048261876089e-01 4.684007350673844994e-01
-2.544965495993168486e-02 -1.236734706896287922e-01 5.012570995700753596e-01
-1.134109951531900168e-01 -1.175921372234307455e-01 4.823145936217544949e-01
-1.043544582773301699e-01 -1.047107202638346835e-01 4.522307340469126635e-01
-7.046013314357414681e-02 -1.049889011371404474e-01 4.611447532783975456e-01
-5.056152162466106409e-02 -9.656645974147683165e-02 4.568221056187666829e-01
-5.671910711902381635e-02 -8.418319481918766500e-02 4.465946980799945232e-01
-1.014668772953450787e-01 -8.520265558793810312e-02 4.494889891513476066e-01
-8.893064234459077677e-02 -8.779001869669561531e-02 4.444483803678581646e-01
-3.274514795596460137e-02 -1.234423757354879692e-01 5.215048942467155335e-01
-1.128716394161103503e-02 -1.280488632837334939e-01 5.091906400594049531e-01
-4.973289171045272572e-02 -1.199887639626811692e-01 5.238982164903762673e-01
-8.189813075800347897e-02 -7.428322171092069381e-02 4.379114599977252387e-01
-8.538045209994582496e-02 -9.862507483168841960e-02 4.509592093914580047e-01
-5.063854081844666039e-02 -1.177542118604381072e-01 5.284586675350742002e-01
-2.137380151780981716e-02 -1.118333254507376667e-01 5.578389850914469150e-01
-5.095847554249675893e-02 -7.218452959333793162e-02 4.432674880819331142e-01
-5.860791357839464227e-02 -1.149649743646976169e-01 4.835817618402005746e-01
-4.335617233643712654e-02 -1.213780977217949059e-01 5.123368791270094258e-01
-8.832631752914181511e-02 -8.498131146602554142e-02 4.430956315743623808e-01
-4.773522466539133202e-02 -1.119176478264278518e-01 5.340335051606698302e-01
-7.703889859289067207e-03 -1.291164158682009955e-01 5.182297891068742279e-01
-4.303680093572950782e-02 -9.750845427635355944e-02 4.588807281081095923e-01
-8.036962008223393072e-02 -9.006981614852002660e-02 4.461192369386508538e-01
-8.112341022765763576e-03 -1.256690849232943996e-01 4.958237143090477583e-01
-6.365087350328739457e-02 -1.194692530702162331e-01 5.025332747399844369e-01
-7.379433298940900332e-02 -1.070287977058146656e-01 4.626314629354257302e-01
-3.894454673884061024e-02 -8.626197411122193959e-02 4.505772623914428010e-01
-8.899223567513683819e-02 -1.101565029627148279e-01 4.584008691180659345e-01
-1.086956203762966255e-01 -1.197480466906029883e-01 4.763095085859349598e-01
-3.812261669740980158e-02 -1.220957107513108569e-01 5.127837963346484340e-01
-6.751012075033901993e-02 -1.141146257205508524e-01 4.788498925008903839e-01
-1.068692460885599105e-01 -9.971583157784172369e-02 4.507626599915254273e-01
-8.479050109592299600e-02 -1.184651442478926175e-01 5.073690020402257250e-01
-6.179532455724284778e-02 -1.191483545536314720e-01 5.005014770509449429e-01
-7.598302125789113681e-02 -9.692993367054116016e-02 4.519274349568191407e-01
-2.560233303901888330e-02 -1.245617773845983517e-01 5.082846289074819390e-01
-9.003361578067707593e-02 -1.069694758391178530e-01 4.546866153808152844e-01
-8.667649828593729233e-02 -1.173984870557210902e-01 5.075593805932876457e-01
-2.194282224316583887e-02 -1.253064399035743182e-01 5.046390250620440554e-01
-4.389044910317090042e-02 -1.100235448540021338e-01 5.370728544228472456e-01
-4.824080133312852459e-02 -1.142247964764969842e-01 5.325912493940367920e-01
-5.929282051110456447e-02 -1.185724010281677676e-01 4.973703275075973540e-01
-2.431617787179747581e-02 -1.253482531860226068e-01 5.154440735725404066e-01
-5.570347480655193917e-02 -9.936483874875709499e-02 4.575244980140446560e-01
-3.119675412001307255e-02 -1.223432117386907825e-01 5.340057878162752791e-01
-8.225259456116609802e-02 -1.102219722790428597e-01 4.637372136630666941e-01
-9.208370893553895209e-02 -1.165132535363329058e-01 4.652766866667046863e-01
-5.102706090171869185e-02 -7.247604610866839603e-02 4.433652644078529548e-01
-1.183469598824761354e-01 -1.147592294440880067e-01 4.787907914934225739e-01
-7.159341533481629327e-02 -8.342633375492525261e-02 4.427158050723905558e-01
-9.887885961001387225e-02 -1.207734604683109725e-01 4.755502651744703546e-01
-6.157617859129860260e-02 -1.194276722390646001e-01 5.112552365385349962e-01
-3.794388679559619615e-02 -9.038096488467022016e-02 4.538370789661801408e-01
-1.026208992124961472e-01 -9.963437566566726855e-02 4.497088875530877439e-01
-1.962899764133930677e-02 -1.243400976126507879e-01 5.349828845982274039e-01
-4.692214949499828869e-02 -1.187497367971845352e-01 4.952054059727986624e-01
-3.459502110971100081e-02 -9.269986479523820155e-02 4.552812160806553043e-01
-3.134497188656888006e-02 -1.222758767857630158e-01 5.018802807388500486e-01
-4.041648589919739909e-02 -1.144659506074650612e-01 4.823203263714952449e-01
-9.243885702017290429e-02 -8.367705399562984370e-02 4.430428822268482336e-01
-5.112722800406947071e-02 -1.187509709601281271e-01 5.263855129776119357e-01
-2.347031381227560748e-02 -1.211737773324760015e-01 5.439459485087240198e-01
-2.413202104886682381e-02 -1.243643632293750800e-01 5.323730526826078169e-01
-2.387642344891543686e-02 -1.257066536568990367e-01 5.226337866456671755e-01
-7.651361654934650536e-02 -1.185120323862323549e-01 4.857654924698966425e-01
-4.923382707997855934e-02 -1.184674089019500109e-01 4.944977546248457423e-01
-3.018033491020387371e-02 -1.230627817976175514e-01 5.314897830048541660e-01
-2.636470411195825786e-02 -1.200025993931526230e-01 4.897244334817314471e-01
-9.064333367004558106e-02 -1.152141866946116561e-01 4.636492000538037228e-01
-7.807204379470947253e-02 -8.644991215499904513e-02 4.440486417589972756e-01
-6.368642625552639602e-02 -9.039463339120992758e-02 4.486779603572341735e-01
-5.705037197406121613e-02 -8.903560445766284248e-02 4.492125002641363940e-01
-8.139723418364491758e-02 -1.018399037075119473e-01 4.546953154541660269e-01
-4.823785652032550747e-02 -1.059988617756307538e-01 4.677599376437849843e-01
-3.130334699915580943e-02 -1.132595282865966474e-01 4.783971708144840740e-01
-1.676715576983017070e-02 -1.090856302261143246e-01 5.603610816350379498e-01
-7.880097942752539719e-02 -1.186103033982934957e-01 4.861901599597425738e-01
-7.483845625297122495e-02 -5.664714703843357069e-02 4.380873521597053455e-01
-9.715909959644071503e-02 -1.211483942698622640e-01 4.712922761916845671e-01
-1.858981094098115239e-02 -1.263565573031202316e-01 5.265516152719188492e-01
-7.337659443939309467e-02 -1.198764545672167808e-01 5.009799285869628305e-01
-3.534717809470594441e-02 -1.092758152263427762e-01 4.719632273403821521e-01
-4.055351747396959000e-02 -1.218867485727214151e-01 5.186989220938612588e-01
-8.152543673320874693e-03 -1.265714123948159797e-01 5.298336078419285666e-01
-9.078890978318211735e-02 -1.029437191067389123e-01 4.524532114430231400e-01
-5.398815558837846001e-02 -1.121886573808655863e-01 5.305700859096434963e-01
-4.549572522499219923e-02 -7.380472171109384028e-02 4.443360251991720355e-01
-6.007715321648779416e-02 -7.807593166526914652e-02 4.432824748216754873e-01
-3.259384909496237243e-02 -1.233225840766801890e-01 5.171443439340516202e-01
-8.409030286735684478e-02 -1.172895507845256868e-01 4.803357870323248235e-01
-1.817908190943358371e-02 -9.828995295313228131e-02 5.635044052717308460e-01
-3.509113709551993365e-02 -1.217093469751022311e-01 5.319000885934019873e-01
-3.310935387785794021e-02 -1.215165213588356996e-01 5.354031870987278063e-01
-7.111336140731722155e-02 -1.193102172131167149e-01 4.945576409021567033e-01
-5.881016293884275270e-02 -1.196631599867641893e-01 5.152999961056861089e-01
-2.678391160908654561e-02 -1.028917050990300064e-01 5.559126660325921510e-01
-5.052019026223582288e-02 -9.817748717160650063e-02 4.581993499203932396e-01
-1.028823336336615879e-01 -9.838842914057747968e-02 4.492984337620654633e-01
-4.377665877576181197e-02 -1.208090860560467605e-01 5.273582851645732816e-01
-5.402277545594656033e-02 -1.204050074207000665e-01 5.114830964723933171e-01
-9.823553711668478461e-02 -1.199590379247205962e-01 4.653135451692696489e-01
-5.380784889664970427e-02 -8.912030076599762596e-02 4.499316105982718028e-01
-8.199834582062523469e-02 -8.491426101885478361e-02 4.426490945944944189e-01
-1.108410952475947231e-01 -1.144125674380379459e-01 4.925721330119950947e-01
-4.006803061523728227e-02 -1.214172368377477440e-01 5.280532688122209217e-01
-5.933499897607240336e-02 -7.528133319614339902e-02 4.427020161820990896e-01
-7.247865330323866040e-02 -1.189701576399427585e-01 5.108427419848091677e-01
-7.430471137743725751e-02 -7.142830497238922272e-02 4.375110209633084057e-01
-4.035125156824694720e-02 -1.121224667861902974e-01 5.383507421081672462e-01
-1.080842670753634494e-01 -1.208938233406537666e-01 4.696229794456532880e-01
-4.717018845521053078e-02 -1.193229281454680490e-01 5.301719153137608442e-01
-2.349793295015698696e-02 -1.236141475873249879e-01 5.370286797704085791e-01
-6.872880396308100881e-02 -9.645725600045604309e-02 4.524812967327624391e-01
-4.042223309919951157e-02 -1.213514953015497333e-01 5.280659480633119740e-01
-1.202750239690860007e-01 -1.019620631455582099e-01 4.642078401838010127e-01
-7.123464889884199847e-02 -6.850638951131535204e-02 4.374109792784555140e-01
-2.643632407439731186e-02 -1.239918897534324355e-01 5.044878309506537484e-01
-3.245496379241681606e-02 -1.075647987200340217e-01 4.693506195715075879e-01
-9.481382318567414813e-02 -1.176120142894822446e-01 5.027362943678971297e-01
-8.404687611048690388e-02 -1.185351210914647735e-01 4.844838143507802508e-01
-7.573122520209386865e-02 -6.310889403004350806e-02 4.358807348578077612e-01
-8.676784573247932342e-02 -1.196316534032946799e-01 4.926864178390428228e-01
-1.442286262378607818e-02 -1.278301632257214104e-01 5.164841808936814216e-01
-3.738325286860186975e-02 -9.663436742927698775e-02 4.587730879236746606e-01
-2.681608812564604052e-02 -1.110724241886723862e-01 5.540774181550309763e-01
-9.250150554902779321e-02 -1.196349623887097979e-01 4.916792370721516647e-01
-1.053689103777291358e-01 -1.204303805604091948e-01 4.781875491280154766e-01
-5.011480084669110713e-02 -1.204236678458697890e-01 5.085174529003442245e-01
-9.907645087054725574e-02 -9.540282643102501736e-02 4.475615638248883754e-01
-4.529001894575124948e-02 -1.208379788254222154e-01 5.257660217702126992e-01
-7.729495353833082394e-02 -1.170442897747799166e-01 5.138799354381332618e-01
-4.967939446985324831e-02 -7.250004831765449742e-02 4.434950803273122744e-01
-1.455297743611628364e-02 -1.274341433052666728e-01 5.085656424382100083e-01
-5.587993279067799551e-02 -1.009231519030538565e-01 4.594909188691976287e-01
-1.083102209898429286e-01 -1.184762972256219321e-01 4.855782739548702986e-01
-7.501585977233037050e-02 -8.208716613878631885e-02 4.412297990084641519e-01
-6.052265745038939299e-02 -8.984806773479425690e-02 4.490548963285524997e-01
-5.876133078188907483e-02 -1.148236508725913041e-01 4.830509473637796258e-01
-1.161493646473897579e-01 -1.162326083971056828e-01 4.753147865407736927e-01
-9.980746108208742723e-03 -9.941621259275745803e-02 5.659164798942057928e-01
-8.700348355405920775e-02 -9.889143302357258913e-02 4.505839018207998259e-01
-2.580780962335596507e-02 -1.222658896839540765e-01 4.959361455307869093e-01
-8.047706888477529352e-02 -1.115040025861970263e-01 4.664797334704758880e-01
-6.751351006879831307e-02 -9.226093840618236619e-02 4.492775905476185661e-01
-5.151714703945819984e-02 -8.038102849700549946e-02 4.460800216037825172e-01
-4.476914272327825461e-02 -8.651766030198156099e-02 4.503215572986720705e-01
-2.061526688485730910e-02 -1.146134655303848310e-01 4.745985283875612248e-01
-2.967681721509011702e-02 -1.217904856567977312e-01 4.979012563749341536e-01
-3.872737856013316188e-02 -1.203213813704891028e-01 4.993949514145403223e-01
-7.432084891003920557e-02 -7.366768581303971553e-02 4.381244474170796210e-01
-1.179667891828782428e-01 -1.157633550721046817e-01 4.797103914994714224e-01
-1.037858708635552157e-01 -1.207100518700648106e-01 4.740339228845731334e-01
-7.766317090594400396e-02 -1.190128538344221720e-01 4.884362742925376089e-01
-1.069084100248862135e-01 -9.539137306511638603e-02 4.500832412762540424e-01
-7.543513332198806265e-02 -1.189189797682781713e-01 5.098769136683960479e-01
-5.470718109694289177e-02 -1.166060240641631218e-01 5.268745824961876822e-01
-2.746681045669056853e-02 -1.186030775470297283e-01 4.867261762846930573e-01
-2.876350577848946558e-02 -1.103022915169558499e-01 4.725502065917264738e-01
-8.387438931104364281e-02 -8.144652312722065746e-02 4.409776225487162526e-01
-2.830112410030042464e-02 -1.242190403996737413e-01 5.263206905405108937e-01
-1.741056434799272482e-02 -1.271505606805710953e-01 5.169051499828128948e-01
-2.256254746683378568e-02 -1.097677006152209950e-01 4.684715956908004353e-01
-1.406713502595961611e-02 -1.173273771786845082e-01 5.531006799829453202e-01
-7.013839984892489277e-02 -1.196153959895079055e-01 5.054948143749741218e-01
-6.179088809757607437e-02 -1.007039681545351673e-01 4.579411190120384334e-01
-2.357530123616533718e-02 -1.174871253097599794e-01 5.512188996659439510e-01
-8.662915934672169027e-02 -1.057931731803262165e-01 4.550767319159163549e-01
-7.948322936095371383e-02 -9.869074361005078511e-02 4.524762045224645091e-01
-3.041969620361117260e-02 -1.163834162243333886e-01 4.845397029672901534e-01
-3.703618956075938051e-02 -1.076038476412976702e-01 4.699097483879176029e-01
-4.398799206737133427e-02 -9.027556432548133891e-02 4.531941360589737955e-01
-2.615966134440339541e-02 -1.056674818096422774e-01 4.647064994904842594e-01
-7.983208944490151338e-02 -1.056483287296638568e-01 4.586129885563455799e-01
-8.622584791588169817e-02 -7.891660945431533403e-02 4.406507484226570015e-01
-2.564836160055004866e-02 -1.244518069958138740e-01 5.072127565060395860e-01
-8.354684249929476836e-02 -1.197865615078891888e-01 4.994319759204896569e-01
-4.120044219665709023e-02 -1.111787458389399963e-01 4.758537506545726381e-01
-7.843169335013781829e-02 -1.005380305908378652e-01 4.543752094447679468e-01
-5.895552188738376054e-02 -1.185792999854251573e-01 5.194757892767072338e-01
-7.321978129875673924e-02 -1.165981490331515630e-01 4.818807518005436830e-01
-1.047523102808104734e-01 -8.813100330693153517e-02 4.508985009237217456e-01
-7.505741578684964332e-02 -9.399877569051817705e-02 4.499157493025042753e-01
-1.191670623254611622e-01 -1.127481731441867113e-01 4.777046581745059139e-01
-1.128159714119094936e-01 -1.051745186870273047e-01 4.559405508086257774e-01
-6.921919587660130269e-02 -5.177835472364339386e-02 4.396227354482794003e-01
-5.956111468345298698e-02 -1.045750520230960129e-01 4.632108182715713451e-01
-2.119205670730876095e-02 -1.173837584799967415e-01 5.523025715247087408e-01
-8.945097567279139406e-02 -1.030586614666200440e-01 4.528167290552290170e-01
-7.323021826591050165e-02 -1.001822142128110799e-01 4.550470461312318693e-01
-4.653733373911080051e-02 -7.172127575839035152e-02 4.434458836481173227e-01
-9.771064145599367423e-02 -1.212189640228812232e-01 4.703823572573926359e-01
-4.249571572116752488e-02 -8.077644446495907404e-02 4.473412306163875862e-01
-1.875454742173044906e-02 -1.267539111844466770e-01 5.157494726370038807e-01
-2.172018152465025193e-02 -1.076818899894936427e-01 5.598695774539659276e-01
-2.119015428997864797e-02 -1.248992287579406002e-01 5.019555577666313662e-01
-4.389883064700633025e-02 -1.213180876877514996e-01 5.225771038541278113e-01
-1.013548177343814721e-01 -1.201948161228659495e-01 4.783035801370866258e-01
-5.419351003997958244e-02 -7.029844371369804723e-02 4.422104407858236663e-01
-3.386314280434432611e-02 -9.620780865798847503e-02 4.577433046887929846e-01
-2.752701897966562325e-02 -1.036425551098514031e-01 4.623697713673316501e-01
-4.578737658102821628e-02 -6.860942667760196179e-02 4.424757395700733009e-01
-4.073147751855702575e-02 -1.196970761083723522e-01 4.970492631241973935e-01
-8.665465819460664576e-02 -1.144700637392744857e-01 5.106719249840092623e-01
-1.055000064326227088e-01 -8.969202478911665610e-02 4.504320935981991902e-01
-8.057332766069971730e-02 -1.065574436701139799e-01 4.590779257621580567e-01
-7.294807096333637275e-02 -1.182479213008990337e-01 4.863822810660897722e-01
-1.032857243170588191e-01 -1.203797361764512713e-01 4.792396183159050582e-01
-1.184265701606042193e-01 -1.123349551054934614e-01 4.728457865663233672e-01
-2.110715521155675373e-02 -1.152006876725776285e-01 4.758475295583043385e-01
-2.146485670005458812e-02 -1.234666977598190690e-01 4.965065373168445761e-01
-1.165459677121726961e-01 -1.106743689785467111e-01 4.639845057676107443e-01
-8.528581347784616740e-02 -1.081029687650177373e-01 5.139165517613845102e-01
-5.088969665601853626e-02 -1.181333477266577753e-01 4.934221007256067160e-01
-4.849900892273539127e-02 -1.130436839971599439e-01 4.790762787060943162e-01
-8.232750076679334894e-02 -1.176273050394869568e-01 4.815820717033074683e-01
-8.347464205089745459e-02 -1.142996391523277144e-01 4.688868437020792257e-01
-8.921193622739333196e-02 -8.917108106644680565e-02 4.449501818072322812e-01
-2.510567988637887882e-02 -1.211962520508378521e-01 4.922940554984923667e-01
-1.770304596834881838e-02 -1.061832655671993697e-01 5.615419733398647750e-01
-5.175900802089410113e-02 -1.182767988130569714e-01 4.943000286376604269e-01
-4.334316203557819769e-02 -7.324076147658216407e-02 4.440373094657093511e-01
-8.843107722574365670e-02 -1.188114984812746744e-01 4.806582366212079904e-01
-7.087649718273265897e-02 -9.253331591672636636e-02 4.491364859297348744e-01
-6.563502140104754412e-02 -1.096192244055124998e-01 4.698066531384964550e-01
-1.113799261040162580e-01 -1.182679457781502796e-01 4.826037587460463296e-01
-6.353738919453166822e-02 -1.016852143552029464e-01 4.585047898821830170e-01
-1.199961791892173030e-01 -1.076910694727322843e-01 4.808599721632231816e-01
-9.627547750478768207e-02 -8.007329045862048023e-02 4.462742878780611155e-01
-8.146750443863610969e-02 -1.145411109258292204e-01 5.145191058709256415e-01
-2.395153354469455736e-02 -1.211902537330109136e-01 4.913405744418190002e-01
-1.041024834487911666e-01 -1.108128865057864121e-01 4.542369496748581148e-01
-8.247899740200266561e-02 -9.799765147858260916e-02 4.513164259870747208e-01
-7.528643445094830577e-02 -1.167914115393901969e-01 5.147215699693996616e-01
-8.111637258077646073e-02 -6.713921593448855807e-02 4.375270500122030448e-01
-1.729365392775608634e-02 -1.173061066060820390e-01 4.785393652067471693e-01
-9.536819044951085067e-02 -1.201066715070280982e-01 4.710779687394088255e-01
-3.092737650417879194e-02 -1.237091700246375492e-01 5.166909065201057416e-01
-5.771689830936570925e-02 -1.183757823757934646e-01 4.958427511636497864e-01
-2.752646248288856401e-02 -9.411933439871057738e-02 4.542057983544326993e-01
-1.135647527417503605e-01 -1.090625328584471643e-01 4.594771810678592305e-01
-8.030568776880281368e-02 -1.182659284135010452e-01 4.842430339433115294e-01
-4.224292972838288723e-02 -1.138483435608592387e-01 4.810269414138156896e-01
-3.473667570887129658e-02 -8.008323341898891667e-02 4.463953167052786553e-01
-6.327277360335584189e-02 -6.964325905754624457e-02 4.399664023448621730e-01
-5.019281407808066919e-02 -7.299189225428907857e-02 4.436202420669327351e-01
-2.014482475988924395e-02 -1.243650521160575145e-01 5.347169262084743302e-01
-1.063252035123516681e-01 -1.152276350031682106e-01 4.946991349130865356e-01
-8.380899580681529584e-03 -1.256034488685588979e-01 4.957352916671951548e-01
-4.499212667170198604e-02 -1.163693370379390302e-01 5.336549100841472271e-01
-6.901425845045001950e-02 -5.406826362216732990e-02 4.387285149187453159e-01
-4.171509043174979198e-02 -1.021607675801161769e-01 4.637182950687391281e-01
-1.418731233654322611e-02 -1.002473872817849915e-01 5.648103776167284762e-01
-7.631841825322231709e-02 -1.181544727481032425e-01 5.119410923883099818e-01
-5.101813127920803992e-02 -7.431706282677261188e-02 4.440077490591901044e-01
-6.531478288232789309e-02 -6.983498418226263826e-02 4.392398050959989142e-01
-1.555631763072152542e-02 -1.007557141494154901e-01 5.641688883800103360e-01
-1.564666695734855117e-02 -1.148382854389759233e-01 5.561263421799668150e-01
-4.737404492754342805e-02 -7.647016555656735437e-02 4.452655567764567390e-01
-5.338283504820572067e-02 -1.127254791979343945e-01 4.783973258747259427e-01
-8.594840308955355168e-02 -1.045686474505313629e-01 4.546436650378569144e-01
-1.075507209153610672e-01 -1.182595482094904171e-01 4.874029849026439432e-01
-5.722286768401845664e-02 -1.165987406627770895e-01 5.250837672452213223e-01
-3.948071143563965102e-02 -1.115865205828369400e-01 5.392125446597637595e-01
-1.549725653977018607e-02 -1.258179660071638839e-01 4.999392520181759614e-01
-8.499596020091722270e-02 -9.780299925899058056e-02 4.505599267252941020e-01
-5.066599986956590862e-02 -1.203883412261991526e-01 5.083530144199859269e-01
-4.196590342179763733e-03 -1.289154108453929581e-01 5.119185806779840142e-01
-9.985933023730098057e-02 -1.128365543147768629e-01 5.029285977705388877e-01
-9.245806337332938829e-02 -1.161811704471795159e-01 4.640352761127685688e-01
-4.129338318523734230e-02 -9.403322094484709015e-02 4.563245956851569307e-01
-4.938324705879466869e-02 -1.131941462113194713e-01 4.794425859039891380e-01
-4.069115724508461790e-02 -1.216454062823372761e-01 5.117033689493365456e-01
-7.406254695064780347e-02 -6.294291483147299027e-02 4.362079695663420575e-01
-1.181118438351851790e-01 -1.098422379699490053e-01 4.655036045452276561e-01
-6.702615906378628363e-02 -1.051126021316484693e-01 4.618121938067343279e-01
-8.638371167842062714e-02 -1.128644447821365582e-01 4.636376948854870061e-01
-2.534061917608435022e-02 -1.242901347884971808e-01 5.040876842627002308e-01
-5.343718126175287658e-02 -9.044937652118116567e-02 4.509558521270991549e-01
-5.457973759768068589e-02 -1.061065200109506113e-01 4.667001876032793040e-01
-7.809825265068365274e-02 -1.134632358875970609e-01 4.713647547138527516e-01
-1.153023878542113606e-01 -1.166540989539774226e-01 4.751650110868562704e-01
