-3.580620590854137475e-02 -1.227525651146985780e-01 5.226887619302121868e-01
-3.576967566591904291e-02 -1.222227152742024203e-01 5.096659036660963205e-01
-8.375670981897793965e-02 -6.544759715226144969e-02 4.389896990843295543e-01
-7.800304097658827818e-02 -1.010562917465496202e-01 4.554103658376780772e-01
-9.014629118279146591e-03 -1.249116423084251359e-01 4.940489983665927731e-01
-7.695283959995699585e-02 -1.154456507857702929e-01 4.784910832507909828e-01
-7.099641500451267517e-02 -5.740576425949589501e-02 4.378246822952996942e-01
-1.012002543849159497e-02 -1.217847616829086654e-01 5.403495824979779316e-01
-7.386540907044580884e-02 -1.050688484168249004e-01 4.605461922471047465e-01
-9.947400795850322441e-02 -1.213350682747509901e-01 4.709757229518241606e-01
-5.134292849979872619e-02 -9.827882987991674868e-02 4.583409349285095802e-01
-6.819657040038697160e-02 -8.799114590452521145e-02 4.464993922165165219e-01
-3.870768934017778523e-02 -1.220366922817640587e-01 5.234259441518276379e-01
-1.467916392030685704e-02 -1.211015849555528434e-01 4.858300505016682758e-01
-1.575777121860024929e-02 -1.259803416529986231e-01 5.292090258834388772e-01
-6.156105966715145345e-02 -8.144450324443690270e-02 4.445368696977339829e-01
-9.268974532091910079e-02 -8.173739142698810412e-02 4.439689317387486289e-01
-4.776590245244273503e-02 -1.004104594240392695e-01 4.613111492342352737e-01
-6.076674620025670354e-02 -1.195304257549519300e-01 5.097576140938027134e-01
-6.762845047276433430e-02 -6.080161890214291764e-02 4.374636526607363907e-01
-9.219786960223469441e-02 -1.137636411812332354e-01 4.603047485813167028e-01
-6.615388684296832911e-02 -6.678114794496155249e-02 4.386291968886438242e-01
-6.929155137558987154e-02 -8.221437886828582287e-02 4.427700376699835183e-01
-7.214892453470894695e-02 -1.197369557995529854e-01 5.032185132414973561e-01
-8.823520212404326046e-02 -7.113203596392449202e-02 4.425387178689761392e-01
-2.517071645842254221e-02 -1.226432954291119121e-01 4.968959707473227239e-01
-2.155760989294065039e-02 -1.185702875118463534e-01 4.828254158874645818e-01
-5.727713653129283544e-02 -1.176921064202789413e-01 4.929862872933998830e-01
-9.493261210025469299e-02 -1.167567329035546636e-01 4.633113560891345406e-01
-3.950307736073738890e-02 -1.216040425389909724e-01 5.265799393201396894e-01
-6.168505232047337417e-02 -1.089100566255842284e-01 4.695635353769824771e-01
-3.555903196490746432e-02 -7.921337279344070614e-02 4.462354726352424916e-01
-4.828785289806671044e-02 -1.187265659415258079e-01 4.957947350438949297e-01
-8.458093728530843153e-03 -1.290634826336236607e-01 5.184155890626700458e-01
-3.193648635133490565e-02 -9.110377916748697846e-02 4.536299505191571657e-01
-1.951440508688504633e-02 -1.255797352246819099e-01 5.291827394743536805e-01
-1.365050971207977352e-02 -1.191908464635380582e-01 4.815225131253141333e-01
-1.041276492196225173e-01 -1.179148929201303542e-01 4.620513209063455973e-01
-1.121448444621213902e-01 -1.092648626229856812e-01 4.590037078453359509e-01
-8.976174003411489799e-02 -1.194399516994794214e-01 4.948954784663494588e-01
-9.453339677550377795e-02 -1.202814722785795210e-01 4.792903364287148249e-01
-5.033451426050238736e-02 -1.204096563175703488e-01 5.091217476418000709e-01
-1.156065745580807658e-01 -1.163425277447194817e-01 4.744969201527739489e-01
-6.779630288014935890e-02 -9.182447550993050323e-02 4.492400827962674259e-01
-6.206729600109864298e-02 -7.095866830123113977e-02 4.409435870021234938e-01
-6.432617051467434677e-02 -1.137461676797932170e-01 4.789685096662129604e-01
-4.255372208489413555e-02 -1.147258013143928057e-01 5.365097125280335888e-01
-5.436559099931714129e-02 -1.144085682260717468e-01 4.824715660455460853e-01
-9.353698634021642699e-02 -1.146836227936622182e-01 4.600109268817196839e-01
-9.467243498548831571e-02 -1.188476745725439848e-01 4.969442620053366455e-01
-4.791172537801273446e-02 -1.205881377410097793e-01 5.240208098242468138e-01
-8.301420783622188992e-02 -1.141712886241520869e-01 4.694200320786889313e-01
-9.490377715503550693e-02 -1.161163294156446202e-01 4.603764408162256405e-01
-3.115855757238458756e-02 -1.092240026775498363e-01 4.718355975941062597e-01
-1.063086632303937157e-01 -1.216229185830740717e-01 4.661544826142142162e-01
-9.962419336367894784e-02 -1.151388880707057971e-01 5.026210395747351400e-01
-3.299020082130174614e-02 -1.226907422837927447e-01 5.292723823803547889e-01
-9.740654641997302521e-02 -1.007150961772385889e-01 4.507640890991659877e-01
-9.107721197853366202e-02 -8.125810720038402490e-02 4.433097233370680290e-01
-2.544514650823607657e-02 -1.006901592937935325e-01 4.585279257310656553e-01
-8.472700832540569493e-02 -1.075686846114836670e-01 4.588689855337071966e-01
-8.189847721510656875e-02 -8.923146189146792528e-02 4.457566116885524066e-01
-3.615366493314957352e-02 -1.133529954962717995e-01 4.801505994847538039e-01
-3.274591679062271998e-02 -1.203430382455431963e-01 4.950248586524950700e-01
-4.351809515605167822e-02 -1.074042559038012323e-01 4.700563977307973262e-01
-6.085265380066724739e-02 -6.782397191077937926e-02 4.404610398009216610e-01
-4.717822712638283789e-02 -6.687953599365632773e-02 4.420589057728056548e-01
-5.369102298369894666e-02 -1.121130747533889138e-01 4.773505661057703686e-01
-1.383846568430075266e-02 -1.241345154351244373e-01 4.935079018342169443e-01
-7.739737631328989786e-02 -1.198519119339839650e-01 4.956920784820196824e-01
-1.101667726096205585e-01 -1.152768085761904371e-01 4.630344680345285791e-01
-7.095804872196714852e-02 -5.328375019747434715e-02 4.394074569856011303e-01
-2.538300725061085755e-02 -1.090085141741612695e-01 4.689964009377930454e-01
-6.947595729134276032e-02 -5.574518322190731567e-02 4.383648185131636121e-01
-4.620469737624657153e-02 -8.983624765926653821e-02 4.527663715573782555e-01
-1.094923954449081305e-01 -1.176950019073500359e-01 4.877806064270060471e-01
-8.743543151762557530e-02 -8.032606824896017239e-02 4.416763456996236070e-01
-3.386563669817474476e-02 -1.201518287020656023e-01 4.953212768383579157e-01
-4.504914203181705629e-02 -1.201509764408626446e-01 5.023125366669736191e-01
-5.497896215550173576e-02 -6.180345955781468836e-02 4.399375924172292951e-01
-3.080997154363766810e-02 -1.237139218651378270e-01 5.175067180058777749e-01
-3.751250218701324829e-02 -1.032597087228549065e-01 4.648066422024684785e-01
-6.339369667791017182e-02 -1.194557400563373006e-01 5.086997798171183360e-01
-5.068308000977211208e-02 -1.196406083702709067e-01 5.238483640976183686e-01
-4.218194533677638303e-02 -1.144438515453283511e-01 5.369409758690110168e-01
-7.627601375460701938e-02 -7.600953124672053807e-02 4.388341942527956285e-01
-2.829701725056521511e-02 -1.176594389703698035e-01 4.855327613746112103e-01
-1.076663931724223811e-01 -1.180319357137162850e-01 4.884965626017084839e-01
-2.399817391381636397e-02 -1.247619219911014626e-01 5.055420325789051761e-01
-7.537767859519534097e-02 -6.541528453726719317e-02 4.360385879871987447e-01
-3.842296436435437001e-02 -1.218023424613348393e-01 5.103599899757338410e-01
-6.086707194759036904e-02 -7.022832077427926256e-02 4.411352943345182021e-01
-7.323288178349143807e-02 -6.809748593863985955e-02 4.370701691004996170e-01
-7.295931708903265200e-02 -9.265790309014300397e-02 4.494615014866420455e-01
-1.169137661535819550e-01 -1.128261741976284982e-01 4.866588175670320537e-01
-5.376859083455548527e-02 -7.276936809147148411e-02 4.432754486705440811e-01
-2.951932969219727212e-02 -1.075332474219613810e-01 5.516369572013286593e-01
-2.987000696688634979e-02 -1.079295368511620223e-01 5.511791119872390121e-01
-8.601416176859427720e-02 -1.196692344464653224e-01 4.902176489563881967e-01
-4.638500091265585629e-02 -1.044467421108943445e-01 4.661364251748770227e-01
-6.806179562175757036e-02 -8.061629653109821103e-02 4.421695186360024565e-01
-5.008717651543161120e-02 -6.167004748105341799e-02 4.403874960530097527e-01
-3.790140516188843234e-02 -1.087272301525621099e-01 4.716334883266690703e-01
-7.393227153775765170e-02 -1.050098065687849747e-01 4.604396690290870064e-01
-1.182077278836761169e-01 -1.151921729534282346e-01 4.801363213759036186e-01
-4.110200366941577088e-02 -1.216402088694447381e-01 5.224992330010578279e-01
-1.020962171951094177e-01 -1.146370121293774635e-01 4.987215674586776282e-01
-3.734716385390295795e-02 -1.176621796391845443e-01 5.388314847810177222e-01
-1.125534912954174183e-01 -1.152482294302165922e-01 4.916421932900096325e-01
-9.996596505509786068e-02 -1.214993182176064140e-01 4.689086612379290697e-01
-3.951916821541298641e-02 -8.357318943778596632e-02 4.491474638483352044e-01
-7.189332046913551877e-02 -6.744505398806294183e-02 4.372860409782285407e-01
-6.312892550309266715e-02 -8.881843480873261032e-02 4.480207872757300813e-01
-3.684123399230519041e-02 -1.152292264341061162e-01 4.839639337595043056e-01
-5.086166027480763796e-02 -1.190604322863681591e-01 4.984782999336585529e-01
-4.290804329945005491e-02 -1.108951163319989719e-01 4.757113534169783442e-01
-3.842991378832337490e-02 -7.422014152405098653e-02 4.445402834580753915e-01
-5.544151304350200538e-02 -5.851050069947538040e-02 4.393811232792755872e-01
-9.332695179308740652e-02 -1.099097111707607322e-01 4.567944993218938654e-01
-7.808536992071561655e-02 -1.186650056289513394e-01 4.871069901295452809e-01
-1.090495411881092780e-01 -1.154721412825400750e-01 4.623644864953232458e-01
-9.689724467185867329e-02 -1.168026464873972159e-01 5.034916951062646806e-01
-7.319023089042485386e-02 -6.174972567120228656e-02 4.366699791244715301e-01
-1.282976913059859572e-02 -1.281370872421333795e-01 5.167961807642944549e-01
-4.643001190902559111e-02 -1.208640634746038500e-01 5.242081271509961837e-01
-8.359837033453139735e-03 -1.212600829762567889e-01 5.395514398571354953e-01
-7.176078230168855820e-02 -1.070421154469940600e-01 4.640157506093064987e-01
-5.815622261883750949e-02 -8.455754582221375326e-02 4.467047788571072986e-01
-1.010372727518145664e-01 -1.121562420797320575e-01 4.550935532360439462e-01
-8.692012825825425060e-02 -7.139716572223410440e-02 4.408666893843443124e-01
-8.976148596628906462e-02 -1.181422168177055643e-01 4.716810697208894121e-01
-5.745139504450028078e-02 -8.633314555211514529e-02 4.478653890916442504e-01
-2.321088418510744433e-02 -1.172948814287072261e-01 5.517531650647454766e-01
-6.335839692594627537e-02 -6.827716031972347333e-02 4.398768810894037595e-01
-1.061474041691343739e-01 -1.203266746130677994e-01 4.790398218031563515e-01
-5.631257588788780161e-02 -1.041304098916105425e-01 4.640119054584332936e-01
-2.287253201609502212e-02 -1.177316644111762456e-01 4.817051756769697435e-01
-7.398447593732301875e-02 -1.091179436788154017e-01 4.664946359461121239e-01
-7.753670187666401870e-02 -1.196382135797900703e-01 5.045707848362136483e-01
-8.274683709299836265e-02 -1.107440277186355210e-01 5.152965015231167900e-01
-9.557350631459156712e-03 -1.284507232714139635e-01 5.107719327147668409e-01
-6.184798257222115514e-02 -9.775502134554452105e-02 4.553713233736344512e-01
-2.142675060874355344e-02 -1.258414823774429425e-01 5.271534565691238239e-01
-5.096372168406161640e-02 -8.742980833935003193e-02 4.497327098381738164e-01
-6.871625630280689401e-02 -6.086727179214709155e-02 4.371789174938232048e-01
-9.448278454213045185e-02 -1.196873268549643460e-01 4.877190808434286873e-01
-2.346819834921751863e-02 -1.192606464413523831e-01 4.859447471132847252e-01
-1.158671417318100499e-01 -1.167553030423311156e-01 4.785410033892235071e-01
-4.742478546115268950e-02 -8.842150739060010423e-02 4.513280326975430690e-01
-1.752206232399079050e-02 -1.266502283999937639e-01 5.087515712091491560e-01
-6.271720094566818338e-02 -8.843563437381900261e-02 4.478563572648562863e-01
-7.239654824662936083e-02 -1.197737895269489344e-01 5.025685368822586652e-01
-8.262952317946539380e-03 -1.289150920830527958e-01 5.139469929378776003e-01
-2.907163720975042970e-02 -1.055058479174288272e-01 4.658654608856330759e-01
-7.552719104354999047e-02 -1.054755865650292973e-01 4.603849039979774349e-01
-6.200628618267198244e-02 -6.613304426515165257e-02 4.396743198082614934e-01
-7.501302597888259704e-02 -1.151483888123076837e-01 5.177736845842733082e-01
-7.853938484082738369e-02 -7.261054592851357015e-02 4.378156153806735951e-01
-8.498464955915910335e-02 -1.188713686218468291e-01 5.062250333815775383e-01
-4.748612571494845169e-02 -8.290143245964730345e-02 4.479967989069620904e-01
-1.852103041288267332e-02 -1.171187532533281977e-01 5.534790378675634726e-01
-8.798295982427219164e-02 -8.822792567994396096e-02 4.449566667197162317e-01
-1.175939916660382889e-01 -1.016712445089987676e-01 4.603529923946153013e-01
-1.109412195083343683e-01 -1.191059408410230780e-01 4.723006422958014872e-01
-3.118217722624363336e-02 -1.236341488946506445e-01 5.177830475157897405e-01
-4.692281769505527583e-02 -1.209317840710254638e-01 5.215487077231878432e-01
-5.070323590490877219e-02 -1.097553995520430120e-01 4.734910430265337755e-01
-7.777939857425687775e-02 -6.807687401433556995e-02 4.365460011181971356e-01
-6.830935579424110560e-02 -1.002490732380136307e-01 4.561425266333204998e-01
-9.715148125228627307e-02 -8.324436982866922907e-02 4.461144249554224173e-01
-2.888184277895080448e-02 -1.061935818966926737e-01 4.667883105170714253e-01
-3.350078125213211411e-02 -9.014785332970899623e-02 4.532331047877761199e-01
-5.205692712812774736e-02 -6.569809663647323272e-02 4.412242573561481751e-01
-1.021313805666969193e-01 -1.218680536937772896e-01 4.669287153660546252e-01
-4.139039429745931115e-02 -1.191230186504633609e-01 4.950966951758593027e-01
-2.845478320368738032e-02 -9.534580050878922741e-02 4.554548028589104902e-01
-2.832662755578587224e-02 -1.233066172900749713e-01 5.038133488094432844e-01
-8.225021353287056969e-02 -1.058130930808202086e-01 4.579110886821806670e-01
-6.168293742051032813e-02 -1.029727496365136219e-01 4.608871528573453835e-01
-1.084199819484634175e-01 -1.062622222552874890e-01 4.553876340301544756e-01
-8.787750254660352256e-02 -1.188224773960415981e-01 5.031176809230235580e-01
-1.170091906454413661e-01 -1.130913936287709781e-01 4.689330564883955610e-01
-6.611070068452729043e-02 -6.297564191180268778e-02 4.380706725486928077e-01
-8.723443283840717766e-02 -1.178871920245138233e-01 5.058132947341231755e-01
-5.667666301452007477e-02 -1.169934827966713220e-01 4.904342041624205062e-01
-6.387111197551072206e-02 -7.828442813467605121e-02 4.424653554159627689e-01
-3.832943938418642560e-02 -1.009720539919974069e-01 4.628226313899055921e-01
-7.828839094177894586e-02 -1.038904631762534864e-01 4.579905583798208890e-01
-8.510710701281785917e-02 -1.196845856243319989e-01 4.885236698169128089e-01
-3.386233594314538853e-02 -1.107314652204813427e-01 5.449507141881269057e-01
-5.680775920921757316e-02 -8.439836007238120386e-02 4.469657065594261902e-01
-7.173754408624544165e-02 -7.128358955198582647e-02 4.382764270223883929e-01
-8.841282520144547186e-02 -1.123319811175368249e-01 4.616917394344354220e-01
-6.015742079882458598e-02 -1.195431883355208974e-01 5.131012240296229932e-01
-1.185993534732684845e-01 -1.007727129246076825e-01 4.623532012584202766e-01
-8.606468887760418407e-02 -1.152852770031362190e-01 4.691741818573670342e-01
-4.244731599945659323e-02 -9.301256439717812963e-02 4.556458594923560312e-01
-7.521590344404062434e-02 -6.624359592905937344e-02 4.362285477408793244e-01
-8.301033927810140545e-02 -9.088647029836458002e-02 4.466329499552633142e-01
-5.717763415968137725e-02 -8.929285788402185897e-02 4.496342725691163111e-01
-1.015040117231753164e-01 -1.147994740709847167e-01 4.997670390415673292e-01
-6.194630560869866798e-02 -1.165244341030625269e-01 5.228149186436930052e-01
-7.436983212510615837e-02 -1.113778785832091472e-01 4.701124249904413133e-01
-2.846633598750397676e-02 -1.078539057843834054e-01 4.690326824175844456e-01
-5.768216390450239817e-02 -1.171173612231725253e-01 5.241718203347310867e-01
-1.027462961763069837e-01 -1.094459994626335864e-01 5.012498709625666793e-01
-4.110853530582279231e-02 -1.119807616016027241e-01 5.381465407537951995e-01
-6.644481007925114036e-02 -1.133767504528873371e-01 5.229313379263786921e-01
-8.407658283152726064e-02 -1.194985999269169291e-01 5.034311134903831642e-01
-8.278091853532637545e-02 -8.442782654213180915e-02 4.426885367663510040e-01
-3.863316133349908171e-02 -1.190567192630340859e-01 5.360259269783711478e-01
-3.128741525586738875e-02 -1.209305717750540493e-01 5.391531994294188612e-01
-2.816311687420800652e-02 -1.242235138845947384e-01 5.263422441274812069e-01
-7.393156189146653234e-02 -7.770586484658768833e-02 4.396857551649550611e-01
-6.629130599324770112e-02 -1.168777624340143345e-01 4.870218262273608434e-01
-1.113222524527643226e-01 -1.183319341911174410e-01 4.824854845659536373e-01
-7.580210756182891030e-02 -8.627425984950447269e-02 4.444419194684585683e-01
-3.043479695006914842e-02 -1.148326653042771317e-01 5.484319978495232339e-01
-6.646651514255479121e-02 -6.841491851318468043e-02 4.387983610116744093e-01
-5.055561619901075693e-02 -1.118726611468919135e-01 5.326853981035875041e-01
-9.587810519686582392e-03 -1.287278761759424184e-01 5.144960476697175711e-01
-1.055324371598323069e-01 -1.158539554603519595e-01 4.604538234876756619e-01
-8.434381403590020254e-02 -1.158828339351507669e-01 5.116145457428846743e-01
-1.956969814910129030e-02 -1.120509445961044015e-01 5.582272049762316835e-01
-4.627278059538406790e-02 -9.232630592023549632e-02 4.546892191612013079e-01
-4.553320788067465041e-02 -8.103992373021785822e-02 4.476151226673245609e-01
-9.669644984659489517e-02 -1.210376784395126304e-01 4.726624760979504236e-01
-3.278014725909870336e-02 -1.090632457319752752e-01 5.465438535002480336e-01
-4.474473069439089540e-02 -1.179805193130910729e-01 4.917853669391556437e-01
-5.639831974296449779e-02 -5.956834201186906458e-02 4.394244243622616453e-01
-8.706370783974093364e-02 -7.448547881435438334e-02 4.406378701071412274e-01
-7.915322144935596493e-02 -8.711984587486670817e-02 4.447384215730768586e-01
-9.529604573737848749e-02 -1.201004406221159865e-01 4.806261567436616033e-01
-4.669016590924323501e-02 -1.126454692180465095e-01 4.785203928363558901e-01
-6.428093280440348722e-02 -9.764544552301210323e-02 4.546884088347225017e-01
-4.591185969330882632e-02 -7.586940246852405534e-02 4.454499368225526279e-01
-2.982244755992611088e-02 -1.189588673580921907e-01 4.892957909819179996e-01
-1.076215240618705743e-01 -1.109447552546645038e-01 4.967849312634332604e-01
-7.472362521192542351e-02 -1.041134507989982805e-01 4.592908838836605168e-01
-8.142945340342520877e-02 -1.008604975142648602e-01 4.542661246130924591e-01
-4.459478866588520440e-02 -1.209378199360875428e-01 5.086034814255501191e-01
-5.419952879492758585e-02 -1.202499120659709514e-01 5.147408001875691808e-01
-4.100729413501250781e-02 -1.089084980382653833e-01 4.720270948971812541e-01
-7.339764910100139705e-02 -1.140564349972271185e-01 4.771291998660996403e-01
-5.539473047000508660e-02 -1.180357074548289975e-01 5.244149974787766233e-01
-9.238679394583165783e-02 -8.343494855300757906e-02 4.433708734420478415e-01
-3.177904974953165568e-02 -1.092893549214298543e-01 4.720000366060347896e-01
-4.251445902946874439e-02 -1.204199068686900853e-01 5.300043201778003032e-01
-4.141947849701411305e-02 -1.207365199434972530e-01 5.037654726758008517e-01
-2.449172897016559103e-02 -9.995673885558781224e-02 4.575560328406338972e-01
-8.328368259610939572e-02 -7.069725795618167496e-02 4.380107069816516763e-01
-3.954948418028010615e-02 -9.813453534963571812e-02 4.603175717905315101e-01
-2.004713470696841207e-02 -1.265713932314655177e-01 5.198730001705260673e-01
-6.625190306836399590e-02 -7.610647522477127780e-02 4.410499619897812473e-01
-1.058507798868075084e-01 -9.577096880545374336e-02 4.497051922003990065e-01
-5.392707231071357243e-02 -9.731115488000839642e-02 4.567599477502598537e-01
-4.609446804696060856e-02 -1.059280622305821262e-01 4.680422087546133314e-01
-8.858013077248204359e-02 -1.197486381179514864e-01 4.888530185282388141e-01
-8.308268665631219144e-03 -1.213157354217735406e-01 5.391646560053233728e-01
-6.275882220978717951e-02 -1.180062159168376867e-01 5.194337050383573962e-01
-2.892625219162076738e-02 -1.242528170984609076e-01 5.239600848946219802e-01
-3.694499129452777364e-02 -9.356830320188459782e-02 4.564516537440848620e-01
-8.379566149905273709e-02 -1.196042324085769409e-01 5.019073907063411610e-01
-5.431458028347001254e-02 -6.780028133133601809e-02 4.415195574934258071e-01
-6.812915137134195609e-02 -1.073225760468236173e-01 4.652791089407299352e-01
-4.108313651297250402e-02 -1.217596547030390802e-01 5.194715071736124568e-01
-8.750178674323068340e-02 -8.950901755152732009e-02 4.456230788061992243e-01
-3.193655608189322620e-02 -1.232793774050136015e-01 5.144573207494763656e-01
-1.093192490015827412e-01 -1.153487181942827455e-01 4.933672548212238440e-01
-3.924665877069447029e-02 -9.744166237753504323e-02 4.597258711516504781e-01
-9.241928934032615783e-02 -8.431154816689805098e-02 4.435368707002361188e-01
-1.023226903249563474e-01 -1.127913735480628316e-01 4.996112616254332339e-01
-7.996969975484498339e-02 -1.157884855843167304e-01 5.144127701534580988e-01
-8.771925535385199924e-02 -8.686830177398111030e-02 4.442571804771602850e-01
-1.153488474162129990e-01 -1.086977952824494387e-01 4.613288553691826110e-01
-1.193920783061157287e-01 -1.050228877282425588e-01 4.646962958539819222e-01
-9.652625088101721151e-02 -1.105454653384638497e-01 4.558370273995194788e-01
-7.081364867279474340e-02 -1.182702922281118896e-01 4.885285255832700346e-01
-4.334011583955774821e-02 -1.208074610765593054e-01 5.277605438429634477e-01
-1.199290811849009625e-01 -1.078734093583988696e-01 4.826676589299040421e-01
-5.509463414835300693e-02 -6.520722154404673399e-02 4.407523523395612819e-01
-3.823523127707470493e-02 -1.222331826877905425e-01 5.177093903210159276e-01
-4.595335675585102142e-02 -6.279421874943479087e-02 4.411233754684509289e-01
-9.449292202348658076e-02 -1.191038587348142025e-01 4.944932535063392698e-01
-9.398978438157576734e-03 -1.287706201630208214e-01 5.148055960593050928e-01
-2.357477465629610747e-02 -1.160281566270532222e-01 5.529854914472457361e-01
-6.696621459802744314e-02 -1.195642451488658220e-01 5.098755424702395844e-01
-6.372619863897860393e-02 -1.195481016662067464e-01 5.040235999963551539e-01
-4.058671911803234805e-02 -1.118471649466934170e-01 4.773232900409100088e-01
-5.542409569610631803e-02 -1.105909671049930126e-01 4.739221246060978943e-01
-1.102633765359092854e-01 -1.104609885388157103e-01 4.590384158911604007e-01
-3.814035302729757576e-02 -1.153092814019410356e-01 4.841897016849279201e-01
-3.085095854284700123e-02 -1.236572715758343100e-01 5.250285265738164897e-01
-3.796849761622616420e-02 -1.024112855345157141e-01 4.640549363730050447e-01
-1.079865881860169879e-01 -9.154210921418481917e-02 4.523396618204304498e-01
-1.161907219156814025e-01 -1.136230937042758682e-01 4.678471461879580851e-01
-6.969089475840778425e-02 -7.343521078657881673e-02 4.393768605434666408e-01
-7.776791674590824432e-02 -1.075139618579099982e-01 4.621431112702123478e-01
-2.770195418746562374e-02 -1.111539456553327504e-01 5.527936689008812188e-01
-1.790657564714803057e-02 -1.263640177441598955e-01 5.051724874261764864e-01
-2.377457016973521381e-02 -1.250137964680314850e-01 5.079122124859901666e-01
-2.315555133826114123e-02 -1.225892694738465738e-01 4.951714051065710387e-01
-3.520965462967275139e-02 -1.168346299071063438e-01 4.870232930351932055e-01
-4.861622484732824878e-02 -1.127559639088609178e-01 5.332388063901000175e-01
-3.957703770406812566e-02 -1.178502303777389515e-01 5.362939205050661906e-01
-4.588371882271020247e-02 -1.166220591291799169e-01 4.878518392540565074e-01
-7.156979048352755945e-02 -1.156138515597698174e-01 5.180975925405313376e-01
-9.367138587849087664e-03 -1.285012955793358169e-01 5.239308720461084423e-01
-3.169829517919207224e-02 -1.196772892468021127e-01 4.922928065177574197e-01
-7.135061361306839489e-02 -7.336267352511864626e-02 4.389443816009835908e-01
-1.355369933568997126e-02 -1.249202820255621016e-01 5.330738315481705625e-01
-9.352450016740185279e-02 -1.023290630856189959e-01 4.520161788862122054e-01
-3.255134121520775192e-02 -1.169098426272558860e-01 4.866598472846448420e-01
-1.430028394196526664e-02 -1.277885693763869956e-01 5.155774493898394040e-01
-5.185894795844264715e-02 -1.119655563475789317e-01 4.770633168775571531e-01
-2.895540793930819617e-02 -1.098404437406019923e-01 5.517422041024030444e-01
-3.735838247358889974e-02 -1.220439919092504016e-01 5.262231397646245368e-01
-6.387821707944539573e-02 -1.189841483968581554e-01 5.139814823079469353e-01
-4.125359259691653568e-02 -1.167253607514959907e-01 4.878017506191591468e-01
-4.259303755631428656e-02 -9.474367546808634688e-02 4.569571907885902062e-01
-3.356838140946589305e-02 -1.193702086798796441e-01 4.926022869517209801e-01
-5.327192338001972283e-02 -1.100834723619559391e-01 5.324979046076949718e-01
-1.107939809858283081e-01 -1.066360207060148280e-01 4.565697336465163181e-01
-9.947372197100562419e-02 -1.183148085910079444e-01 4.611716660719293315e-01
-8.279206728530391635e-02 -1.166499845643749478e-01 4.775379746213225252e-01
-8.459388767461245573e-02 -1.129804945810210653e-01 5.136233696101026869e-01
-1.031651707778625943e-01 -8.928803009129307466e-02 4.485443922947645601e-01
-7.882844126375922189e-02 -1.082943777260791801e-01 4.627294089889441020e-01
-6.426127087730003351e-02 -1.183725856726874359e-01 4.948298645600164303e-01
-4.474925795703572212e-02 -1.207343720256942171e-01 5.057847906962397166e-01
-8.251108470362497616e-02 -1.197650919393480756e-01 4.932734766795646708e-01
-1.154678708399608789e-01 -1.164857832922688713e-01 4.846851702823212205e-01
-9.009737565695850880e-02 -1.197103459919395957e-01 4.889928376139120458e-01
-7.040505404317919103e-02 -9.855255459058441525e-02 4.544341941955818975e-01
-2.288239620945252753e-02 -1.206106133475219194e-01 4.890947161762220219e-01
-6.221190423679051618e-02 -5.746987924678876453e-02 4.381952112430200219e-01
-9.243468836307627834e-02 -1.201771697840648134e-01 4.778579547813523454e-01
-8.788557082093034767e-02 -7.150280265799474622e-02 4.420722153928916542e-01
-8.479361057814038816e-02 -1.087015767582339004e-01 4.603235965526921158e-01
-8.849844053157818191e-02 -1.194601237920697584e-01 4.950161341500494139e-01
-1.066022004752489455e-01 -1.204265470580864611e-01 4.657016860092661470e-01
-8.854488994274831160e-02 -1.003118553765033338e-01 4.515104454060327455e-01
-3.433940833478958676e-02 -9.182302046820327301e-02 4.546504813415671031e-01
-7.452689728485174803e-02 -7.931921909516452540e-02 4.401759333078039682e-01
-1.068782090913810434e-01 -1.222274691143382108e-01 4.681259474065140314e-01
-6.329074348648865145e-02 -9.458523808799138011e-02 4.522691731187118980e-01
-5.351011730701855235e-02 -8.010022044798451035e-02 4.458754050351331766e-01
-8.340226751742915723e-02 -1.077067850482427563e-01 5.159465301963724881e-01
-7.885168486389491915e-02 -1.184761462692321687e-01 4.860404421783878215e-01
-7.360291924380771289e-02 -9.318736231888578858e-02 4.498506969406923517e-01
-8.843524347276116027e-02 -1.193057571716390070e-01 4.977365731636760882e-01
-2.682872369478985636e-02 -1.195310866081784745e-01 4.889458329817383264e-01
-7.685313070507757138e-02 -6.629632308178556865e-02 4.359447889512160224e-01
-5.949197889870936479e-02 -1.191707461519716099e-01 5.021195192967258247e-01
-4.650762960430506604e-02 -1.040942458983378921e-01 4.657342923409734659e-01
-1.131127680854163292e-01 -1.090460692619773519e-01 4.596137534200527841e-01
-2.822751680193036350e-02 -1.226141916234707030e-01 5.001098131935339808e-01
-9.267273527993084847e-02 -1.190209849650620128e-01 4.983152207557849378e-01
-6.959171857123085114e-02 -1.186941483124776958e-01 5.127387171062031124e-01
-9.598905044326873359e-02 -8.221945453688554728e-02 4.455098703337109223e-01
-5.576662275972886496e-02 -1.179603032381342509e-01 5.242474692939518288e-01
-1.166267743007646795e-01 -9.931672574041772172e-02 4.592365198176496799e-01
-3.851874936615243966e-02 -1.220368534931296073e-01 5.136536270209889343e-01
-1.188841680151531133e-01 -1.004905418494186908e-01 4.634087540314752451e-01
-4.424434250684523146e-02 -8.141536281143189890e-02 4.477969590858323357e-01
-9.390652370720237174e-02 -1.176196719862827866e-01 4.666860052170093698e-01
-2.870625208144633733e-02 -1.107068500812320860e-01 5.518214882376411001e-01
-9.679192334975694756e-02 -1.157034638213951666e-01 4.586977942902305538e-01
-7.626255130699444162e-02 -1.171549818153013178e-01 5.141622676202419751e-01
-8.929057614908908480e-02 -1.196810037771035284e-01 4.898994823216895056e-01
-1.933659116647304041e-02 -1.210188536675673304e-01 5.460756883331603362e-01
-1.615298562137855790e-02 -1.016735833457029226e-01 5.633928787701749652e-01
-8.844224682748799693e-02 -7.365050274589443613e-02 4.419363466191320589e-01
-1.084839566866845073e-01 -1.207883900358645290e-01 4.681596413288959257e-01
-2.171278372013088140e-02 -1.260731577374223367e-01 5.237441413803581858e-01
-1.106928706239342919e-01 -1.188952891784682414e-01 4.777609788249365663e-01
-4.707637213871773696e-02 -5.897140301455872091e-02 4.401005126909801612e-01
-5.859479043433696993e-02 -8.762094149202602489e-02 4.482987069039279793e-01
-6.203792284257432510e-02 -1.169136576173808589e-01 4.899217328737200394e-01
-3.988271864574396280e-02 -1.101634252426226951e-01 4.741223293421178431e-01
-4.013242400229873746e-02 -1.068274208342794296e-01 4.693161487595734482e-01
-4.459606013124483431e-02 -7.761785883736578573e-02 4.462366327748514827e-01
-5.901387211506301661e-02 -1.148231665486006969e-01 5.263045974727320608e-01
-3.959903701728271358e-02 -8.182214501905582527e-02 4.481972333081128412e-01
-5.746190288475608310e-02 -6.721039477518944705e-02 4.409509608931562186e-01
-2.360895284344566650e-02 -1.111674587422951943e-01 5.573590170236741859e-01
-5.813164727786025721e-02 -5.842480760323547767e-02 4.390163016429473042e-01
-9.220122337403909366e-03 -1.276855424763121416e-01 5.046454142260675679e-01
-8.841992733302973806e-02 -1.125513689560500852e-01 5.109027932304787134e-01
-9.082186081579446402e-02 -1.191557972852783226e-01 4.975999694997669254e-01
-2.229262734060075829e-02 -1.194941424740755681e-01 4.857027269768284805e-01
-5.749061045126738212e-02 -1.169507975564623853e-01 4.903111486559159626e-01
-1.171476090164124129e-01 -1.134707133688240555e-01 4.703600325434816876e-01
-7.021583073454989998e-02 -8.680543655985953344e-02 4.454521452262393266e-01
-6.225459675199541965e-02 -1.192528096130159448e-01 5.129202297417889689e-01
-4.262314938134929843e-02 -7.835558240523668450e-02 4.464838322441683771e-01
-7.773729204374479895e-02 -1.186476682593701204e-01 4.870271854914258736e-01
-1.029727659031419995e-01 -1.105997153707469621e-01 4.540621552952263107e-01
-1.720785808810727791e-02 -1.241564631348205799e-01 4.956593162066270097e-01
-1.048428524312745164e-01 -9.685087393868212213e-02 4.498295227186311362e-01
-3.472933177434973234e-02 -1.228644729790200341e-01 5.238981873650497834e-01
-3.659299174022161844e-02 -8.158160509184507470e-02 4.477634105992248648e-01
-1.081211977174957456e-01 -9.369385097918150884e-02 4.517046332306922096e-01
-6.200403290724423172e-02 -1.166860240558714734e-01 5.224708408151194083e-01
-2.122973538555122941e-02 -1.223364768230296995e-01 4.928815058300536900e-01
-4.260477947376072050e-02 -9.986214550746447260e-02 4.613641250486192336e-01
-5.044448379477507738e-02 -8.676612053703788852e-02 4.494313814579719568e-01
-2.126920441790488420e-02 -1.114860186692708116e-01 5.582192488512164319e-01
-2.741084968879470632e-02 -1.037152053599576934e-01 5.547055922233267156e-01
-4.709378063268271353e-02 -1.154578153350078462e-01 4.846584427879389034e-01
-1.992064535557392865e-02 -1.264703329380080510e-01 5.231025171861146683e-01
-9.626564458161791793e-02 -1.104128640326112187e-01 4.558481918083637785e-01
-4.419366404496016115e-02 -1.125289064448081883e-01 5.364167036092635232e-01
-2.419751670062384938e-02 -1.000980430730716436e-01 4.575504480794546636e-01
-1.080426363340636631e-01 -1.163521464223647717e-01 4.626992896836854552e-01
-5.124470326174886126e-02 -1.034476018585754192e-01 4.643314554760987201e-01
-3.566489199236933666e-02 -1.110565726887153826e-01 5.428123206217090324e-01
-4.700918220426623939e-02 -7.829047055110323339e-02 4.461624571920408955e-01
-7.695704995153826444e-02 -1.086179156386299638e-01 4.642971127028228118e-01
-3.684702584321477431e-02 -1.210700623620913630e-01 5.321447858284564791e-01
-1.056098299876460922e-01 -9.410526327373060218e-02 4.496909792909595249e-01
-1.083235428546025919e-01 -1.197790816035082528e-01 4.778974284208365453e-01
-2.935448300797480897e-02 -1.221874666805922299e-01 5.371461770495172816e-01
-3.577591541517539941e-02 -1.225905913336181319e-01 5.148966728166314288e-01
-4.092586618183106234e-02 -1.173630298744341993e-01 5.356860692845737404e-01
-3.529180993774016367e-02 -8.299964996248421212e-02 4.483612019217778077e-01
-8.772216076888095238e-02 -9.804659402122627154e-02 4.502416235238251851e-01
-7.411853028206213945e-02 -6.236234086995109949e-02 4.365592558116735966e-01
-3.179768460279669418e-02 -1.225562467863619831e-01 5.052315298813734312e-01
-3.682145111573430912e-02 -8.849917340053693737e-02 4.526389584037305291e-01
-5.028980166213697228e-02 -1.195131186429015530e-01 5.258252829870752043e-01
-5.232428279288570128e-02 -9.417319263533396878e-02 4.545770311120918561e-01
-8.378509037408088389e-02 -9.604040533995017448e-02 4.501027902817801851e-01
-5.165476266256712606e-02 -1.013273411898483328e-01 4.616284622410105065e-01
-1.025604889826264299e-01 -9.214768890925216505e-02 4.476639416437543928e-01
-4.987710351469820669e-02 -1.202265989066389623e-01 5.063914950996027953e-01
-7.306635588910469215e-02 -1.195723322308454295e-01 5.058638766101505313e-01
-1.002628307457293227e-01 -9.516427687681355829e-02 4.480777319833373351e-01
-3.263016322002416231e-02 -1.094644434712483821e-01 5.467817871009368336e-01
-7.889042166797231859e-02 -1.180662481635112032e-01 4.841326724472757581e-01
-6.927763627975923322e-02 -1.190863056736447961e-01 5.118555489553897608e-01
-1.245582912325539013e-02 -1.214020574736431879e-01 5.442390178174292270e-01
-8.443609811736312032e-02 -1.067721672607607197e-01 4.578425184637427425e-01
-8.596009077353559957e-02 -1.184799420944777082e-01 5.058992947790197370e-01
-6.662121429299493192e-02 -6.569870142151520986e-02 4.382823029705841256e-01
-9.715867629255833804e-02 -8.083739293620417765e-02 4.473399981207006881e-01
-1.129871826381418226e-01 -9.872253426955465705e-02 4.545760364509369156e-01
-8.521572481542313837e-02 -1.179212362202128744e-01 4.824173622285834462e-01
-6.720258203533539809e-02 -7.565838561468099521e-02 4.406552345974004692e-01
-1.076973809757529321e-01 -1.049334257606766435e-01 4.541188154331441962e-01
-1.034819384382417579e-01 -8.583431538954067186e-02 4.518620500624769276e-01
-7.089185915495160861e-02 -1.060052461737933799e-01 4.627468913431203035e-01
-4.832763550935602337e-02 -1.207121477281231786e-01 5.155674829001681836e-01
-2.796358018166974352e-02 -1.040694163273193779e-01 5.535297602072188905e-01
-6.570778025253515287e-02 -1.195841610789395298e-01 5.087267114162714599e-01
-9.699681741447373218e-02 -1.080767051830584524e-01 4.535132481558724060e-01
-8.979614785870218552e-02 -1.177461406416768913e-01 4.708892854479252987e-01
-6.388852951961268567e-02 -1.026640616326685435e-01 4.598192264464953660e-01
-4.393624411587598172e-02 -9.793702349137581309e-02 4.593208082414986793e-01
-9.032948159888562478e-02 -1.144169880565065189e-01 4.626648429436244769e-01
-2.708498385464400832e-02 -1.105502658933839172e-01 5.537394046937417214e-01
-1.032156419611137688e-01 -1.121696785491883980e-01 4.987117937493279474e-01
-1.240929259560125467e-02 -1.224740160876601480e-01 4.883535037786386201e-01
-1.011105503092639413e-01 -1.124706886172995579e-01 5.021436859141432674e-01
-1.178478726054086601e-01 -9.843736187878154853e-02 4.633433626505459868e-01
-9.356300246377195762e-02 -1.173714641173826262e-01 4.664361873850342843e-01
-6.623791954150430594e-02 -1.184995795750120595e-01 5.156480657224337127e-01
-6.871564439713220840e-02 -1.099425824188180051e-01 4.698806857416572558e-01
-5.203176484214821346e-02 -1.191462607807212137e-01 5.246571446279872930e-01
-2.783545945243849976e-02 -1.109755888898207032e-01 5.526899186893756699e-01
-9.001912092720384950e-02 -1.191704740215510649e-01 4.978073898974883504e-01
-6.163891125046108005e-02 -1.193400108221894518e-01 5.041786909431090757e-01
-5.866480722507407680e-02 -1.122395992943577420e-01 4.773417264920965519e-01
-9.082786890397666346e-02 -1.196609866894739055e-01 4.907242228417246221e-01
-2.533167931279683982e-02 -1.039500165946581761e-01 4.621461123105460311e-01
-7.258972990512697898e-02 -8.806674372561251740e-02 4.458999008959205756e-01
-8.453243256381977322e-02 -7.993584010916326976e-02 4.407968248089454422e-01
-9.172585509245462232e-02 -1.201830431677622657e-01 4.816211624948661396e-01
-4.662663867888274666e-02 -1.181126315310512126e-01 4.927583216369130770e-01
-6.893348101536228567e-02 -1.165698560182101412e-01 4.842533463995938869e-01
-4.646098395372726814e-02 -1.056376282104173753e-01 4.675647685561209466e-01
-1.125664562031669924e-01 -1.182522468490217193e-01 4.711252648379235519e-01
-4.817041499137708627e-02 -1.135877513889704121e-01 4.804808431538303282e-01
-4.769213582323234002e-02 -5.723224797056214452e-02 4.396831858049543018e-01
-5.396500688414487129e-02 -1.172044776085249818e-01 4.910058336624894548e-01
-5.403664143514409768e-02 -1.072472929666197089e-01 4.689935690075362484e-01
-2.724642815277145483e-02 -1.245632262091200121e-01 5.162751682165765965e-01
-8.678452279479628717e-02 -9.587596372961290636e-02 4.491461704568943114e-01
-3.118237960795056107e-02 -1.228861250690742729e-01 5.309660072991999602e-01
-7.033232883381893008e-02 -1.126899517540065065e-01 4.753796668731838926e-01
-4.778113033685614519e-02 -8.947937499486746660e-02 4.520267740943334500e-01
-4.528155511269068428e-02 -1.116182241086780963e-01 5.360675199312855410e-01
-4.270709759533745237e-02 -1.124180739275415092e-01 5.375165693572027115e-01
-1.149557639573060286e-01 -1.020348743315844936e-01 4.571502681262438195e-01
-7.806872544294267413e-02 -1.198345806857970819e-01 5.006394562222754585e-01
-6.077737823944630996e-02 -1.182760650131732677e-01 4.958776843998617401e-01
-8.974568421794057449e-02 -7.690600490626668673e-02 4.425943583713908280e-01
-4.852701917544830629e-02 -6.283687776369110967e-02 4.408563505355497791e-01
-3.977365740985067122e-02 -1.172283649568824221e-01 4.889324828085906960e-01
-7.359456043309382800e-02 -1.068843353603257662e-01 4.629368302027246918e-01
