-9.146788517359642767e-02 -9.610618104015580809e-02 4.495726227550981280e-01
-7.536253411880443343e-02 -8.802411899901273207e-02 4.466772351792101525e-01
-1.062775080181836002e-01 -1.181866190169401226e-01 4.653537695394127094e-01
-5.957606435256861122e-02 -8.979506085296383444e-02 4.503474706740652755e-01
-8.832104686420150230e-02 -1.186240501021094268e-01 4.825413800071735038e-01
-8.504775527211105857e-02 -1.192721731065631563e-01 5.039945070201072852e-01
-5.536723159733528132e-02 -1.008873286986783635e-01 4.607771947351014252e-01
-1.146839297732389629e-01 -1.170197459711077442e-01 4.840553614209502364e-01
-5.160149044375930694e-02 -1.194694086176581044e-01 5.023752197371906814e-01
-3.387736073126626501e-02 -1.212888461855925193e-01 5.011924750275047469e-01
-8.774055788220769259e-02 -7.480488270790960903e-02 4.419165972294161748e-01
-2.291785117484644932e-02 -1.257410222476087192e-01 5.230214885945033698e-01
-6.717076420665664405e-02 -1.086687981032784939e-01 5.251114012159089350e-01
-6.667080957204943314e-02 -5.890082372292047147e-02 4.382344995162407719e-01
-5.047987801354215931e-02 -1.196013575481310598e-01 5.028060914958782934e-01
-9.633522790533537161e-02 -8.197098553457447812e-02 4.468852225966711833e-01
-1.280451050575998756e-02 -1.180764734329055043e-01 5.520751582899793286e-01
-3.311356640420239084e-02 -1.216711995387135675e-01 5.344601071403533021e-01
-2.329494324183632031e-02 -1.148850534705681825e-01 4.770523044086438791e-01
-7.461858412758178016e-02 -1.186341977089774846e-01 4.889858574411258263e-01
-7.989729162322230238e-02 -6.720545719799997375e-02 4.376589624492350783e-01
-1.137418420549572845e-01 -1.130566464565719020e-01 4.927959636612558869e-01
-1.088866080440933082e-01 -1.194582713583810518e-01 4.802471057793661346e-01
-5.477820231619295183e-02 -1.195906514185340330e-01 5.048095063037655317e-01
-1.104663086122236043e-01 -1.191511397882113465e-01 4.703964579826760972e-01
-6.592945120437287976e-02 -1.007631486369354318e-01 4.582536993203658038e-01
-1.010510140154802783e-01 -1.199618574444371172e-01 4.818471554488063524e-01
-5.217306451723206090e-02 -1.200032444321960101e-01 5.070993704353620180e-01
-6.555879093969574356e-02 -1.190607901000585722e-01 5.134134942725578910e-01
-1.139537985782744789e-01 -1.129719927028675214e-01 4.657004806484912884e-01
-1.183483124967447536e-01 -1.001631040740133954e-01 4.638686149393299596e-01
-6.188424515111191904e-02 -1.190621350128907158e-01 5.021188690152572631e-01
-3.403130919472072830e-02 -1.220567884134920039e-01 5.058337479418775207e-01
-2.184762506745730609e-02 -1.249355911769425842e-01 5.039408458285180581e-01
-8.448593591523212432e-02 -1.193773933143230798e-01 5.030979238304258416e-01
-3.027587967225236695e-02 -1.158146374583846339e-01 4.839583248319460629e-01
-6.639707970376791668e-02 -1.085489752381984668e-01 5.255387280725440924e-01
-4.916027827742294742e-02 -6.196966619565664330e-02 4.410779492117307132e-01
-4.771299953875140880e-03 -1.289582194894316192e-01 5.136614087160749076e-01
-1.548852366157120984e-02 -1.238446193138065254e-01 4.941056917249087022e-01
-2.791849984352925279e-02 -1.015303453177153481e-01 4.609271930955317065e-01
-8.172899159084152931e-02 -1.175763842499568113e-01 4.835869959368418458e-01
-7.974928152754932886e-02 -1.023615934310324466e-01 4.573407409569945070e-01
-7.756529909987511240e-02 -1.144416991380303728e-01 4.774945230838383292e-01
-9.103374578357936731e-02 -1.100756316647612670e-01 4.593180889085367591e-01
-5.510610161467199147e-02 -7.912719983845929728e-02 4.458506795271701129e-01
-1.540459944695138708e-02 -1.189932688731209637e-01 4.821460707568377413e-01
-4.378240450203458450e-02 -1.193514472295289369e-01 4.981069843275562348e-01
-6.169271184068984837e-02 -1.162848590269465465e-01 5.238859039208371149e-01
-3.430712850600738106e-02 -9.514168376971422758e-02 4.576781837646063944e-01
-3.670132301427003751e-02 -8.310970653709455480e-02 4.491269342567828504e-01
-6.684672246136010021e-02 -6.351137601655909570e-02 4.387163487612076307e-01
-5.675645645472459505e-02 -1.195126746798360895e-01 5.055365793308623790e-01
-9.567503137004056135e-02 -1.114346776614666551e-01 4.586337025826833780e-01
-9.096485537937774868e-02 -9.082772583643622388e-02 4.471809631904264393e-01
-1.163009081759883157e-01 -1.016652984280076305e-01 4.601290848650123610e-01
-7.665728434678023562e-02 -1.131078894806229890e-01 4.733738452789753026e-01
-1.782649705519019634e-02 -1.177051328312996026e-01 4.802152830165022923e-01
-2.945462142430051514e-02 -1.158811908106453376e-01 5.488587328991393344e-01
-2.769764865976225010e-02 -1.128310676798214840e-01 4.765323222667698921e-01
-5.865182813792321759e-02 -1.176605554562674127e-01 5.230992704572754448e-01
-7.214874757950004436e-02 -1.190499941742996642e-01 4.940504086938465322e-01
-1.190843151741227818e-01 -1.080469543525915954e-01 4.677995332534086725e-01
-3.278147704906647641e-02 -1.231607145502496004e-01 5.198923977387069906e-01
-2.311052651406218447e-02 -1.199409647909329274e-01 4.881008027712246955e-01
-8.098379370130523447e-02 -1.178626901675597083e-01 4.844722733828399353e-01
-4.833326742726930941e-02 -1.080451495017687447e-01 4.719270439871443013e-01
-7.576128293177432360e-02 -7.747572374768087189e-02 4.403053514991747686e-01
-1.131185972395553664e-02 -1.283085333657356386e-01 5.145362513004405614e-01
-4.833210802056993327e-02 -1.206348048618786778e-01 5.191946672654315087e-01
-5.653573484220279777e-02 -1.146627502661860393e-01 4.841252871306401251e-01
-7.643772285463049099e-02 -9.567846368340941765e-02 4.523813735334643038e-01
-4.643869459315328602e-02 -8.968686621955507254e-02 4.532486525351259732e-01
-5.197439766056297789e-02 -1.202961241691000993e-01 5.143855853034784431e-01
-6.847550756470628663e-02 -1.167399035141662295e-01 4.862762994937326333e-01
-3.070594802718178834e-02 -1.050579432863438245e-01 4.661795417361205840e-01
-3.252588158773932203e-02 -1.198709923390674226e-01 5.401750285307482802e-01
-6.648991104184266698e-02 -1.181632441474958356e-01 5.169000701422810096e-01
-8.328136474199271388e-02 -1.172704031075573472e-01 4.825002427282816808e-01
-2.299770070335334024e-02 -9.728138490619572809e-02 5.595118480174617881e-01
-5.481099839377222976e-02 -1.200606576711347184e-01 5.163782074126274102e-01
-5.688717814175631854e-02 -1.100985411540155029e-01 4.737699462541299922e-01
-1.650284247448122882e-02 -1.038503823178434093e-01 5.626284297836412485e-01
-2.856410573244416717e-02 -1.119658524843223785e-01 4.754700460885639690e-01
-1.355996646564885250e-02 -1.009299795010475398e-01 5.650112772942826878e-01
-1.472353712669827175e-02 -1.160073747226147700e-01 5.551963577606849887e-01
-5.481211758449942156e-02 -1.178510328859724010e-01 5.255449996268354296e-01
-9.287103347277381182e-02 -1.188033603281445361e-01 4.996753853854540850e-01
-8.117701163571512668e-02 -1.123564179443926198e-01 4.690319552276366322e-01
-1.020626888658756198e-01 -1.140115795571992052e-01 5.004025672049835505e-01
-8.579915750830412191e-02 -6.991647353539048870e-02 4.399499533381684979e-01
-5.197321866732548812e-02 -5.772598542849846637e-02 4.400382473915689374e-01
-1.163290261671010711e-01 -1.141451902769214793e-01 4.876986343093132059e-01
-1.181364195615365598e-02 -1.230234470795275314e-01 4.901765811395618067e-01
-4.825768872321205966e-02 -8.602744538567327903e-02 4.502000138931856466e-01
-7.019294786956642440e-02 -1.195729180553324611e-01 5.029297446498133262e-01
-3.127872314483499255e-02 -1.228511862025343099e-01 5.089327613217766721e-01
-3.217181754691769008e-02 -1.225186311819803503e-01 5.071408549842187918e-01
-5.716731414263565708e-02 -9.741715247993570914e-02 4.567715419552658140e-01
-3.778208747604142048e-02 -1.169061233674933697e-01 4.884513684878789008e-01
-3.568612932186815412e-02 -1.111799379492831030e-01 5.429388960046516166e-01
-8.055853973747467700e-02 -1.025332294333394789e-01 4.572753895680225500e-01
-1.006112529560293373e-01 -1.121368811094899942e-01 5.043161011127829108e-01
-6.596135331089504616e-02 -1.094457670706205366e-01 4.708184562017905250e-01
-4.107313122912862463e-02 -1.164419117276955934e-01 5.366621772082903474e-01
-5.182024836897065889e-02 -1.136330817842629431e-01 4.816552194448674440e-01
-4.019194787712188077e-02 -8.577573240788477493e-02 4.509281184422673228e-01
-8.009564733458350572e-02 -6.616897805724064607e-02 4.378602751878209465e-01
-7.980049567569003424e-03 -1.258873346973501395e-01 4.972587604725791088e-01
-1.626742930948438942e-02 -1.263134497047719573e-01 5.278392576711524731e-01
-3.751242570688265165e-02 -1.132743520945609650e-01 4.806896258472391770e-01
-1.180084408058016260e-01 -1.005116370926700392e-01 4.625877752452877134e-01
-1.099542592443682604e-01 -1.169463840583478825e-01 4.909990745230101150e-01
-1.001029386429870549e-02 -1.273719754066868215e-01 5.274533511031768152e-01
-1.044596817583686998e-01 -1.135230733915957163e-01 4.987430322562571017e-01
-8.164339636473058603e-02 -1.162536700023242969e-01 4.803101531868690377e-01
-7.295219983845196987e-02 -1.155544136622678741e-01 4.813333247401120896e-01
-6.722291584763133432e-02 -1.150989652892653731e-01 4.829251278157816740e-01
-1.148189703090150421e-01 -1.120309386618710129e-01 4.656864946189178123e-01
-5.311073395448036305e-02 -1.105431479619415763e-01 4.750953801891754091e-01
-3.148147419649975631e-02 -1.168127371049227925e-01 4.868710833901814805e-01
-9.298303685439489319e-02 -1.190875096827127416e-01 4.959978947800444682e-01
-5.551374188402691950e-02 -1.185266486440692546e-01 5.218695805000453936e-01
-3.298717439058078404e-02 -1.212625111625063312e-01 5.001307776708662223e-01
-2.924638675607559024e-02 -1.042685750985400672e-01 5.510940697609690853e-01
-3.104210810686603914e-02 -1.215658402369801105e-01 4.995355674200152585e-01
-9.900420456552193327e-02 -1.117644857680096526e-01 4.574001583340649435e-01
-9.849602542173666042e-02 -1.210399017614915695e-01 4.710361239981948889e-01
-3.271520232058165029e-02 -1.082578819186138658e-01 4.711299202865489866e-01
-9.102845748755314381e-02 -1.179193217514255682e-01 5.048761278904767558e-01
-7.877103598119625238e-02 -6.547494892138612521e-02 4.370138016274665027e-01
-2.515462979491855239e-02 -1.090535729117339259e-01 4.693983794406109689e-01
-5.271372505864019287e-02 -6.238831432808804311e-02 4.408473168092768013e-01
-8.898743421686845789e-02 -8.004531842015326359e-02 4.430226911450791394e-01
-2.680773487990390988e-02 -9.966386309844339764e-02 4.586677804216546805e-01
-6.994379094687776244e-02 -9.833905487372271437e-02 4.552993921958715107e-01
-4.559373057889952452e-02 -8.850178149900203572e-02 4.525534496731831169e-01
-1.181353204037806082e-01 -1.043318401998465095e-01 4.640018172271019314e-01
-7.419066162476718740e-02 -1.150535522896891233e-01 4.798895008610654656e-01
-5.785618505339959472e-02 -6.707248442150212653e-02 4.414940775904531156e-01
-2.914775611452756487e-02 -1.206145736700946769e-01 4.943415391630960887e-01
-1.216334653848504949e-01 -1.025801211786211559e-01 4.683570926095125819e-01
-2.423093721778659532e-02 -1.147038797308358726e-01 4.773256180443372076e-01
-4.703241339932822535e-02 -7.059783438592923122e-02 4.437914577544722072e-01
-7.302308087162825978e-02 -1.102776182667945526e-01 4.700550498369715502e-01
-3.198643351997293438e-02 -9.192263330449082503e-02 4.546536082665875722e-01
-8.174606116527888267e-02 -1.184315514084177262e-01 4.867045516377458969e-01
-7.049559153038181813e-02 -9.664985368208049710e-02 4.538091418492298801e-01
-4.177623248999175892e-02 -7.519382840600397078e-02 4.455424697388484234e-01
-1.575266050659247796e-02 -9.926439745846331320e-02 5.647163397571530741e-01
-5.569672560956710761e-02 -1.101878844820409903e-01 4.742046556066057406e-01
-6.500330432513118373e-02 -1.111506669028092253e-01 5.254794829373419240e-01
-5.701640365809243494e-02 -1.131250790922442989e-01 4.803982512989993792e-01
-8.502962877694507371e-02 -1.193839793012368006e-01 5.020791630491661106e-01
-1.611654361071719610e-02 -1.235899315192951486e-01 5.388062622434470761e-01
-1.838007881562166504e-02 -9.964038491596169389e-02 5.628613601030740821e-01
-3.710527711477336343e-02 -9.551790182295759324e-02 4.586323782378340375e-01
-6.895898210693099384e-02 -8.665564631990704814e-02 4.465403956345846970e-01
-4.330619488356404062e-02 -1.178237948137549201e-01 4.921076457398837478e-01
-9.131837189372313257e-02 -1.005973405368327384e-01 4.524431717741878578e-01
-7.226974027069736628e-02 -1.195587214282450433e-01 5.052045612324429502e-01
-6.305829159257390903e-02 -1.108538392560915048e-01 5.265412018939348293e-01
-3.613371601781371206e-02 -8.328094961917568984e-02 4.491583743935469442e-01
-5.662480628484239248e-02 -1.156709985865721213e-01 5.275875229101317787e-01
-4.130432744360230946e-02 -9.636873985425570277e-02 4.590466859422991375e-01
-8.127101740166400856e-02 -1.179983695515084419e-01 4.849817089147522853e-01
-1.049718090740057869e-01 -1.210080496076131190e-01 4.738336415865739282e-01
-4.953629160559731848e-02 -1.085192417895151362e-01 4.725430018324582870e-01
-5.810070019551853704e-02 -5.574338483627808150e-02 4.391715254055799655e-01
-6.374111128975686047e-02 -8.047610157818070598e-02 4.442515891290185204e-01
-2.986705377019002738e-02 -1.139809067413871113e-01 5.496942081870610508e-01
-9.440967530066332603e-02 -1.131877864726693189e-01 4.603153734551065357e-01
-4.131542802263490910e-02 -1.172320370670784651e-01 4.900560435608372623e-01
-5.490611643079947729e-02 -1.199932842981468739e-01 5.082025019894317319e-01
-5.778003984650918745e-02 -9.719628928734162787e-02 4.564439436380446913e-01
-1.143366540740004961e-01 -1.127684139415725401e-01 4.658726214845541613e-01
-2.521503895678723142e-02 -1.250809341284940812e-01 5.200106282797073431e-01
-5.893375439439306473e-02 -1.196658350014698641e-01 5.097256141455975831e-01
-1.055269905129623820e-01 -1.117991741172080777e-01 4.989831258971468841e-01
-3.674996009247853690e-02 -1.095813076358917726e-01 4.734803502398446384e-01
-9.128193119033536918e-02 -1.200341542697836578e-01 4.838504118373238572e-01
-7.785395260934629968e-02 -1.162831297024324306e-01 4.815268217982924259e-01
-8.405942510381324284e-02 -9.572202957798897627e-02 4.510225764641273560e-01
-8.654507003005897092e-02 -1.175295824117793403e-01 4.818046438653864061e-01
-5.423675447058597804e-02 -1.193549951197860615e-01 5.024672712471741631e-01
-1.267852367983810305e-02 -1.261068872161818788e-01 5.296668167362230673e-01
-7.278436274809026163e-02 -6.297764442792806727e-02 4.374041950334626172e-01
-1.030616153895335951e-01 -1.219261925278535691e-01 4.692298106248851131e-01
-1.007188325779361376e-01 -1.099173447186636982e-01 5.049112756833884497e-01
-4.242765820864341508e-02 -1.042018575140576525e-01 4.667427361314538392e-01
-6.835222150496315929e-02 -9.947482701453154441e-02 4.564238778346607073e-01
-5.469117407210349890e-02 -7.175223349019185792e-02 4.434576531816897815e-01
-1.536251801882759782e-02 -1.097517693183893278e-01 5.607608027459459743e-01
-6.019357233914316568e-02 -8.760840882768852755e-02 4.487610433676118560e-01
-2.268680024079537325e-02 -1.254996132972755196e-01 5.143683318351144340e-01
-2.396797142032945985e-02 -1.251965806760294009e-01 5.146760642533643182e-01
-8.452564773208955107e-02 -1.092144587521640953e-01 4.625748205377834266e-01
-9.378935171173159724e-02 -9.474449500509993238e-02 4.489729403248415851e-01
-8.248257620461617312e-02 -1.195817128545379193e-01 5.022289941171563799e-01
-2.622603607125870498e-02 -1.120890508918179346e-01 5.543504566191074234e-01
-3.331834188528350060e-02 -1.096785620605685296e-01 4.734605301121972420e-01
-2.788837875866474053e-02 -1.053536233623705853e-01 4.656369816261580752e-01
-8.018461913810659425e-02 -7.433777537037111749e-02 4.390844876718442147e-01
-5.826606380677936542e-02 -6.839322391328148121e-02 4.418201286245789783e-01
-8.349913923083736311e-02 -1.194940006422385154e-01 5.027099357345063968e-01
-7.307046412302625749e-02 -9.127554324349396175e-02 4.493011231695479557e-01
-9.277783517822066339e-02 -1.203594740437547161e-01 4.801975172881625120e-01
-1.521906433865512914e-02 -1.187639584596834885e-01 4.816119056288552525e-01
-3.687698428148512841e-02 -1.211996350352807228e-01 5.044420482210979495e-01
-7.440021515289439724e-02 -8.372287564764865908e-02 4.436538827872127944e-01
-2.285977092338120631e-02 -1.195716242154711006e-01 5.477059345536802182e-01
-3.633015480317615398e-02 -9.051032855311265390e-02 4.543704810782625558e-01
-6.974327604782080969e-02 -1.157572342129238874e-01 4.831380683258624797e-01
-2.852893678867319746e-02 -1.237786133568256342e-01 5.280189692286947345e-01
-3.191805496761929151e-02 -9.863180637059100475e-02 4.596407543875682400e-01
-1.849712960914659879e-02 -1.220109024776403484e-01 4.903909534460910158e-01
-7.020243748022556018e-02 -1.161239449745507940e-01 5.186989756506800164e-01
-4.982261226963275585e-02 -8.148195822245646314e-02 4.475443559424387430e-01
-1.029922405495187349e-01 -8.642759526148219296e-02 4.518302441862052099e-01
-6.413601359758305809e-02 -1.099077992973121198e-01 5.262851302829054667e-01
-1.438547343202531067e-02 -1.167134862172532345e-01 5.543997173641167509e-01
-9.598746079184831970e-02 -1.114826549161428426e-01 4.585324330969404727e-01
-3.731646597498262941e-02 -1.044465757676740769e-01 4.666307961400074644e-01
-2.806172463724395869e-02 -1.036133273624430112e-01 4.631675324632163471e-01
-9.917065319311083038e-02 -8.093730408403698728e-02 4.516844557888398670e-01
-1.200053039250961393e-02 -9.659447127156400859e-02 5.671360202754087698e-01
-3.784559105936453893e-02 -1.084425858763155975e-01 4.718884121242919449e-01
-2.194481785066646623e-02 -1.055146110586087371e-01 5.606132598202580031e-01
-1.029363394478623461e-01 -8.769185400335863245e-02 4.506716225317397573e-01
-6.216783947356464141e-02 -1.190980318026898938e-01 5.146108474635334717e-01
-2.274012825945429667e-02 -1.217053925734487146e-01 5.432809296301371882e-01
-1.086592447334901179e-01 -1.209157623182638558e-01 4.712784917869498047e-01
-3.092549028713395542e-02 -1.205764926884674015e-01 5.402420793466289339e-01
-2.864192605694628954e-02 -1.232734104042550877e-01 5.316626357728008179e-01
-2.537759609490727875e-02 -1.082086741730516055e-01 4.683522236193676802e-01
-7.826661124728009900e-02 -9.569089433831957925e-02 4.520959778635736948e-01
-7.273744820185241988e-02 -1.162725548127887393e-01 4.830582613407065073e-01
-1.808673160286813561e-02 -1.233827715041719841e-01 4.944565530235501272e-01
-1.548079224861180492e-02 -1.266300713084322904e-01 5.261598244212029041e-01
-1.734194264105776845e-02 -1.123552103271608232e-01 5.585373074538052540e-01
-8.704549504964759210e-02 -8.681599868277090071e-02 4.451521527951177726e-01
-9.844349028630891563e-02 -1.198101789139103396e-01 4.828375028507030375e-01
-9.142216575127741496e-02 -1.175113587722814712e-01 5.057751945015155348e-01
-2.539738246394860829e-02 -1.063331463685289885e-01 5.575324119766135178e-01
-5.345313798330671162e-02 -1.198685769055051475e-01 5.061723936343902608e-01
-6.321483782827329312e-02 -1.168899174975710636e-01 4.902682343486781114e-01
-1.346526264919601854e-02 -1.140706853125476594e-01 5.574646124589787144e-01
-8.996844923617007550e-02 -1.197149095715108330e-01 4.876979737881453891e-01
-8.770906591326857460e-03 -1.284275755359357007e-01 5.104868211625117613e-01
-6.585271839575214392e-02 -1.190508141484415833e-01 5.133686694390739991e-01
-1.070825236673482624e-02 -1.284577178056631463e-01 5.162325143553000428e-01
-6.086639940046836839e-02 -1.136862210833266135e-01 4.806967537478800123e-01
-3.784545425185704970e-02 -1.213936494752625717e-01 5.068681761928175433e-01
-2.779711768687056703e-02 -1.176877411710064852e-01 4.857321647972778211e-01
-3.423100527301897733e-02 -1.205177575966550757e-01 4.980871654217470801e-01
-8.579862213381482527e-02 -9.102724217409058349e-02 4.476845187289023587e-01
-1.199570988045186581e-01 -1.012249665372307456e-01 4.662327318672900289e-01
-2.196550873129215695e-02 -1.193778804071977673e-01 4.857315442963763275e-01
-5.785976420739481069e-02 -9.013878755250742669e-02 4.508552366184271909e-01
-3.714145367858442265e-02 -1.191182831301940692e-01 4.948912113283936431e-01
-1.282007610639172325e-02 -1.253283806483555807e-01 5.319362690588524956e-01
-2.807490843812893849e-02 -1.188900157047670658e-01 5.459409047136485338e-01
-1.395894492170202464e-02 -1.237124519384561611e-01 4.927763708265332498e-01
-2.918530111517283337e-02 -1.210727752045226702e-01 5.404960551382196332e-01
-6.755312411402830675e-02 -6.358256580448075346e-02 4.385505122439449788e-01
-1.189408695591776394e-01 -1.135508526585646133e-01 4.817166147037033608e-01
-2.467426445714832398e-02 -1.082617095714445421e-01 5.580137340759582232e-01
-4.476360862627960097e-02 -1.023633341788571793e-01 4.645974634146548543e-01
-1.612832568245212497e-02 -1.179771637265260575e-01 5.522878024906880956e-01
-4.495917914098507967e-02 -1.009013752671922004e-01 4.629142223295827363e-01
-9.936561712694394477e-02 -1.195880002023538141e-01 4.651603362120310114e-01
-4.592686588882540638e-02 -9.899834636056727144e-02 4.606722843204507090e-01
-1.095383024006057748e-01 -1.098950988235816162e-01 4.600819156345710703e-01
-9.360653753976085067e-02 -8.192767170399183063e-02 4.453957219472589601e-01
-5.872263918062709670e-02 -1.043528642558202851e-01 4.644830000449072793e-01
-4.312294490141238557e-02 -1.126509963018752919e-01 5.375022932414247334e-01
-1.593645128594375904e-02 -1.264387729851275122e-01 5.275722937055752348e-01
-3.248985542193026654e-02 -1.192206065556530026e-01 4.921690431751087336e-01
-8.764973703364517532e-02 -8.740789843535315407e-02 4.455604928823439503e-01
-1.109874374140493031e-01 -1.010819861396797525e-01 4.545027531930751485e-01
-4.522439420364537943e-02 -9.850250322595212327e-02 4.602799298375119808e-01
-1.029964613970089649e-01 -1.207785543248809934e-01 4.667557633319082133e-01
-7.452983411821714754e-02 -1.132321147832887898e-01 4.756854047608500835e-01
-4.333264241006283546e-02 -1.104456671615395846e-01 4.756955080135816250e-01
-9.525351296390428824e-02 -8.837566294243018317e-02 4.463152096051151152e-01
-2.621588744137704624e-02 -1.148698666430631732e-01 4.789632015521326225e-01
-9.182549109929173670e-02 -9.826353969299692070e-02 4.507256229632067845e-01
-1.179622680659356826e-01 -1.046948228593183039e-01 4.638289588275490982e-01
-1.199096228539228703e-01 -1.083411313119976849e-01 4.830946189176523187e-01
-6.194216910179080327e-02 -1.184781417670880410e-01 5.184177522945181416e-01
-4.891992525625514510e-02 -1.204768302987501566e-01 5.108817869916748577e-01
-1.096037421805380607e-01 -1.202177410808982772e-01 4.725811310784987507e-01
-3.177716211254483225e-02 -1.233122204697488650e-01 5.253415550268927259e-01
-1.384062378635655607e-02 -1.211528568647618903e-01 5.464538947157513427e-01
-7.464820089752491339e-02 -1.164640984179408506e-01 5.164917421739277925e-01
-2.025959965725686318e-02 -1.201064083156516415e-01 4.864313440154134360e-01
-2.679335990509771476e-02 -1.245936191423565181e-01 5.261835548812776597e-01
-4.532514180708376028e-02 -7.708945105374559459e-02 4.465637831388938328e-01
-8.578743742877485701e-02 -1.145716775874053850e-01 4.694136263949795218e-01
-8.719022456781705399e-02 -1.191114790960159930e-01 5.030313122016942806e-01
-8.019686871252777738e-02 -1.129412158669938077e-01 5.184176196000764847e-01
-1.044534972606885048e-01 -1.106153185696397007e-01 5.001658823745142035e-01
-7.950165789100002711e-02 -1.195101255828683734e-01 5.045970816973710527e-01
-2.884375579158914016e-02 -1.223552995548629896e-01 5.364868590027980222e-01
-1.082490149508924804e-01 -1.198264078576935926e-01 4.791246569974240144e-01
-2.765168242459777048e-02 -1.214114249353344527e-01 4.956545059616925819e-01
-3.701042948446713055e-02 -1.085381383318686360e-01 5.415556742020488645e-01
-9.725205847122352087e-02 -1.151740808738155597e-01 5.055250844571789193e-01
-7.058077648434296636e-02 -7.659850838997869782e-02 4.409664818201035619e-01
-9.146172453388166923e-02 -1.195231762810446269e-01 4.922150144202710464e-01
-9.552574215603530650e-02 -1.187162297036910980e-01 4.967965603020664811e-01
-9.771645472013810660e-03 -1.286233811344607014e-01 5.156985986243390885e-01
-1.021583439462511178e-01 -1.214527867758980473e-01 4.722682488019053215e-01
-6.928912876653621489e-02 -1.140729051129835692e-01 4.800358473337885123e-01
-4.163943199556299768e-02 -1.213139655185667409e-01 5.114531561915102165e-01
-2.730768993544289286e-02 -1.174942555872050820e-01 5.487035371395597716e-01
-3.303742328949901136e-02 -1.228843558058595603e-01 5.145453970563861334e-01
-6.454854091186403020e-02 -1.109986173595846892e-01 4.745729541531699680e-01
-3.413398168149160000e-02 -1.028972722222930430e-01 4.642871861593260152e-01
-6.816809623644648486e-02 -7.994734312898570117e-02 4.426844792523365046e-01
-7.116840161895764127e-02 -1.162551538531436113e-01 4.837100642767092618e-01
-1.039329683208762151e-01 -1.158540116588843982e-01 4.978048977119393093e-01
-4.578263210234909120e-02 -1.188635313152993089e-01 4.968719958620357313e-01
-2.926143489832908756e-02 -1.208570607308315781e-01 5.408751747594801040e-01
-5.223777160228457866e-02 -1.066261677163629767e-01 4.692439332332775104e-01
-1.055117998850923777e-01 -9.712775529605610636e-02 4.515235956464716538e-01
-1.523725751517956278e-02 -1.244351502461230330e-01 5.350559102733307704e-01
-1.157069854095059240e-02 -1.281325745822176065e-01 5.125637316451204795e-01
-1.016097516912819881e-01 -1.206650786290126703e-01 4.663715587589450373e-01
-9.597254144591908787e-02 -1.161921030405400623e-01 5.056846240482939514e-01
-1.079831791006553160e-01 -1.182447556293673152e-01 4.882028896342536228e-01
-4.143283365578067506e-02 -1.127725118133857812e-01 4.798308016666822384e-01
-5.907154560152509670e-02 -1.060902191610485351e-01 5.302318652844848490e-01
-2.251788714260194446e-02 -9.932471007514952210e-02 5.606027443223947637e-01
-8.723411892444338234e-02 -8.587077815300137029e-02 4.447256263542219701e-01
-4.103210209098231281e-02 -1.175738754402280706e-01 4.909632237537202570e-01
-1.784176842390221285e-02 -1.206264736673041404e-01 4.863638738145908413e-01
-2.836419843292437709e-02 -1.068569229248767100e-01 4.680337000062069763e-01
-1.127455185622691647e-02 -1.202056832385060697e-01 5.475752955577239955e-01
-1.096796370765122375e-01 -1.164098829414897257e-01 4.658115681246161044e-01
-2.167688943760374617e-02 -1.155901930362925462e-01 4.774389847581639312e-01
-3.295795721923198973e-02 -9.946687792409181217e-02 4.606492823342775433e-01
-4.575255222451243831e-02 -7.075632470676612717e-02 4.438521112448930439e-01
-1.954935631070382068e-02 -1.209287977382043355e-01 4.881492553805942269e-01
-2.291916217996283270e-02 -1.237360588156672936e-01 5.364705223741659257e-01
-6.259145267873621188e-02 -9.290103047041818607e-02 4.519806210828729576e-01
-4.114847249285864816e-02 -9.883084604572327236e-02 4.612993767492950536e-01
-8.266199654804895491e-02 -1.105143803015514459e-01 4.656977620251652183e-01
-7.507248134362679015e-02 -7.979412837231501798e-02 4.412095786016814181e-01
-2.050347684056314998e-02 -1.118347318359716319e-01 4.710178498137915781e-01
-6.077604272717458678e-02 -1.085392008401697556e-01 4.699469166900688277e-01
-5.893249484412054623e-02 -9.915074942390694757e-02 4.580009618863244425e-01
-9.557431341260665125e-02 -1.196691770388066678e-01 4.851586694753615703e-01
-6.520353983328250336e-02 -1.116374822455475230e-01 5.252336864015130224e-01
-9.139913131856107487e-02 -8.318964324781788489e-02 4.441314922928210063e-01
-5.142825751840458121e-02 -1.108848420426011838e-01 4.758309081380959760e-01
-9.918718247521214615e-02 -1.212426657834662636e-01 4.724115743311663729e-01
-2.615162860788207422e-02 -1.020011542969018470e-01 5.562444352714324136e-01
-1.061714414282252245e-01 -1.130676478460881929e-01 4.595451502525700893e-01
-1.007146371791296097e-01 -1.187664819405154504e-01 4.936680771631850595e-01
-3.602609749146970519e-02 -8.663133174670269165e-02 4.517299981708683410e-01
-8.306059673949704736e-02 -1.105708199141225978e-01 4.654260535389994069e-01
-6.702458643698079588e-02 -1.040378602216968096e-01 4.616765376617099070e-01
-8.062088004287782175e-03 -1.261685490366269147e-01 5.307535887410630426e-01
-8.629754766357290718e-02 -1.010625022682061364e-01 4.541007677721830005e-01
-1.791970940543816115e-02 -1.266975041647580569e-01 5.219023083168318200e-01
-7.657018105376026118e-02 -1.123205883877775729e-01 5.206821201170613866e-01
-1.206650192347831149e-02 -1.281991216087723928e-01 5.183944785126708421e-01
-7.456730501559018232e-02 -5.698020590072880309e-02 4.389895876157215437e-01
-7.162296912894901280e-02 -8.662441751862419437e-02 4.459905203723735223e-01
-9.557276920118018548e-02 -1.144949221934632583e-01 5.069555383245818447e-01
-7.755998207734984828e-02 -1.053506421567323714e-01 4.608061796309317892e-01
-3.174023467380363006e-02 -1.221286833725529347e-01 5.339563956137565182e-01
-3.171943455442697429e-02 -1.091479938725133797e-01 4.723195237727320084e-01
-5.144256785408377747e-02 -1.170746897163785216e-01 4.905547004057539962e-01
-1.194070762622599507e-01 -1.114414313363966680e-01 4.836900555498573340e-01
-6.572912454034908480e-02 -1.184934017936638273e-01 4.962365750838931278e-01
-2.046536131569133901e-02 -1.263008839887709844e-01 5.218661925157442871e-01
-1.203733309608570751e-01 -1.050803867097141048e-01 4.810052241973744591e-01
-9.217116088042026645e-02 -1.179326730892280295e-01 5.041637347976263284e-01
-8.582220220988004411e-02 -1.180369180200298712e-01 5.078487256287173013e-01
-4.220666906549977448e-02 -1.211667796802677055e-01 5.248181093926015395e-01
-7.125176059224552771e-02 -1.193939962819026424e-01 4.981011270903371591e-01
-1.042950533015707670e-01 -1.163287716736323418e-01 4.967184015734226743e-01
-3.069280444398066188e-02 -1.118564120680753810e-01 5.499727015841053834e-01
-1.063589699974159530e-01 -1.215056708646095052e-01 4.719985382139391117e-01
-1.659354640031869207e-02 -1.022341137622645446e-01 5.629062741945838333e-01
-9.107269928801114967e-02 -1.189229030447149227e-01 4.995774169050103963e-01
-2.628096421593327861e-02 -1.118315240455430154e-01 5.543483128792738857e-01
-1.636559752448403515e-02 -1.269790359559540283e-01 5.124646075694180292e-01
-7.208320486066380206e-02 -1.101053025256267387e-01 4.702841559204318234e-01
-6.416980291399007608e-02 -1.058789257902557901e-01 4.646371981763449122e-01
-6.953787102099420747e-02 -8.735255250415191464e-02 4.468634784999597209e-01
-4.703504391842837362e-02 -1.203533140237061233e-01 5.067173247910636835e-01
-9.910260648400411043e-02 -1.155261279616530551e-01 5.038773175523849623e-01
-3.341414973208198941e-02 -1.222260523640755769e-01 5.313524574560130054e-01
-1.091053751786826877e-02 -1.245449588296321936e-01 4.942440133206557618e-01
-4.521365835325766303e-02 -1.137212160364354241e-01 4.815186514702646803e-01
-1.215734929946178135e-02 -1.245465880574590095e-01 5.339831035791252623e-01
-1.148485722013404126e-01 -1.113667298817883622e-01 4.650862586142937571e-01
-8.685415770139634506e-02 -8.892436165693708150e-02 4.464063560376709816e-01
-3.379759210866505742e-02 -1.213239581977944015e-01 5.012764160603568886e-01
-1.400599326928260446e-02 -9.898951173719026941e-02 5.656646209683392490e-01
-7.975140773538230698e-02 -7.386946930958390722e-02 4.389537135188862904e-01
-5.782183854153045977e-02 -1.196051568078514704e-01 5.070372272309037198e-01
-7.738690435470201023e-02 -1.175107960278007485e-01 4.846645127741634473e-01
-8.726442667359773919e-02 -1.050630261304155294e-01 4.562958704836541646e-01
-5.982845133805766991e-02 -6.266775567559344784e-02 4.401101548459351309e-01
-9.850141583270893147e-03 -1.257505917941951767e-01 4.976626161648611824e-01
-3.198646003912993668e-02 -1.189403065507467910e-01 4.910770051302623118e-01
-1.197453179552593477e-01 -1.072497459322960811e-01 4.696007917803944332e-01
-4.409381243487855984e-02 -1.194664285984986529e-01 4.987913349212479974e-01
-1.075358533959551027e-01 -1.205518986087564526e-01 4.683501510680329605e-01
-7.035471045592203709e-02 -1.195457017475436146e-01 5.021938270193720966e-01
-4.862048089543821033e-02 -1.044193536328104216e-01 4.667561500816481135e-01
-4.349422960000267485e-02 -1.177403024545830845e-01 4.918733316615306328e-01
-1.576881592309723606e-02 -1.273906018043284294e-01 5.183730516500154595e-01
-3.463805852450741601e-02 -1.216028907760058897e-01 5.038066266829028805e-01
-5.635311096077245258e-02 -6.331392783588371542e-02 4.406106033576859815e-01
-1.150493963378200479e-02 -1.235601242571020553e-01 4.915112400039003404e-01
-3.960190366188703209e-02 -1.095011628401713205e-01 4.735475154454281133e-01
-9.423775014100704839e-02 -9.625471357197143418e-02 4.497865620685906896e-01
-5.984001092271674926e-02 -1.161245263786527954e-01 4.885153325285789827e-01
-6.508331453226660901e-02 -1.194455144029042820e-01 5.029426594854925492e-01
-7.438636288976309408e-02 -5.790210552490415025e-02 4.385872605630433130e-01
-1.111617976150624659e-01 -1.116640227079541692e-01 4.956625067975050092e-01
-7.926788217890098909e-02 -1.108328145933366871e-01 4.680189865475832822e-01
-2.301927783819198575e-02 -1.252564000185494575e-01 5.110025736812896513e-01
-5.497460109094624847e-02 -7.495675883798588734e-02 4.443956224695035373e-01
-2.115064373101055092e-02 -1.184799082166444056e-01 5.504316094895910227e-01
-9.430922135351109403e-02 -1.161714264487257176e-01 4.641577265431926502e-01
-5.004663463831451192e-02 -1.177803832096941117e-01 5.294134352113571973e-01
-9.584811269113317767e-02 -1.207370252960889290e-01 4.767994247608562941e-01
-2.962951038753409289e-02 -1.200861216106129531e-01 5.421692168485403585e-01
-6.411558649857711234e-02 -1.168386022966354937e-01 5.210072823761064953e-01
-2.584581907114285454e-02 -1.202497634085620548e-01 4.909607978394941452e-01
-9.521966111335669614e-02 -1.144601877775504317e-01 5.071820689238699664e-01
-1.129381004150602219e-01 -1.050546606376020209e-01 4.580453429013829902e-01
-4.431371333859602385e-02 -1.050093010356046297e-01 4.675233648848115542e-01
-3.408170053538708139e-02 -1.148452093902387477e-01 4.835735620363319498e-01
-4.170811021833376042e-02 -8.871039937898618499e-02 4.529561512716120952e-01
-4.386731377752134398e-02 -9.768267814515346759e-02 4.597675381268740424e-01
-9.037240934884198384e-02 -1.195261915785857942e-01 4.922388066123864481e-01
-8.744496463239830042e-02 -9.225296944079147687e-02 4.482606721472180977e-01
-8.513074558820589444e-02 -9.550959056191134222e-02 4.506431810927365444e-01
-1.880338215275708172e-02 -1.264155911464061588e-01 5.133760666345655865e-01
-5.073724141292328127e-02 -1.069987941929676639e-01 4.701467622571232075e-01
-7.200280947604986714e-02 -5.963326738268964755e-02 4.376957581790381635e-01
-9.198451195236073685e-02 -7.722912462135171630e-02 4.454816088895801607e-01
-7.087776052460251219e-02 -9.818176237384855509e-02 4.550873086188529371e-01
-8.573360026532154954e-02 -6.866955243673228404e-02 4.399175331415093870e-01
-2.293135094377047462e-02 -1.078567318307957629e-01 4.665287395698753392e-01
-5.109663569368903119e-02 -1.119595279482528127e-01 4.779236227387657077e-01
-1.379783194273412512e-02 -1.203240614700176042e-01 4.844147547956802469e-01
-9.215482227663820969e-02 -7.539994418630270590e-02 4.459301162152626841e-01
-9.877665318901723834e-02 -1.183774719804437520e-01 4.630111369142533295e-01
-4.815726474225989762e-02 -1.160072486807963293e-01 4.871138968593620722e-01
-4.117746179838771559e-02 -1.215600481659783044e-01 5.148868680293935407e-01
-6.148544569963461381e-02 -8.595111819129369612e-02 4.475341375780523823e-01
-5.081482661538195417e-02 -7.060513016552491528e-02 4.434651112477562829e-01
-3.985323065653725155e-02 -1.218351127627492897e-01 5.198626655518283624e-01
-1.017046252623441394e-01 -1.200207460048810237e-01 4.820432797420248217e-01
-9.644875737760812140e-02 -1.052967677337708630e-01 4.544659960459964121e-01
-1.445693195378799922e-02 -1.264073293543045151e-01 5.283775594624718908e-01
-9.145092844605252555e-03 -1.273120527552858150e-01 5.280580187271393111e-01
-6.427621444446107724e-02 -8.391975343090571360e-02 4.457781487477517901e-01
-9.444176009755479717e-02 -1.139569311710635913e-01 5.078694333793483118e-01
-7.804471216065907158e-02 -7.686043551835688992e-02 4.398297718404678980e-01
-7.783694902215379519e-02 -1.197436277031952157e-01 4.965721406129557924e-01
-6.275962382125382932e-02 -8.444445840307385209e-02 4.463996212462024160e-01
-2.308813261458320110e-02 -1.254113397729738899e-01 5.146193981583053745e-01
-5.046649094016644743e-02 -1.154800239584795746e-01 4.857883271044284301e-01
-1.051796899049071005e-01 -1.209910720798523937e-01 4.674833694594053846e-01
-7.367402378640833249e-02 -1.063710133469994573e-01 4.634529508562370004e-01
-9.068219439631415579e-02 -1.199073391766733720e-01 4.852835548070620342e-01
-3.793029127544806506e-02 -1.200215786904938742e-01 4.991217730103211236e-01
-2.655441522717632771e-02 -1.247817495139071642e-01 5.239152958878461330e-01
-7.173592155336558362e-02 -1.192665123328501275e-01 4.957505680760425637e-01
-6.722570052683944641e-02 -1.161506305406329737e-01 5.202828034272123370e-01
-8.315601096654434699e-02 -1.108732950001500572e-01 4.657628581670638646e-01
-9.643439716025579977e-02 -1.183692628997107532e-01 4.667662494100405235e-01
-4.606994022322868226e-02 -1.149114449347389683e-01 5.342027905783678365e-01
-5.424516537894871759e-02 -1.102218792326189328e-01 4.744711983734729022e-01
-7.509401281640183667e-02 -1.196853179878930307e-01 5.030493859091683673e-01
-4.635987097238208204e-02 -1.208496925186737236e-01 5.142359516786703111e-01
-9.872711609905449048e-02 -8.188738621749079571e-02 4.499234251235866844e-01
-5.406942270480272900e-02 -1.117091241985335714e-01 5.315166107242542681e-01
-3.756897241027469525e-02 -1.196968850439042165e-01 4.975796909694485404e-01
-4.489906310742607792e-02 -1.211353392931441286e-01 5.179002499622475941e-01
-1.131721091157216752e-01 -1.169391632756110466e-01 4.712040473689200204e-01
-5.302203519435066958e-02 -1.161360130495169840e-01 4.878748046373909686e-01
-7.019989456085015678e-02 -6.144774142554209478e-02 4.376438647069517685e-01
-7.415323029074792627e-02 -1.118180951996693706e-01 4.724746998748411975e-01
-6.927649022103041232e-02 -7.444665874030799435e-02 4.406310599447411658e-01
-7.980966249272938851e-02 -1.183758572347076848e-01 4.871209081987491474e-01
-8.935792098006833939e-02 -1.198870529875569607e-01 4.861920127145102910e-01
-3.100729447927717125e-02 -1.085163848228544170e-01 4.713683877776423392e-01
-3.617349865982735085e-02 -1.182330640569484309e-01 4.911605278697646071e-01
-2.104229856411630323e-02 -1.239330881862827777e-01 5.369072615085497269e-01
-7.982979794269413898e-02 -1.190051410403416554e-01 5.091454716857181095e-01
