-9.625191552990866595e-02 -1.203529582070653192e-01 4.751170118089316774e-01
-5.613846721256619821e-02 -1.192665056926621864e-01 5.046955537299022687e-01
-9.281531000840836931e-02 -1.010196596352618686e-01 4.540320766092964533e-01
-4.819506402696595998e-02 -9.107347871067228429e-02 4.545817505074205012e-01
-8.670304416301348460e-02 -8.429257617819642390e-02 4.450053695799936482e-01
-5.710098661222471478e-02 -1.196385446276375525e-01 5.159692459885411031e-01
-1.739263635004021508e-02 -1.126152364825755564e-01 5.586764909850131522e-01
-1.848181543070760019e-02 -1.206384906935455414e-01 5.473576701505935560e-01
-1.832113977557605147e-02 -1.264068789041901952e-01 5.139776718408776146e-01
-8.763450401977038173e-02 -1.130559515213729743e-01 5.132887290540661951e-01
-7.376590631943110397e-03 -1.287440463057730744e-01 5.244367525045383616e-01
-1.111722134441151949e-01 -1.164894765497625218e-01 4.922972475548517690e-01
-3.067999607571633702e-02 -1.221085218008376022e-01 5.028582470000392268e-01
-8.291811162523239631e-02 -1.166142835051042631e-01 4.792081165589763825e-01
-5.266904139184793582e-02 -6.868070974168531684e-02 4.432247241468426080e-01
-2.547769621700419346e-02 -1.004686267386995097e-01 5.563612436824516561e-01
-8.846826699421475593e-02 -1.124735481411690829e-01 4.650695366596530600e-01
-2.287695006967359335e-02 -1.160771116302251604e-01 4.793658729371134686e-01
-2.925118356279264240e-02 -1.054452617859722025e-01 4.668917770084402563e-01
-2.617587863329262285e-02 -1.195933797407445348e-01 4.900141055229599862e-01
-6.903435790728761068e-02 -6.343275404945548923e-02 4.390414969113605737e-01
-5.924617867172965457e-02 -1.188939709665832178e-01 5.032734181263309736e-01
-8.822935897791800430e-02 -9.519313583650433619e-02 4.509712318783250518e-01
-5.924330826075736162e-02 -1.059326944718834151e-01 5.308220136152599355e-01
-8.179966156451420889e-02 -1.104969195508637703e-01 5.184596020986628195e-01
-5.660951560784007602e-02 -1.154488232458284191e-01 4.873045576286370584e-01
-4.774298244522855866e-02 -1.203109557941033081e-01 5.095994175498663736e-01
-7.836119066489119489e-02 -1.107995587687571892e-01 4.698013260240613831e-01
-5.585134563776419231e-02 -8.700406812061624306e-02 4.500814401390037522e-01
-6.676384644797736523e-02 -1.152523396129423033e-01 4.846917311761108071e-01
-5.322699907052668572e-02 -1.147313743134192460e-01 5.307386575076203927e-01
-1.018048262294651840e-02 -9.649567115825358199e-02 5.677196322111657256e-01
-6.771587105363358061e-02 -9.397991267318502040e-02 4.528924961450668807e-01
-1.091051301968102849e-01 -1.186732313719392889e-01 4.860494026845548765e-01
-9.614032153856547080e-02 -1.183538474214944625e-01 4.692936661570155099e-01
-7.323916790196684234e-02 -9.246803570324212129e-02 4.513414625113698064e-01
-2.534380171592374997e-02 -1.047890587330768258e-01 4.641503223898568176e-01
-6.975809198654520094e-02 -5.474676260562300750e-02 4.402351892938393685e-01
-8.294917505512444666e-02 -7.003621502951679068e-02 4.398413571450346948e-01
-6.640565061755937526e-02 -5.861987226497146486e-02 4.390205913809894778e-01
-1.627473761757876683e-02 -1.271309221178927584e-01 5.184174886873607058e-01
-5.647068104989957926e-02 -1.197563437481999060e-01 5.147624488937412313e-01
-7.831877734433194405e-02 -9.280547254516052780e-02 4.510880309839525037e-01
-8.030834209012156777e-02 -1.039045501310497388e-01 4.600275815837753246e-01
-9.730039457981930207e-02 -1.195114307472646409e-01 4.863000435984246583e-01
-5.602291951803041459e-02 -1.156005625396787917e-01 4.877866235347713686e-01
-1.165707744179043659e-01 -1.093265682448748971e-01 4.667211944129736612e-01
-4.186797587107386059e-02 -1.197877549479365589e-01 5.004846466532911764e-01
-4.662762906556817966e-02 -1.206461481792674567e-01 5.232934324963545158e-01
-7.207018974278958656e-02 -1.179071773524162231e-01 5.149070353728893989e-01
-6.175611526371466847e-02 -7.340374391387004260e-02 4.432909312226748777e-01
-1.100255332770778277e-01 -1.092663676731454314e-01 4.616069491368058331e-01
-3.089403658028703689e-02 -1.158102199456503001e-01 4.850391689974056231e-01
-9.851667147276521597e-02 -8.031266918088918183e-02 4.521500574495963543e-01
-9.732367405401085025e-02 -1.197607727030077091e-01 4.840411895385698382e-01
-7.491837356453912022e-02 -1.037667391363218394e-01 4.613479860267338806e-01
-1.193630245296005005e-01 -1.116457765512442191e-01 4.808633560374018789e-01
-1.679775908916433108e-02 -1.254846309294220252e-01 5.019593971190677850e-01
-4.804898711981692161e-02 -1.165067027317476106e-01 5.326892225891799448e-01
-9.688506089286083589e-02 -1.136151017456918377e-01 4.612545781868386818e-01
-8.396996816000580621e-02 -7.887767575611413784e-02 4.422071551012060064e-01
-4.542827855708142515e-02 -1.161811763662193436e-01 4.884017628616905138e-01
-8.256734229478977782e-02 -1.112253887621925258e-01 4.686025738423234555e-01
-5.464228823410811203e-02 -9.490042352237115786e-02 4.562569081452278463e-01
-6.379513570174034920e-02 -9.400982675175345582e-02 4.536137397314902175e-01
-7.135878621685926015e-02 -9.164969769814984568e-02 4.507153917552080280e-01
-9.057689764000377564e-02 -1.158065236212548338e-01 4.693014263283013521e-01
-1.209110945602303450e-02 -1.260440605045677620e-01 5.003490083115827991e-01
-7.775494105783289922e-02 -8.454711067073457376e-02 4.450917816630420853e-01
-8.124785525522673635e-02 -9.718069665388710809e-02 4.539129981286543769e-01
-1.034601583156531945e-01 -8.695049611397588640e-02 4.532137828890708264e-01
-6.766599834465905627e-02 -1.196049174214388194e-01 5.066632110106678022e-01
-3.723798689834213749e-02 -9.765624131518431394e-02 4.607604780292064994e-01
-1.190819625340269194e-01 -1.092599489052119149e-01 4.884966766690724826e-01
-6.125637036495212850e-02 -1.177086743887520576e-01 4.954497312506742079e-01
-9.486460978784178044e-02 -1.064778887067599211e-01 4.572331073365887844e-01
-8.898970365040016761e-02 -1.187332110400620144e-01 4.834980108402290311e-01
-2.053229940622016900e-02 -1.180769245508898890e-01 4.824598158985196061e-01
-7.774596668199508509e-02 -7.180237891648683091e-02 4.395719165073255219e-01
-7.056051867644502762e-02 -1.133682139172805803e-01 4.794047210456047758e-01
-8.471373626139583335e-02 -1.176693960306160608e-01 4.849038403166636702e-01
-1.642625353440590671e-02 -1.267021304932699488e-01 5.097219846791640752e-01
-2.518783583331763581e-02 -1.004088383016710634e-01 5.570335637132655116e-01
-8.979767935776346299e-02 -1.138153108859705082e-01 5.116590179286953921e-01
-7.155019996716920072e-02 -1.126362968374542695e-01 5.230359728154708732e-01
-1.137800844032795661e-01 -1.138787521680578591e-01 4.938482260592697015e-01
-5.055309576904162133e-02 -1.103079501814807212e-01 4.760516982584065415e-01
-8.183324377415890361e-02 -7.473121095975986117e-02 4.403047835130315946e-01
-9.142518277056466136e-02 -7.784470941260833443e-02 4.458457742494903453e-01
-6.862728674369415749e-02 -1.114720258444164697e-01 4.754302533873731584e-01
-1.012493640893141894e-01 -1.166192909781179343e-01 4.630937754270382789e-01
-6.389499533063616732e-02 -7.076709388045325511e-02 4.420280552633550908e-01
-1.736696946760132171e-02 -1.240773118347165416e-01 5.365569176401554508e-01
-3.603248961589013838e-02 -1.172674726798856593e-01 4.897028086473836916e-01
-1.196110912788058700e-01 -1.083250516361796700e-01 4.803272523331278410e-01
-8.444587092134628326e-02 -8.926067885330810081e-02 4.479372681488625885e-01
-8.975086653961342198e-02 -1.000923856846687027e-01 4.538453494659636100e-01
-8.109024411332507731e-02 -8.584459858985717118e-02 4.458396023458920387e-01
-1.212033293407624307e-01 -1.040659548129358597e-01 4.712959323817458301e-01
-1.121797879507601264e-01 -9.474242913841067482e-02 4.564116879129554438e-01
-4.391629197895004222e-02 -1.146617694090929923e-01 5.362646930187031646e-01
-9.877583176785839636e-02 -1.194394187290614279e-01 4.865895335281435474e-01
-4.100753255722162233e-02 -1.209322812694557242e-01 5.075395390676414875e-01
-5.867520661447298003e-02 -7.939029398994824904e-02 4.459792159654256127e-01
-2.611482725965631052e-02 -1.127343043094465869e-01 5.541861964533666418e-01
-4.628990279646533201e-02 -1.182436269686267805e-01 5.325581107289136806e-01
-1.076317860309895791e-01 -1.115818309117359020e-01 4.622132561860418098e-01
-9.012785563731756655e-02 -1.196399736959535831e-01 4.842458469152862155e-01
-5.789871644227689157e-02 -1.194694504517861550e-01 5.172841056334247511e-01
-7.204050259215413754e-02 -1.099361125589233545e-01 4.712902986232701541e-01
-9.464887977329072832e-02 -9.010404273348938953e-02 4.480606559724977234e-01
-9.378285746250059063e-02 -9.558156431705230882e-02 4.508444279651226405e-01
-1.054382856223581993e-01 -1.203255319354130382e-01 4.799539470733847346e-01
-6.491809352293446966e-02 -1.152085100604629819e-01 5.232719666539118464e-01
-1.137476016564776538e-01 -1.145351735223394396e-01 4.691432969345202819e-01
-8.506667115506336141e-02 -9.181794083083077984e-02 4.494156708936679623e-01
-2.690918443274563365e-02 -1.212809228158611002e-01 4.956025499660547395e-01
-6.641624783409381949e-02 -1.043245484611882851e-01 4.632745591679980346e-01
-7.905707918459652095e-02 -7.304425510842681157e-02 4.398177137421208638e-01
-1.128694775048221660e-01 -1.047863255458189730e-01 4.595705534758585675e-01
-8.529277717991560342e-03 -9.837902691456894277e-02 5.671025276962289308e-01
-4.371783129097692872e-02 -9.006705554101539224e-02 4.545142014292717914e-01
-7.729337730465626888e-02 -8.520224513531894639e-02 4.455894157571168024e-01
-1.063226806091013693e-01 -9.033767020984562190e-02 4.540991409642747834e-01
-5.057521679698368661e-02 -8.784516352796156724e-02 4.516171185271979360e-01
-3.805764987661481441e-02 -1.098746960979482684e-01 4.748502384723886638e-01
-7.732691898057215962e-02 -1.195775366331193329e-01 4.963942767590503458e-01
-2.662018579863222739e-02 -1.219269988274998828e-01 4.972629159858103498e-01
-5.446380777349905250e-02 -1.200272953070463944e-01 5.101939570306857075e-01
-3.701267942670246475e-02 -1.206732585812435310e-01 5.334750007589253995e-01
-8.468312068899702671e-02 -1.085458170659282240e-01 4.632720021615913120e-01
-2.662478332797717229e-02 -1.198933509611180143e-01 5.447975906622816167e-01
-9.550950724664124258e-02 -1.126489544062239112e-01 4.613829586806749705e-01
-4.009695116023977157e-02 -1.182922824118373267e-01 5.362193105666730464e-01
-9.160967060097955153e-03 -1.282884601819185844e-01 5.244603748345039174e-01
-3.171663149629171119e-02 -1.145926729263245930e-01 4.825390514948345588e-01
-1.111771203245455336e-01 -1.174241140053721433e-01 4.706010149392863551e-01
-6.912216399824759605e-02 -7.036503084419781784e-02 4.403973755091517006e-01
-3.182758500647192568e-02 -1.060544508151070875e-01 4.682898696870518851e-01
-4.317426376583056308e-02 -1.107912768712570467e-01 4.770608025385481010e-01
-9.256059184656478811e-02 -1.162272885779668113e-01 4.683122436472553773e-01
-5.469412570282405905e-02 -1.064674759687557620e-01 5.335765863085800698e-01
-4.120010736222629727e-02 -9.836438395449635663e-02 4.615440670683510493e-01
-9.583231650844717397e-02 -8.137823503633379030e-02 4.478130024922448160e-01
-8.508878773743468182e-02 -1.170840540945407571e-01 4.831697896881328447e-01
-1.179876239950231470e-01 -1.015632107935862394e-01 4.640025667861009673e-01
-3.881390448520834896e-02 -8.027720226873333309e-02 4.484594820627195721e-01
-1.921477988174091073e-02 -1.263784592845584309e-01 5.180608125754260218e-01
-5.352466066144714180e-02 -1.099017504167978526e-01 5.334834915299314639e-01
-1.611791234115202143e-02 -1.266028718171434420e-01 5.244577430721070188e-01
-1.212690551270953626e-01 -1.041037857442877468e-01 4.795395285949369257e-01
-7.330613353545903377e-02 -1.058711332980788178e-01 4.642343314529929765e-01
-2.620758209887877332e-02 -1.184233957643853197e-01 5.480902447333252381e-01
-1.760865944971706440e-02 -1.260135359982381686e-01 5.052476329938641042e-01
-1.603405753814713883e-02 -9.989717214575379034e-02 5.643045121880559956e-01
-8.210887899919135091e-02 -1.173126632579744449e-01 4.845013250764845236e-01
-6.542563545036857164e-02 -6.071393090628177808e-02 4.395396933927628313e-01
-8.932460136052074173e-02 -9.722106178188939796e-02 4.519689657126116922e-01
-5.121318761894590177e-02 -1.122445188930264737e-01 4.795137688578192670e-01
-6.694941068106231852e-02 -1.007255430332610335e-01 4.590828785143636903e-01
-6.863318713306698626e-02 -1.086299172745918556e-01 4.695372909295230102e-01
-3.237054497309556356e-02 -1.222743167243209444e-01 5.067480994377353554e-01
-9.637355710937611786e-02 -9.091714286274514556e-02 4.485139664414520833e-01
-5.438274448290597585e-02 -7.389000860792183101e-02 4.448974530161037277e-01
-6.666622686453797797e-02 -1.175196811066429869e-01 4.916256750911006668e-01
-7.225475184993784827e-02 -1.185425244554455110e-01 4.926983090063926096e-01
-7.945014647521406181e-02 -8.611907071364899302e-02 4.461546198947953790e-01
-1.405388735923753830e-02 -1.212576047836752408e-01 4.870821099348975891e-01
-3.860325895396790608e-02 -9.184279616411221425e-02 4.562285696910498012e-01
-5.984860611585993140e-02 -1.175251160821636359e-01 4.949456782691925016e-01
-7.284776727547884190e-02 -8.305408790058425861e-02 4.445129269509606185e-01
-7.973516714105884085e-02 -1.189058770692230094e-01 4.913046030120483687e-01
-9.273752632663026518e-02 -1.190467793577561217e-01 4.965646419660207922e-01
-9.790777847292433944e-02 -1.202950452957150668e-01 4.809431976886949789e-01
-1.138321631048012650e-01 -9.968277269382851136e-02 4.585201489883498072e-01
-4.613768950273706981e-02 -8.927601827863455852e-02 4.537472343844358713e-01
-5.220018616264304051e-02 -1.151129505090159877e-01 4.859249540836496073e-01
-3.273458042925150163e-02 -1.111276595938497230e-01 5.464191067142076808e-01
-9.495718724599584715e-02 -1.201305869712172431e-01 4.767474692439662709e-01
-8.391297912878299681e-03 -1.286130822627774839e-01 5.237927966664378543e-01
-1.545725675206370900e-02 -1.234777570789404588e-01 4.936045032674915012e-01
-1.301157336811161781e-02 -1.011527821961445833e-01 5.653058083774578080e-01
-3.008188651338701905e-02 -1.119784758500958349e-01 5.507322656639174197e-01
-4.884899814991731232e-02 -9.546649335198757746e-02 4.580723474275379958e-01
-1.568238486750101607e-02 -1.234377622676291614e-01 5.394693963599452857e-01
-6.028628220865709514e-02 -1.106433369225931496e-01 4.757611297985627763e-01
-2.269643799581776838e-02 -9.766446378121598770e-02 5.599873778629310683e-01
-7.717443910230518955e-02 -7.154256415519275047e-02 4.395290498700739623e-01
-5.338388151518283498e-02 -1.184304300427843765e-01 4.982554476231982332e-01
-2.540067053648928375e-02 -1.234558527710461484e-01 5.025356525454932610e-01
-8.967789541404216913e-02 -7.080677225948554809e-02 4.457498742103516709e-01
-1.049857123871388159e-01 -1.156170237913787258e-01 4.636857953982267411e-01
-7.806083259452029077e-02 -9.412689638347952747e-02 4.521449353017490402e-01
-9.087454273516157657e-03 -1.279840961410670386e-01 5.079208322706949552e-01
-8.479566183774971122e-02 -1.193910932532495778e-01 5.001073150361307063e-01
-8.356506078855582831e-02 -1.194095952708102149e-01 4.952308587880339674e-01
-4.759436778700738141e-02 -6.086484341123048897e-02 4.414735442087661110e-01
-1.153513516462166891e-02 -1.281637468239893718e-01 5.176872707593966894e-01
-5.426781858641799294e-02 -7.039721219731921720e-02 4.437575133092934165e-01
-7.041895070371165244e-02 -9.466172736697631152e-02 4.532303431914661562e-01
-2.971827429732182627e-02 -1.227566195721472575e-01 5.328622675106345907e-01
-1.164689804388708561e-01 -1.150276485240106644e-01 4.755789565548494413e-01
-2.860790015799252392e-02 -1.235871519436929494e-01 5.111097599322272922e-01
-5.748765121362427177e-02 -1.092532053101731987e-01 5.309660133787661440e-01
-7.287322856426724227e-02 -1.193397405752052720e-01 5.074424254265620382e-01
-3.179872358224443418e-02 -1.224007801356055691e-01 5.321281277564731127e-01
-4.912980376856098536e-02 -1.123155107468559455e-01 5.341265834662306533e-01
-9.751403123088958624e-02 -1.123018629436906557e-01 4.603115006073097981e-01
-1.943293306017985708e-02 -1.086793200213505423e-01 4.669124475019763576e-01
-1.552163832540482367e-02 -1.261683154020710185e-01 5.286881436893626773e-01
-6.614154358987860138e-02 -1.138006934253182056e-01 4.811224938624965031e-01
-2.416375282665212884e-02 -1.245177569515480837e-01 5.072830079164023509e-01
-6.831151679300719037e-02 -1.193741733392984089e-01 5.091294201218877769e-01
-4.731410426758270171e-02 -8.963108979972690682e-02 4.537071560764977529e-01
-1.090806126956890137e-01 -1.164634158857468377e-01 4.673455493066006050e-01
-7.242196226238734047e-02 -1.032147153058862593e-01 4.612346773429187863e-01
-6.973331344766890705e-02 -1.156106787668715191e-01 4.842018359906027358e-01
-6.586732232530050080e-02 -1.077115175089653071e-01 4.684100183529539274e-01
-8.739326127797633625e-02 -1.195716240296728489e-01 4.914896995014996217e-01
-6.800869351413799113e-02 -8.305956995410451738e-02 4.454200471728949062e-01
-8.222996758349597479e-02 -9.974734098597205778e-02 4.557138943297499023e-01
-6.253922405658671191e-02 -5.878448737277280206e-02 4.397306366219684848e-01
-1.130001356122836420e-01 -1.095474540011154158e-01 4.633836036997098784e-01
-9.436419087746789058e-02 -8.016096046834039757e-02 4.474639846712687441e-01
-2.137485122910647017e-02 -1.218998716686952172e-01 4.930227868584707296e-01
-1.194793361921515779e-01 -1.094743337291666924e-01 4.799962582945161427e-01
-4.900997141836421073e-02 -8.243102225030457531e-02 4.487929928565865256e-01
-8.445200769835953247e-02 -1.194070536421513451e-01 4.967236502792534703e-01
-5.569694641470284563e-02 -1.173404758958472710e-01 5.261168177721325945e-01
-6.517174221855169536e-02 -6.459287660950391308e-02 4.400585271109862529e-01
-3.982662609221566952e-02 -1.052103956384984884e-01 4.685366976273387385e-01
-6.720693999256632800e-02 -1.181088583903170119e-01 4.942058132277185600e-01
-2.492716357756539006e-02 -1.011399495062138554e-01 5.581129101304079798e-01
-1.188410286663731628e-02 -1.198399642695274631e-01 5.492223496978743125e-01
-5.805133953184699741e-02 -1.196508924291189990e-01 5.099571010963361850e-01
-3.980670882081559225e-02 -1.060905456967606436e-01 4.696859564221528838e-01
-1.265081560216184918e-02 -1.272743725185747354e-01 5.069932702456106943e-01
-3.711847138193599682e-02 -1.052531788371672550e-01 4.681498138637683604e-01
-1.193886667078734448e-01 -9.766751238490056775e-02 4.711777648869834301e-01
-3.912297159683199993e-02 -1.192714206752723549e-01 4.970299194862500824e-01
-1.045239748740410951e-01 -1.103603305805169188e-01 5.017863695795959922e-01
-5.950499878101517259e-02 -1.112155025926110791e-01 4.770758899255853613e-01
-4.473220604902667513e-02 -9.161784572159051288e-02 4.556560078989898011e-01
-2.407130964537219919e-02 -1.082262328011881353e-01 5.586417446025634392e-01
-5.389304039726029033e-02 -1.109337732258185855e-01 5.326681235201005116e-01
-5.389789784059498962e-02 -1.053359660646913110e-01 4.679573871211818448e-01
-9.643241949328751339e-02 -1.191808227746684462e-01 4.930867328685387130e-01
-5.763981801113313153e-02 -1.030800672016931041e-01 4.641509270658500386e-01
-7.597157717667846200e-02 -1.153850518615939513e-01 5.188401179196678870e-01
-9.163754343101444474e-03 -1.232255849644345036e-01 5.374181831331160675e-01
-1.154078125273990396e-01 -1.161884856790011966e-01 4.767738355588382881e-01
-1.052060794550520179e-01 -1.140043076559938556e-01 4.602560821959085224e-01
-4.043486389376101109e-02 -1.109800283975689306e-01 5.395263019831733065e-01
-8.599355151393596464e-02 -1.059597444792761134e-01 4.590000958688612021e-01
-1.739475319990579569e-02 -1.267727553194702983e-01 5.210806183178892104e-01
-3.402618954477321794e-02 -1.179190909502134677e-01 4.902328014565169867e-01
-5.455292512962907348e-02 -1.192998028700403279e-01 5.037824065087944669e-01
-5.884174993336811765e-02 -5.680592317828171006e-02 4.399103039398823412e-01
-9.593743849648747601e-02 -1.159878547222581019e-01 5.072084560606255899e-01
-1.932418557919482818e-02 -1.134348625068765520e-01 4.733486249312501837e-01
-1.120592768429403210e-02 -1.256528215982027907e-01 5.307977796217735467e-01
-6.277375486149497363e-02 -1.193014504782237140e-01 5.066961213207433756e-01
-2.048670770167110300e-02 -1.254686429517174739e-01 5.066204891810817124e-01
-6.918655774676116255e-02 -8.930292083118551716e-02 4.490850369632346517e-01
-8.616348729115491656e-02 -1.100748438859349837e-01 4.640866638946313238e-01
-7.996957928391591752e-02 -9.480951659317367330e-02 4.523907525094443272e-01
-8.566186765098071643e-02 -1.173574672553437115e-01 4.789594930252585869e-01
-6.305555590883901718e-02 -1.138657750501108623e-01 5.262191195927067300e-01
-9.726218336362309203e-02 -1.173300719207586440e-01 5.040408632610149375e-01
-2.777506163245138313e-02 -1.102719669781886819e-01 5.529698320573112058e-01
-6.897254032256219802e-02 -8.763950267007157569e-02 4.481028935626388265e-01
-6.859931792855214483e-02 -1.194365367752759227e-01 5.079104101134763738e-01
-3.915498535784071865e-02 -1.063825344435682663e-01 4.700079778004743747e-01
-1.524584269466131362e-02 -1.192288768588116304e-01 4.831430742324566152e-01
-3.413329127651952566e-02 -1.000443432170471242e-01 4.620235904669350857e-01
-7.891867467785457224e-02 -6.627974653204470046e-02 4.377978528003735326e-01
-2.214385863380990624e-02 -1.238132660061874862e-01 5.004555701545895241e-01
-2.492525154532949233e-02 -1.144873098990532440e-01 4.779733456554381976e-01
-5.713978916938159541e-02 -1.196423305411047494e-01 5.089247272726827864e-01
-5.791560399365636852e-02 -1.179353508991734523e-01 4.967469731627328078e-01
-5.171732519636559194e-02 -5.850610906717933213e-02 4.407359256402345049e-01
-8.787650812945557721e-02 -7.166437068227793361e-02 4.434767578815559941e-01
-1.607605736955070030e-02 -1.228604437255006454e-01 4.920233119741768135e-01
-6.509312290517672850e-02 -1.127120548768180963e-01 4.788067356462957225e-01
-4.403729215820407356e-02 -8.275576746073957934e-02 4.496663929574855056e-01
-9.009141494371437908e-02 -9.031045332640247336e-02 4.483174243684135973e-01
-1.088992824037224860e-01 -1.168253114585307562e-01 4.676631818799462659e-01
-9.676173171247735849e-02 -1.195599667561947771e-01 4.860103945637482270e-01
-2.717666282651666140e-02 -1.237166232884091832e-01 5.081062358346715158e-01
-4.989110966282772619e-02 -1.040224032444763830e-01 4.669071973648647456e-01
-2.506678718199195632e-02 -1.089300966372646756e-01 5.568782658371091987e-01
-1.051578547094347560e-01 -1.221103707071323624e-01 4.727349112614807058e-01
-7.352083785304691643e-02 -9.531867714779715395e-02 4.536777741066901348e-01
-8.404272384607595903e-02 -1.195293755600352059e-01 4.991456846450904594e-01
-1.027449116008245372e-01 -9.911404603780307743e-02 4.529945264598349564e-01
-9.778067476762576649e-02 -1.192455320544746344e-01 4.907776665700356866e-01
-8.330087570351329962e-02 -1.193060369656397668e-01 4.925618137806653807e-01
-6.577710015795434906e-02 -5.826156758248932782e-02 4.390711062070847270e-01
-1.057605450001715131e-01 -1.021118052705142082e-01 4.549275022927737888e-01
-2.246940023505457351e-02 -1.248201559596544136e-01 5.050867591405049373e-01
-9.980427883873073391e-02 -1.181793261773070314e-01 4.648303578209688758e-01
-7.365682213817778545e-02 -5.807638621912083327e-02 4.393279410864558976e-01
-1.865816684133434281e-02 -1.205253284705460337e-01 5.475197460631416879e-01
-2.375051676164834091e-02 -1.246960261934619979e-01 5.079898510926192934e-01
-4.890393741884526552e-02 -1.002159145377384680e-01 4.624023032626806695e-01
-2.716595781263312498e-02 -1.223253145970951555e-01 5.383544343210445726e-01
-1.002280458331976237e-01 -1.094325375274167317e-01 4.560846015459213421e-01
-4.816018040126444216e-02 -1.096282435410538547e-01 4.751747885691166018e-01
-5.976913699364166943e-02 -1.170079229037455926e-01 4.930200189501245944e-01
-2.501010088286008404e-02 -1.064454779421790814e-01 5.577879768274605077e-01
-7.127277202027833269e-02 -1.048451880905970912e-01 4.634959415475962130e-01
-4.950999773319877950e-02 -9.246071463438275406e-02 4.553284936579620190e-01
-6.420761244598585660e-02 -6.688162167642090761e-02 4.409252528544461702e-01
-7.332927762122376514e-02 -1.102958689909193796e-01 4.712519931058813394e-01
-1.046149367287427245e-01 -1.120769550554521210e-01 4.582183708474505401e-01
-2.947464351938312160e-02 -1.166496228778889643e-01 4.857054159610540434e-01
-7.080474767440256278e-02 -5.301568458450701959e-02 4.409605251343651222e-01
-1.687152694270228556e-02 -1.179919629963367550e-01 5.525589542895767980e-01
-7.281463524730423520e-02 -6.160635329341516281e-02 4.383712027941893963e-01
-9.958725693046355243e-02 -1.134435030340563838e-01 5.061877166224191260e-01
-9.812680012578378283e-03 -1.264335069851940940e-01 5.004846475259715488e-01
-4.584220306177828885e-02 -1.194150602077495155e-01 5.319857954195932326e-01
-5.928669206227942662e-02 -1.178890722923894852e-01 5.224212938959862385e-01
-8.023360941203745364e-03 -1.284419389721151161e-01 5.107849231387021627e-01
-2.482613712980485249e-02 -1.248958241889982779e-01 5.166952485167630726e-01
-5.448213645594032761e-02 -7.936048262017084132e-02 4.468672105633492153e-01
-6.233457903443766907e-02 -1.098903377465165337e-01 4.738428182849129811e-01
-1.203045406895772440e-02 -1.272651324678662210e-01 5.064483040829707017e-01
-4.368367902089419219e-02 -1.034510930430930509e-01 4.666049414287428698e-01
-2.443266211199185758e-02 -1.025966619250246459e-01 5.589845200568074324e-01
-7.665673220506459551e-02 -1.177561177902509693e-01 5.146454911695258483e-01
-4.126070764184865819e-02 -8.820556643602260605e-02 4.532147898180573509e-01
-7.984613509444157819e-02 -1.173127408984766529e-01 4.850738706772678710e-01
-5.383083086652442478e-02 -1.044055817390531077e-01 4.667916290612884045e-01
-4.710411274287638894e-02 -1.206157191589147804e-01 5.170515995085839256e-01
-5.587835797213432792e-02 -1.196116159678895785e-01 5.077299132067626397e-01
-1.858249514754846052e-02 -1.265881287610951811e-01 5.190529443445308644e-01
-1.198187100951033784e-01 -1.092298813287752024e-01 4.829200252432048757e-01
-9.073404021078673720e-02 -1.140250587148286532e-01 5.110525765506159779e-01
-3.840558350645467689e-02 -1.123363019747145586e-01 4.796115730131458865e-01
-3.984790020007976385e-02 -7.996354694531450369e-02 4.482693682314553008e-01
-1.064554081601579716e-01 -1.202390431472224880e-01 4.801883165260900643e-01
-9.538051034981598342e-02 -9.114702306116358177e-02 4.486005199219535444e-01
-5.918650282537314677e-02 -1.144664055091466903e-01 5.277970505418992930e-01
-4.865637562542262512e-02 -1.189920418563624877e-01 4.997156493100829988e-01
-2.450420008102457622e-02 -1.063357675606848851e-01 4.657969040283806428e-01
-9.414172177550683696e-02 -1.107435001952598863e-01 4.605355674037610592e-01
-7.773236677303320408e-02 -1.156702636039667748e-01 4.816148675736411922e-01
-9.536769278084200607e-02 -1.095895964457085231e-01 4.589994370841465887e-01
-6.377552765216724928e-02 -1.035258199543579866e-01 4.629377662285137918e-01
-7.163497037737834305e-02 -8.960395901834729282e-02 4.490120907077912449e-01
-4.571108104218649798e-02 -1.191521934355379009e-01 5.322475858292635698e-01
-3.957912995446269400e-02 -1.210935787477245146e-01 5.300669045860032513e-01
-2.944469348873875181e-02 -1.237764876297056810e-01 5.192806909013277794e-01
-1.445346300208534898e-02 -1.221583957549344374e-01 4.892831459576401087e-01
-1.211849684827246004e-01 -1.044851276455339983e-01 4.790299521410233963e-01
-1.998043375031585342e-02 -1.220883940347713137e-01 5.437418724553645388e-01
-8.151133216773059909e-02 -1.147976426221527790e-01 4.758422852647497536e-01
-1.097197811298381703e-01 -1.190803145467608515e-01 4.716120617300699758e-01
-1.199318598353709825e-01 -1.076515856327863868e-01 4.781205483757174357e-01
-2.351633039730039246e-02 -1.083001530527792911e-01 4.679444802177934459e-01
-1.067772911830831423e-01 -1.196516135768066619e-01 4.845516435871171090e-01
-3.025030539230585264e-02 -1.156484634734550876e-01 4.842058324351978249e-01
-2.113214625303885819e-02 -1.254290553746685577e-01 5.090782940834207571e-01
-8.323055848373429877e-02 -1.093703037234556585e-01 4.653205163438314251e-01
-7.552759388010221731e-02 -8.662538060537738893e-02 4.467141074924910193e-01
-8.329115866739845997e-02 -9.398398389152028132e-02 4.512469279435492586e-01
-7.071205749420771125e-02 -1.158286580903147983e-01 4.842456855865562293e-01
-5.550934976741307703e-02 -1.197718285515390058e-01 5.180067515807234013e-01
-5.573520684161503702e-02 -1.060327137917252416e-01 5.329981133829394535e-01
-9.708079668890899627e-02 -1.030131922465225836e-01 4.552206884889293814e-01
-8.817576505395560704e-02 -9.398354323531855903e-02 4.504112844253387871e-01
-7.785985548618767904e-02 -1.195094882986756230e-01 4.951581819652498551e-01
-1.287397500587471322e-02 -1.242277904678071448e-01 4.947173937243234954e-01
-6.435230411738310230e-02 -1.195166209243624239e-01 5.077895013117270651e-01
-6.119782340167725931e-02 -1.187829883037282708e-01 5.014110883442132183e-01
-1.197837221718520140e-01 -9.897718493789202376e-02 4.703385617950149866e-01
-1.844632615939153022e-02 -1.238902418022567731e-01 5.374723223520554427e-01
-1.213804617772971522e-01 -1.031993343963634457e-01 4.700887618580839034e-01
-9.976606420956582455e-02 -1.212001614291569468e-01 4.739634755880220429e-01
-9.486209392088998382e-02 -9.818020448560162150e-02 4.522556148954989252e-01
-2.389175680506159388e-02 -1.071124309326134533e-01 4.665172331709985798e-01
-8.206494666215685685e-02 -1.073303661912446139e-01 4.627689821371900325e-01
-3.539429840237743458e-02 -1.223803740176568622e-01 5.253236454994184568e-01
-8.203961487973582267e-02 -6.409301091538026351e-02 4.400999806853143070e-01
-7.834940002543744342e-02 -9.097182418114878322e-02 4.496579625447722495e-01
-5.882141880136813883e-02 -6.432806489240620873e-02 4.412087432493140837e-01
-2.051104223710966193e-02 -1.230044516635831059e-01 5.411266359330920706e-01
-3.805524996509445507e-02 -1.219695757155864063e-01 5.183310999993899770e-01
-3.932032797446094463e-02 -1.153102715679626966e-01 4.857513658819761493e-01
-3.805506360515938796e-02 -1.132149347514847249e-01 4.813404363570676359e-01
-5.827058512454101613e-02 -7.879316512755057955e-02 4.458473627242730553e-01
-9.451938083457535333e-02 -8.986226495375747303e-02 4.479463744796886582e-01
-7.843889528889726181e-02 -8.279928823171811558e-02 4.437956172186746651e-01
-9.163659210866556548e-02 -8.943900676333513267e-02 4.478588695007356124e-01
-3.852945160058348500e-02 -8.535240614508050883e-02 4.513394433227916891e-01
-8.643781941368385013e-02 -1.126642798114219912e-01 5.144245946850366513e-01
-1.035974497918647486e-01 -1.177616886563432885e-01 4.956893373843110351e-01
-1.005417966214250253e-01 -8.421791219449226151e-02 4.517598878731416412e-01
-7.556834953509833364e-02 -1.190956944173305332e-01 4.931297733726241472e-01
-6.524418397401235414e-02 -6.189477215741233385e-02 4.397203809263461882e-01
-1.197479861037945570e-01 -1.094922189284629754e-01 4.853651685302587948e-01
-1.196767534162052893e-01 -1.037528170237542180e-01 4.677890256811447767e-01
-5.347526494245972289e-02 -1.197876374865330384e-01 5.074357315253945622e-01
-5.473450993400632431e-02 -1.061583056641056955e-01 4.688600865745698454e-01
-7.060149033929982720e-02 -6.754976441165246037e-02 4.394483912862883757e-01
-7.461070563920353671e-02 -5.707538744521972740e-02 4.398171107460150941e-01
-9.149887505593209958e-02 -7.484765649533808851e-02 4.463781198196262179e-01
-8.481587075953003763e-02 -1.170474054639453337e-01 4.819869610629729517e-01
-7.043363067150323897e-02 -1.017076187110981800e-01 4.596144227174259744e-01
-4.746944838961560109e-02 -1.095363779146719119e-01 4.750720472084108970e-01
-1.089078875349003134e-01 -1.160996285892138269e-01 4.952818368117944403e-01
-8.492379061961166653e-02 -1.171729553167994986e-01 4.788223503391339508e-01
-9.952425245340550120e-02 -1.117281369782762435e-01 4.590266859808190825e-01
-3.540548227636611950e-02 -1.164232329639302704e-01 4.876688072963359377e-01
-5.378743383294138508e-02 -8.243277622181217901e-02 4.481050832221976088e-01
-7.865399379557559689e-02 -6.326693437508117135e-02 4.380517139220181377e-01
-8.400745275421706015e-02 -1.000623969266420527e-01 4.556270127832469097e-01
-8.453108575794004986e-02 -1.115549193541614942e-01 4.671425442263301142e-01
-2.763394032280072285e-02 -1.082996787070269334e-01 4.702456857176535165e-01
-3.973012575786545597e-02 -1.076067910032173641e-01 4.716619166861628631e-01
-4.199033891314263994e-02 -1.097045710941726704e-01 4.749523058101077222e-01
-7.613692715757232332e-02 -1.195968860733444133e-01 5.032768116548010928e-01
-6.223081868351458545e-02 -1.152068334556039519e-01 4.856489530373390151e-01
-3.026522653600794560e-02 -1.213402346680184235e-01 4.986751360453928195e-01
-1.137860621063330191e-01 -1.097592277618246459e-01 4.643465718744874682e-01
-8.003350438826439817e-02 -7.706960350739611165e-02 4.409294831735073306e-01
-5.814236544209044205e-02 -1.011251367159250875e-01 4.612073768780378114e-01
-3.823395148450631914e-02 -1.144249937254015609e-01 4.838661327999095318e-01
-3.387903475192256125e-02 -1.033439922804514632e-01 4.653458014412459876e-01
-2.192024020147884805e-02 -1.216324124617933905e-01 5.438981137029246238e-01
-7.283123744299989377e-02 -7.363823514819303750e-02 4.405637316343080090e-01
-7.023852870822488992e-02 -1.191164385818719723e-01 4.986299101004491030e-01
-1.120332596282712784e-01 -1.173968692666875757e-01 4.719403033326657337e-01
-1.872965673490840574e-02 -1.225048530517082873e-01 5.433230114871279159e-01
-4.882454119949848625e-02 -8.947477801141758003e-02 4.531885218954445071e-01
-9.205098827907595704e-02 -1.151889935565800910e-01 5.097349242213947695e-01
-5.557233190584047466e-02 -1.127606238306163300e-01 5.305920528283695203e-01
-1.068008751872973408e-02 -1.210934317592302217e-01 5.446074381440920709e-01
-1.040950753803824985e-01 -1.154241655018972829e-01 4.624370668774689941e-01
-7.939204753295565908e-02 -8.754138711007730667e-02 4.471505386665591275e-01
-3.649386082780146229e-02 -7.812965734477812785e-02 4.467406901975072286e-01
-4.534743280465744486e-02 -1.139073530901965059e-01 4.827865073236304871e-01
-2.196105331716741507e-02 -9.870834286057504625e-02 5.611699847279836284e-01
-9.760845574974651162e-02 -1.190111094237996797e-01 4.942964290195598354e-01
-3.991182857365972725e-02 -1.195680024869107544e-01 4.986216057562980475e-01
-1.154501110521942570e-01 -1.102427157996210966e-01 4.664206960968886873e-01
-1.009563746055022471e-01 -8.375413162218849072e-02 4.526967264367860455e-01
-8.290777167637219947e-02 -1.129334973776636580e-01 5.168841266058125106e-01
-7.926704002258382065e-02 -1.092184802023143664e-01 4.671299622105475891e-01
-9.716378400114324132e-02 -1.201570248659337287e-01 4.816745700674658903e-01
-6.100497101414152634e-02 -6.629484940856078534e-02 4.414467300917587211e-01
-6.523269575073739612e-02 -5.935129210437797148e-02 4.393508816567722186e-01
-2.508325770434197480e-02 -9.819471754516019557e-02 4.572069760114849668e-01
-5.820190642151961552e-02 -1.195207990480137289e-01 5.145413809976092656e-01
-4.303850278216962005e-02 -1.055375219754745020e-01 4.689372306164301674e-01
-1.876076301160823495e-02 -1.204764002652171234e-01 4.869854657970414391e-01
-7.010803128239459503e-02 -9.308978948203333603e-02 4.519437594104502853e-01
-2.128919050237420077e-02 -1.215223657066253765e-01 4.917589726097023051e-01
-5.238393009524193455e-02 -1.187521890804513480e-01 4.998553878218058855e-01
-1.007039466053294557e-01 -1.038555983207849476e-01 4.546607333752230029e-01
-2.426962646302232435e-02 -1.212024141030254021e-01 4.933156204647752840e-01
-6.402034248757940138e-02 -1.142946836207766326e-01 5.250626474466036919e-01
-7.167555796434814386e-02 -1.020308512633111842e-01 4.598639409751418827e-01
-5.749916378573414338e-02 -9.811126166211939226e-02 4.581688761333611581e-01
-7.028952626701721884e-02 -1.184911728000715148e-01 4.941383690850832955e-01
-3.561144507607803128e-02 -1.124361700246898493e-01 4.796732646031972580e-01
-4.713266766301523608e-02 -1.141751175995388834e-01 4.834028402195048035e-01
-9.118274129648187842e-02 -1.145502905112193298e-01 4.655669021337289215e-01
-1.025269661878514260e-01 -1.183071644400743444e-01 4.953071933212012667e-01
-1.102768748556236245e-01 -1.004654078870595157e-01 4.556514105421834437e-01
-6.705555070248839233e-02 -1.071895245803698715e-01 4.674247599342003512e-01
-6.208069360143538690e-02 -1.190351607086133356e-01 5.121321840983911189e-01
-1.887170818455935137e-02 -1.228616846716640565e-01 4.940744195424723317e-01
-3.725790070619686839e-02 -9.146380602691528416e-02 4.558748173781002055e-01
-5.650960369758333685e-02 -7.058660829220546329e-02 4.435258451564133009e-01
-8.587676533111386623e-02 -1.194906698144750090e-01 4.919088513607292601e-01
-4.648922988066951645e-02 -1.122682451422978012e-01 4.794962772600562806e-01
-7.618026379194801391e-03 -1.288302171197297508e-01 5.152692025646949947e-01
-7.918896334966275818e-02 -1.190843369837609050e-01 5.091524751310856356e-01
-7.624709330063081381e-02 -7.393947478822125718e-02 4.401837259320383056e-01
-5.724071350845254258e-02 -1.193758751423754511e-01 5.183693140177468850e-01
-7.409857237490577453e-02 -5.750269451756796768e-02 4.396000157350127835e-01
-7.274997054072240843e-02 -1.193792274920322388e-01 4.976072071992885260e-01
-4.626215046611087400e-02 -1.092296272032886179e-01 4.746725720400770121e-01
-8.866122935727309418e-02 -8.298129358545684731e-02 4.448100189935990656e-01
-6.461125640000880965e-02 -1.159939824278617415e-01 4.876277184326865410e-01
-9.672612507153895839e-03 -1.265790701506797900e-01 5.010370412481786051e-01
-8.844780773860713707e-02 -1.178006560615390275e-01 4.799432068993891853e-01
-2.409585021325303875e-02 -9.752308866161227274e-02 5.578619417828718507e-01
-5.691281971213033725e-02 -5.644385722118470256e-02 4.400541646152096309e-01
-5.505187920065478246e-02 -7.305253498772351639e-02 4.445232633355578611e-01
-5.746153986561949173e-02 -9.462321051452544929e-02 4.553263544662336515e-01
-2.576606120084719634e-02 -9.904582751689874898e-02 4.581852656653127021e-01
-7.535068644272055471e-02 -1.081352676691145764e-01 4.667484780357771812e-01
-3.815748482881266973e-02 -1.124753486266485830e-01 4.798741749893813413e-01
-3.090631595680266158e-02 -1.172120869313060670e-01 5.456565666975162765e-01
-5.165289092859028791e-02 -9.543220514601791216e-02 4.574107089481271871e-01
-7.299498577073024186e-02 -9.248232482648544028e-02 4.513600869967421270e-01
-1.128976697909951782e-01 -1.121842527181746013e-01 4.657747895058027554e-01
