-5.252043593336963578e-02 -1.109675388063129653e-01 4.768694276535636600e-01
-6.813089125497479026e-02 -8.192200380232725343e-02 4.449006318796701609e-01
-4.045810783586853421e-02 -1.123352422689589125e-01 5.395062669757275664e-01
-1.193351245796698962e-01 -1.048906673801368178e-01 4.681333354554091941e-01
-9.681199072371429737e-02 -9.772406689409082747e-02 4.523496126996568445e-01
-2.760305738137751666e-02 -1.100003415654460526e-01 4.727810505676787733e-01
-8.603130881751287068e-03 -1.225118770957593223e-01 5.381209199823615563e-01
-5.523662206645276601e-02 -1.087366758963852625e-01 4.732282950840761560e-01
-5.956106343669616277e-02 -1.193908269162216595e-01 5.114807102655263282e-01
-3.755793316464222514e-02 -1.207681826372125761e-01 5.327731290967998579e-01
-1.987278144866757440e-02 -1.224978929688534390e-01 4.938279415801285488e-01
-4.379935781483942220e-02 -1.043592826102919535e-01 4.677092864161859209e-01
-1.035746275137656852e-01 -9.617072756769859398e-02 4.522789842499720936e-01
-7.446544130361991420e-02 -7.769833499387669706e-02 4.416896387156611925e-01
-1.936249158169253692e-02 -1.171962527546198396e-01 5.535421887622590242e-01
-5.835249940552883485e-02 -1.131788396251923456e-01 4.815228680468229827e-01
-8.342822101522831546e-02 -1.108963687777898416e-01 4.674028467038436330e-01
-1.137210528881864025e-01 -9.683926840331137653e-02 4.591391626848861374e-01
-1.863811516289901743e-02 -1.260397718537628053e-01 5.086962603489335599e-01
-6.233654161926357323e-02 -1.103629337709124414e-01 4.751784398312001167e-01
-6.356230695302338141e-02 -9.939481983568036749e-02 4.586787971798376162e-01
-6.113633026552392491e-02 -8.514778983921379718e-02 4.481817426863730636e-01
-8.743266494014778623e-02 -9.739101983174537625e-02 4.528809641994291924e-01
-3.262973431326839785e-02 -1.225027104434947417e-01 5.100067045497947982e-01
-2.331223104739381380e-02 -1.247272002738076258e-01 5.305384445762258983e-01
-2.695901442973493850e-02 -1.157038814600556131e-01 4.816684244957870620e-01
-1.073091426639349449e-01 -1.207268981941403141e-01 4.751322173723697140e-01
-2.405131286089756681e-02 -1.051248190106908731e-01 5.594209408573144193e-01
-9.052354943342741378e-02 -1.125933987831054806e-01 4.642008469477228449e-01
-2.141867285512930388e-02 -1.094444381331994426e-01 4.686188926524784693e-01
-8.591804070354452927e-02 -1.090500265296656807e-01 4.632709022391633957e-01
-3.876610302309520945e-02 -1.176543672210308838e-01 5.377177589464816609e-01
-2.183098485765164187e-02 -1.222906201727349679e-01 4.947615710814533552e-01
-5.614065148283019918e-02 -1.184290767157659408e-01 4.993392150575066690e-01
-3.247673453061214466e-02 -1.104850214062703118e-01 5.467922470564569037e-01
-2.828563511227748933e-02 -1.148767595516070328e-01 4.813266034134111027e-01
-1.115695742767713883e-01 -1.174119241492806720e-01 4.713210322655530526e-01
-4.255242063261229640e-02 -1.212590352621586293e-01 5.224601183337213017e-01
-6.563128294744743907e-02 -1.058238675667268203e-01 4.656759117660543845e-01
-1.782617662160553701e-02 -1.196445378042545471e-01 4.849161765448089523e-01
-2.993999382048103536e-02 -1.109179765971054082e-01 4.752342061896344672e-01
-5.813639399384959439e-02 -1.187766220491461994e-01 5.201275503768747477e-01
-1.089411252955286014e-01 -1.203631306515721422e-01 4.757301480343558708e-01
-1.053961319241112082e-01 -1.196848185895703215e-01 4.852780958067884343e-01
-6.838481741534560565e-02 -8.914237120831357275e-02 4.492189910722078627e-01
-7.137733038656338125e-02 -1.031720224232498401e-01 4.614841124851586929e-01
-7.484378343672584699e-02 -1.191662721789522872e-01 5.096455765026811635e-01
-9.674535540427461888e-02 -1.186178474160554108e-01 4.693417490413439030e-01
-5.934329108942668074e-02 -9.983823311480705121e-02 4.597148061535148433e-01
-1.700160359138823754e-02 -1.182037492307744658e-01 5.522485962282325245e-01
-5.368172043931086074e-02 -1.187423473545781705e-01 5.225422833563603264e-01
-5.796160445007954992e-02 -1.151722720503758068e-01 4.868577716070455752e-01
-8.053505160847855560e-02 -1.139430914254384863e-01 4.744530673209193528e-01
-7.731215483726325277e-02 -1.195218037603799494e-01 5.038198314433581793e-01
-3.424917534242030021e-02 -1.013565362040878687e-01 4.634025126130831840e-01
-1.002184923194701510e-01 -1.153223251477767802e-01 5.033466862886670778e-01
-6.855753019102316104e-02 -1.177886846157244760e-01 4.914772918412735891e-01
-8.631705488122344561e-02 -1.191370584897571416e-01 5.010566744013420504e-01
-6.240938094899718680e-02 -1.158915017569045885e-01 4.882436159603606995e-01
-5.253375205976600765e-02 -1.145519378947437023e-01 5.313356568596298013e-01
-7.297313771827797224e-02 -1.112327996332017621e-01 4.735314177512913170e-01
-5.443356288370437834e-02 -1.146349408767483036e-01 5.301907398429004381e-01
-2.299821060788608679e-02 -1.193770516379555474e-01 4.872685539293862278e-01
-9.763550959398993589e-02 -1.208054012859032383e-01 4.744724037155371166e-01
-7.501498043463773746e-02 -9.163098658025987941e-02 4.507607148821721754e-01
-6.436301212153887341e-02 -1.042409784944983847e-01 4.637907810226965521e-01
-2.132930029215121190e-02 -1.238483511005133153e-01 5.369913276351210296e-01
-3.388535154156964435e-02 -1.196659913315936685e-01 5.395860579105525856e-01
-7.008131103911698079e-02 -8.185442589116920242e-02 4.444003577610639022e-01
-1.329180067915955790e-02 -1.276047914851168308e-01 5.132949529450718806e-01
-8.055497022335388058e-02 -6.329402443658319055e-02 4.393233292600318696e-01
-2.062246914201681589e-02 -1.239857198615788442e-01 4.997600744387893923e-01
-8.746280764037318856e-02 -9.908546623996275504e-02 4.540371861142077359e-01
-2.083365024227026505e-02 -1.237489932086312111e-01 5.378297984318547442e-01
-7.356449875342344069e-02 -1.120126865905548552e-01 5.229204939017257914e-01
-6.887182988544020279e-02 -9.864948116182095661e-02 4.569151601790697459e-01
-5.795691708188118602e-02 -1.022632554818081047e-01 4.631563701568545133e-01
-3.323238953354452213e-02 -1.185338227876050893e-01 4.915189667337422352e-01
-9.653301748203373112e-02 -1.157077185649534184e-01 4.627556088762156961e-01
-7.426770451316704047e-02 -1.141339469424858810e-01 5.212037646242092537e-01
-3.274551370650965326e-02 -1.210032530760453418e-01 5.371194692714154062e-01
-5.386446758610311664e-02 -6.264722078484795398e-02 4.415153765227827209e-01
-1.237011162646052369e-02 -1.279568896847939619e-01 5.174115586505949604e-01
-3.965682588307365558e-02 -9.367891959378925326e-02 4.576750475001389873e-01
-2.548571256828841350e-02 -1.009202097783608726e-01 5.565235278434178534e-01
-8.568338902754960018e-02 -9.206955640488984072e-02 4.497300217974604108e-01
-7.719098929001799725e-02 -1.178619659146141335e-01 5.142993310987007405e-01
-1.101660057729305781e-01 -1.183758606082514486e-01 4.861737856435289218e-01
-9.966762014109886714e-02 -1.189175552434634936e-01 4.938777331324755715e-01
-2.340312064133218128e-02 -1.140868417932368317e-01 5.549424848713996328e-01
-1.058511662368032125e-01 -1.122904277903406939e-01 5.003883983271762981e-01
-1.171426481061156877e-01 -1.118128319746830718e-01 4.904720907536265773e-01
-5.768278686667147742e-02 -1.111870504654139391e-01 5.302471463068971769e-01
-7.971597981086880891e-02 -1.195454653284078045e-01 5.025138997764566628e-01
-6.729376662716338164e-02 -1.183058532063058638e-01 5.166916413197564228e-01
-9.407320613674979848e-02 -8.384014623644399367e-02 4.464192858269205311e-01
-9.063016553291770860e-02 -8.803426124225433025e-02 4.475279208708787815e-01
-1.589935208192494800e-02 -1.212973185723550951e-01 4.878526401115561018e-01
-9.300486002507403482e-02 -1.192391150802659672e-01 4.777357468603996571e-01
-4.083205019453389761e-02 -1.191343849258894999e-01 5.350902008765762163e-01
-7.234115312094083206e-02 -1.192853426584815774e-01 5.080572619898383602e-01
-4.133570927086006874e-02 -1.086641150414142387e-01 4.732343751432018797e-01
-5.113324964041925103e-02 -1.092311287094342720e-01 5.352570345016061104e-01
-8.723534649837789978e-02 -1.109479096606278553e-01 5.150658145146513878e-01
-6.800556058568550666e-02 -1.149129010943706203e-01 4.837845144862149005e-01
-5.185990472101813936e-02 -1.128263909220846989e-01 4.809698796903238427e-01
-4.502451864563698086e-02 -7.266284612565344914e-02 4.451130312350074503e-01
-9.252061365814562288e-02 -1.194359147999940890e-01 4.910350828887516950e-01
-9.386605519990133539e-02 -1.172613570093237884e-01 5.061762412752385254e-01
-2.990388051503514374e-02 -1.036724263191092787e-01 5.497200766999051913e-01
-1.140480604488865457e-01 -1.114952950799388415e-01 4.665979277436083095e-01
-1.177051077431848398e-02 -1.280604466113261786e-01 5.150854009408736278e-01
-3.353708131631225053e-02 -1.222807043089618184e-01 5.300222004360319872e-01
-7.845499097607966377e-02 -9.731710064871618160e-02 4.546997987493828774e-01
-4.558020342702318733e-02 -1.084229677113627138e-01 4.734265708659599059e-01
-5.142189399587778625e-02 -8.443761283149023300e-02 4.495143559771382913e-01
-1.037347089429164759e-01 -9.398916166480705825e-02 4.514084591031675697e-01
-9.355869655057579004e-02 -1.196852532268212754e-01 4.865003126057068084e-01
-2.728578041091474921e-02 -1.152622804866372808e-01 4.811776360238320671e-01
-2.212520024120537276e-02 -1.245420288160511840e-01 5.326245388413511916e-01
-1.028607902443961358e-01 -1.187848173782963673e-01 4.921575726745121560e-01
-3.221387208685223130e-02 -1.135751938861677829e-01 4.809447843018956337e-01
-6.148414067627366170e-02 -6.750447710160846493e-02 4.418455059885317282e-01
-4.942650461540672863e-02 -1.152542423927640780e-01 4.862435561661229144e-01
-5.064974612133522208e-02 -1.189594105243321764e-01 5.007408207908742304e-01
-8.407363162351350061e-02 -6.513147846408635921e-02 4.410835415434623541e-01
-9.085052208351390712e-02 -1.162126876812919624e-01 4.703407723710857358e-01
-6.076185494985832103e-02 -1.163677877941031863e-01 4.909044277643345167e-01
-2.081342677669137040e-02 -1.126676651384338895e-01 5.577417178452844793e-01
-5.007890204625294051e-02 -6.341040795810864994e-02 4.420527395657327108e-01
-7.569169491437707786e-02 -9.106630275125053575e-02 4.502710638587328895e-01
-6.054307786030563993e-02 -1.191978555970511361e-01 5.134284822930316183e-01
-1.923814978641609150e-02 -1.241646550371960922e-01 4.989921341781434205e-01
-8.822600409056088888e-02 -1.193868157572659100e-01 4.872412466985519552e-01
-2.207348523325832618e-02 -1.134457632255272269e-01 4.747800867454238793e-01
-4.869408209666187953e-02 -1.149135292737255981e-01 4.852287369513514359e-01
-9.183387801794816452e-02 -9.318456982225478691e-02 4.497848305073732789e-01
-9.041506577599409122e-02 -1.171727644096122595e-01 4.730863185458359932e-01
-1.908875565901934496e-02 -1.125008365454847475e-01 5.586620143685603335e-01
-9.537072560663999166e-02 -1.153835016583851791e-01 5.080957825966897490e-01
-6.009995456434592126e-02 -1.071923173701537085e-01 4.689396545166771846e-01
-5.792490356998066664e-02 -1.194993264073365563e-01 5.160022550726340862e-01
-4.444876715506142217e-02 -1.060878468357391163e-01 4.698232634656813733e-01
-9.664835070556635280e-03 -1.282703447966761501e-01 5.237444795937596931e-01
-2.855572846307251680e-02 -1.092830142790455761e-01 5.523791737078282971e-01
-6.442100060246210014e-02 -1.182135292888253086e-01 5.183573586615214390e-01
-1.004589314880925122e-01 -1.185234237360199699e-01 4.656110371001567771e-01
-3.063319324490722251e-02 -1.228010947926991142e-01 5.090694603003859120e-01
-3.564234034696849712e-02 -1.215510168065576657e-01 5.315203474998876354e-01
-4.814247405469480184e-02 -1.184409897915321280e-01 5.311397600200914448e-01
-3.762190970863072553e-02 -1.160869065976345427e-01 5.402715871888708055e-01
-1.002073128454025741e-01 -1.189913025044819217e-01 4.928509462883077230e-01
-3.055136806530760543e-02 -9.778089326028628625e-02 4.590775221301625075e-01
-3.108269542306602712e-02 -1.195871167066534929e-01 4.933678231751240650e-01
-2.741555024651294581e-02 -1.228621988505080309e-01 5.352199415191887244e-01
-9.580586558658521490e-02 -1.193477761330965087e-01 4.906274734935557325e-01
-1.446878455305192560e-02 -1.272231874000791518e-01 5.111106355676050539e-01
-7.376756443498019844e-02 -6.914202916917792929e-02 4.392112104410230700e-01
-3.674066012229358635e-02 -1.212482381820777638e-01 5.061263525949292186e-01
-8.058090226096602249e-02 -1.179778432573637542e-01 5.132398570971044016e-01
-2.756033754802850178e-02 -1.207344578323194667e-01 5.423119598374550598e-01
-5.121182677885642576e-02 -1.202678458668453854e-01 5.133003342273083636e-01
-1.876360876071911377e-02 -1.252668646202375335e-01 5.033666429291886457e-01
-6.652210773921404807e-02 -6.748454392324036710e-02 4.404856225021179794e-01
-1.012720489592474071e-01 -1.184572436003068080e-01 4.657039950093968539e-01
-6.055675143361397700e-02 -1.072409132799156117e-01 4.688751415421117397e-01
-7.825696067401194389e-02 -9.662195665849553083e-02 4.542226773918986993e-01
-1.916861995370907137e-02 -1.012502992147458758e-01 5.623450000422396400e-01
-5.581292366672129662e-02 -1.187359382200210145e-01 5.213312190273304836e-01
-4.835578673704377800e-02 -1.141522295566389095e-01 5.337913328070656993e-01
-1.070538827264191917e-01 -9.161680415130372956e-02 4.547323147844764546e-01
-5.853537048994461589e-02 -8.539268539013136761e-02 4.488820246105886258e-01
-9.757097591286856275e-02 -1.160782534173010888e-01 4.626415760119227949e-01
-2.967746113087889673e-02 -1.208214006353674347e-01 4.961551065871817601e-01
-1.855445692461478099e-02 -1.207126700611930309e-01 4.875772858172160995e-01
-9.049603407056618087e-02 -1.181782011544375427e-01 4.789950539189931633e-01
-7.577487750805041167e-02 -9.770282041026978614e-02 4.554014782412547091e-01
-2.827202210256885700e-02 -1.219476166579133297e-01 4.992705543531442691e-01
-4.248364232011925257e-02 -1.113837712470873292e-01 4.781935264687142140e-01
-9.223517185212777580e-02 -1.125645096787166455e-01 4.630742180656871043e-01
-1.376445957174756395e-02 -1.258511327457217110e-01 5.305592831819647692e-01
-7.022469232677952533e-02 -1.010734190654990206e-01 4.590313193779654299e-01
-4.918749477951007976e-02 -1.195097525883348916e-01 5.035200045245185052e-01
-2.039406500217773310e-02 -1.129465132822360524e-01 4.731674827065640021e-01
-6.469019387159305468e-02 -7.810264706522596079e-02 4.440954486936369849e-01
-1.019892435840193817e-01 -1.054702094215481112e-01 4.561871816950921477e-01
-1.190792382894278328e-01 -1.094892160646924184e-01 4.733338267688392276e-01
-3.431609186748355717e-02 -1.147887426822496171e-01 5.441289516030024531e-01
-4.664407509655774109e-02 -1.201375057603701751e-01 5.284331203893092299e-01
-1.010055228589901433e-01 -1.118205180654962411e-01 4.587025900994882166e-01
-4.794070206568654818e-02 -9.269494764927480035e-02 4.560527997125745636e-01
-9.196068869217563502e-02 -1.137447949949806497e-01 4.642498670120692172e-01
-8.339378786007739519e-02 -1.000953614515761730e-01 4.559874886227240909e-01
-9.557545436368404534e-02 -9.962334059654512353e-02 4.534669273027100989e-01
-8.316497986505641538e-02 -1.193667991799427924e-01 5.034971635036207260e-01
-9.857251493983043567e-02 -1.188360990042410942e-01 4.949435065762591845e-01
-9.005891121547962563e-02 -1.192291177815418268e-01 4.833745894703767587e-01
-6.049961404627936246e-02 -1.098228154145696606e-01 5.289927940041168064e-01
-1.140351496497606365e-01 -1.025447786065953742e-01 4.593696922489957646e-01
-2.060713480354280785e-02 -1.254319068879442556e-01 5.070273784660728200e-01
-3.620593672029098764e-02 -1.223008898302281461e-01 5.189415739270244465e-01
-7.466938775448576926e-02 -1.067524254268075595e-01 4.651229244232821802e-01
-2.957586679526268136e-02 -1.020178632120985612e-01 4.625773749192004236e-01
-3.253685006357771858e-02 -1.196911982488834264e-01 4.946451743610384422e-01
-2.743518707252729991e-02 -1.240164866412683392e-01 5.137034160175022457e-01
-7.151845495133532515e-02 -1.137658834279526160e-01 5.220127502328322233e-01
-5.975947481582175036e-02 -1.193985830942910914e-01 5.100468617636345625e-01
-6.520552137402953197e-02 -8.852137958083741709e-02 4.493484490023522682e-01
-1.926751431157676733e-02 -1.155460175524843369e-01 4.769402682249644920e-01
-9.675162798357872518e-02 -1.024030255645309723e-01 4.551497613922257934e-01
-4.305056865645368741e-02 -1.104128722250587447e-01 4.764935179865011361e-01
-4.133309346325399897e-02 -1.209329937297720092e-01 5.079773043792079612e-01
-7.696352163645785172e-02 -8.085165244538200513e-02 4.427130499664410079e-01
-4.450310836009990778e-02 -8.050539155672989389e-02 4.486402923325507608e-01
-5.315707774724589413e-02 -5.872933471285313872e-02 4.408448797334615366e-01
-3.259264152778747897e-02 -1.196763177393265071e-01 5.405891090067105331e-01
-5.358984787223947110e-02 -5.750890463421123172e-02 4.406185425511215947e-01
-8.650291464081147699e-03 -1.283970186975421923e-01 5.245348202481876498e-01
-4.626437024557897293e-02 -1.198054055383089428e-01 5.038367334032701761e-01
-6.246829089626934617e-02 -1.141296815175890378e-01 5.265008636053667423e-01
-5.840057051386501885e-02 -1.119913962618550862e-01 4.790246628888678582e-01
-1.013069379185379537e-01 -1.009842233848150250e-01 4.539333508550489338e-01
-1.046809947222030607e-01 -9.371540459116027566e-02 4.516960928350966520e-01
-6.067255910976972200e-02 -1.191121105675208014e-01 5.158839551542951929e-01
-3.907845221723078855e-02 -1.120188591408197015e-01 4.791316871980020320e-01
-6.346497957090795061e-02 -1.121848640043940221e-01 4.784227604866161387e-01
-7.821287303807632207e-02 -1.135477899526755596e-01 4.752483723858689224e-01
-5.939510083491183340e-02 -1.143915764605653307e-01 4.841859239490776123e-01
-1.019874025370445247e-01 -1.133278031786258133e-01 4.598497527244344019e-01
-1.491732975276544026e-02 -1.167846776650700580e-01 5.546177154580411717e-01
-6.364997523025227311e-02 -1.135974448972196793e-01 5.261739648802794544e-01
-9.119070401594597808e-02 -9.322443332474143751e-02 4.498495848247723861e-01
-1.208660192668040145e-02 -1.240913913220964976e-01 4.940174091449052174e-01
-1.107378967703112060e-01 -1.003875705752879516e-01 4.560209358873928420e-01
-5.472708559016035978e-02 -7.832585241088085848e-02 4.465536491276342335e-01
-5.937002893848551677e-02 -7.358745803699565102e-02 4.440970300170011265e-01
-1.070633977589573460e-01 -9.085068728319481424e-02 4.549712783898468005e-01
-3.833431192570194851e-02 -1.213738293401476626e-01 5.091571687901090826e-01
-7.160313380609048539e-02 -1.094044217023673604e-01 4.706049471250988714e-01
-9.922815318919353533e-02 -1.211856350761795348e-01 4.736784862697454579e-01
-9.844026926358548368e-02 -1.151963668464004859e-01 5.063199439955209380e-01
-4.307816329405243089e-02 -1.096822569184202484e-01 4.752141216733432594e-01
-1.062742394645252442e-01 -1.128778582456787943e-01 4.613893245646901176e-01
-5.238412050097197153e-02 -1.200991746705303426e-01 5.158764396979933498e-01
-6.474580683753046462e-02 -9.507856093594231617e-02 4.544503854682052091e-01
-4.766089767232496721e-02 -1.146561502281682327e-01 4.846295263769321293e-01
-4.965345695739911691e-02 -8.455785982705689430e-02 4.499374626977966640e-01
-6.783382507255567018e-02 -8.704118782500430695e-02 4.480401674605561380e-01
-1.212845630506226985e-01 -1.044161804600141213e-01 4.788623617880843342e-01
-1.196753262012848346e-01 -1.100678929051724236e-01 4.856832561183512809e-01
-5.570196857032495147e-02 -1.156717381167471775e-01 4.881854819726361150e-01
-1.109112390885097499e-01 -1.121193373908909441e-01 4.976025181501450567e-01
-1.068395087861351983e-01 -1.188404775806224528e-01 4.882222586228397443e-01
-9.442888849925966388e-02 -8.948687492695099610e-02 4.479841649368779821e-01
-1.181592197119555876e-01 -1.126795724612650873e-01 4.885208901919163571e-01
-2.537747277161317427e-02 -1.112777806352544946e-01 4.734514349363594388e-01
-4.477511309759721336e-02 -1.141782670371547237e-01 4.835235731272334303e-01
-5.841043789460414332e-02 -1.080770528035447098e-01 4.709222056129673817e-01
-7.348349600293835326e-02 -5.838187778349550328e-02 4.393182304959165618e-01
-6.225098476419734655e-02 -1.041250134900882501e-01 4.642768133488494597e-01
-2.187039279544819928e-02 -1.248378590783811859e-01 5.313424800009154403e-01
-5.131864151205828978e-02 -1.173367689255196411e-01 4.930443307094608540e-01
-3.494363335549449667e-02 -1.164692382543670301e-01 5.426155746714755868e-01
-9.620061894272521896e-02 -1.185275103113036660e-01 4.699540595173578583e-01
-1.604155900892263037e-02 -1.247305382497650300e-01 5.334881521126261239e-01
-4.714354713567492361e-02 -1.072723006271116691e-01 4.717388930671388980e-01
-6.538079227989559983e-02 -9.809861525444366070e-02 4.570410605437719709e-01
-5.950484187483741361e-02 -1.194465708832960354e-01 5.094547478644064764e-01
-7.837018495595450551e-02 -1.130480035358195634e-01 5.205471660642750908e-01
-7.588621541569243178e-02 -1.189150358883612896e-01 5.110393287315317945e-01
-4.494360695261725297e-02 -9.994142013051970919e-02 4.626651635291038622e-01
-5.635410543553272256e-02 -1.067340576769869598e-01 4.693707697412262680e-01
-1.001835903019244051e-01 -1.156676452805937144e-01 5.028105489383066784e-01
-6.042440108296287526e-02 -1.119880021697393230e-01 4.788099063857316207e-01
-2.498947127318296504e-02 -1.222499074423683968e-01 4.972428764324268724e-01
-1.512473064321156503e-02 -1.264934112536422739e-01 5.270904736506167865e-01
-7.900344049108341815e-02 -7.042039517241893698e-02 4.393496957180296203e-01
-4.868262059982847445e-02 -1.183473026507089187e-01 4.967195201012295502e-01
-4.305757460376116730e-02 -1.191767111889447395e-01 4.983139835372766835e-01
-5.207447014788427891e-02 -7.729529346070135309e-02 4.466170231542283542e-01
-3.748657012785124726e-02 -1.052557213747758874e-01 4.683150796361737478e-01
-7.923375662614370873e-02 -1.140289863324629588e-01 4.760709867884318491e-01
-7.924492931301152510e-02 -9.763613342943749940e-02 4.547902850771524119e-01
-1.310048011333011728e-02 -1.253953668640149788e-01 5.321394555247102032e-01
-6.165220888623695189e-02 -1.070649450335319913e-01 4.682412117650675554e-01
-4.764202811670496807e-02 -1.090337967889046383e-01 4.744350532116441976e-01
-8.265881143437676937e-02 -1.195250531624350854e-01 5.016693215698937447e-01
-9.727178996804516919e-02 -1.206182424457931390e-01 4.791604551403762513e-01
-5.051967892335296889e-02 -7.233366306413652191e-02 4.449005632191661563e-01
-2.319185553585105530e-02 -1.253837281134499437e-01 5.260974156888528208e-01
-4.621426818349561039e-02 -1.204847735603113285e-01 5.268503484858561015e-01
-7.110369059329323116e-02 -5.972219507581448539e-02 4.386664107433187465e-01
-5.850195694138143887e-02 -6.411423274635726088e-02 4.413108414477867059e-01
-7.731451656425845920e-02 -1.145609995584157825e-01 5.195430341417125453e-01
-4.048837891486405105e-02 -8.200973705053309082e-02 4.494251657373976028e-01
-7.338443936250665933e-02 -1.195400819259553604e-01 5.003741050166479187e-01
-3.832564722289293763e-02 -7.883154528923536075e-02 4.476817565646596386e-01
-9.050923833959749476e-02 -1.011685367559017612e-01 4.547652695402859546e-01
-4.967513916824466136e-02 -1.170785489851354361e-01 4.914143524815799413e-01
-4.452369150827960309e-02 -1.093922134458840817e-01 4.749503061731076281e-01
-1.105863292782981039e-01 -9.846677870266698496e-02 4.556559117637560830e-01
-7.160020307131755024e-02 -1.180751851800389829e-01 4.903904273458761232e-01
-8.085427902234312847e-02 -1.109015604074039818e-01 5.203313537745930528e-01
-4.112953630077254702e-02 -1.104871315217010180e-01 4.763850655191895767e-01
-8.152475504678047269e-02 -6.680204239384350540e-02 4.396826314315134265e-01
-1.001094389678402197e-01 -8.334106747878849974e-02 4.520892450590260903e-01
-7.406431290339500484e-02 -1.169273190104882093e-01 5.166650844553002386e-01
-5.671987995544514050e-02 -8.826367628104156426e-02 4.508046357596035558e-01
-6.576048202063741743e-02 -7.116978346147752321e-02 4.416472901370709914e-01
-1.826403370485450359e-02 -1.219828067521539217e-01 5.446837093924798978e-01
-4.488774541517498440e-02 -1.151643314462488799e-01 4.857447614451718687e-01
-1.105212262505096271e-01 -9.626636794865746360e-02 4.553439072781256258e-01
-4.300499829505161770e-02 -7.792742082421133532e-02 4.474658658318281246e-01
-7.090774156072593426e-02 -1.100559405048527756e-01 4.720604845220816581e-01
-8.454882554841258724e-02 -1.136245438770268623e-01 5.153899007391906650e-01
-1.138293506999046162e-01 -1.169069254603589125e-01 4.749289483409429025e-01
-7.091542492480910898e-02 -1.095251611859416746e-01 5.246512033205164016e-01
-6.543239876165642122e-02 -1.113857523151555451e-01 4.764037620635019898e-01
-6.633994465300213639e-02 -6.811760190658358582e-02 4.406640160155744224e-01
-2.690795791061399711e-02 -1.103347721162082490e-01 4.728976479524250598e-01
-6.204060916745752358e-02 -1.075416133531816032e-01 5.289173045153292563e-01
-9.855538375838038267e-02 -1.190845115466941384e-01 4.677249917806084456e-01
-8.283658210018227802e-03 -1.286718612672155815e-01 5.146769950108422975e-01
-4.778715894205256415e-02 -1.048683116231896584e-01 4.682357764974083847e-01
-9.801954136259863337e-02 -1.085407940507042285e-01 4.569607588415010579e-01
-9.565141692959768654e-03 -9.715310619219955091e-02 5.674830382144571139e-01
-5.513658460484323343e-02 -1.162814862228788576e-01 5.281309971202572395e-01
-6.695739263934932795e-02 -7.176260753859677044e-02 4.414249971335045264e-01
-8.556280454902934207e-02 -1.184556225412162211e-01 4.877909461045305539e-01
-3.769946509476825719e-02 -8.155619148417855846e-02 4.489772759665013324e-01
-6.668161845989598047e-02 -1.086566455672006715e-01 4.703459849860417430e-01
-2.101911419618194068e-02 -1.252596167385349735e-01 5.056558150141495789e-01
-6.722000362755163605e-02 -1.077368357072373550e-01 4.684330622721831761e-01
-4.771600820163180573e-02 -7.317087515946511800e-02 4.454447299868760091e-01
-4.526502219853394821e-02 -8.305918804969247837e-02 4.499108663369824068e-01
-4.047525310919536379e-02 -1.105597901528573845e-01 4.764581684092544234e-01
-6.836486796449008085e-02 -1.172824480774500439e-01 4.898748207707414593e-01
-7.987738059185539585e-02 -1.036349428662255434e-01 4.600896863822385718e-01
-1.074750652373120119e-01 -1.073938842290223794e-01 4.592805154580211768e-01
-5.157399116458472738e-02 -1.166415622821142389e-01 4.903764553801208126e-01
-2.458390400840171006e-02 -1.047206134071756445e-01 5.586824274651225331e-01
-8.647384636351183873e-02 -1.094395019457547746e-01 4.633574506913137325e-01
-7.160958176874589187e-02 -1.134871816765351538e-01 4.795315412731467331e-01
-7.149876109443752126e-02 -8.716717786299839343e-02 4.475674037160676799e-01
-7.091758246460472259e-02 -8.752980644125482601e-02 4.479073054741583015e-01
-3.652161130685478013e-02 -1.208534624985845296e-01 5.034604327874413476e-01
-8.164101919271843366e-02 -6.630932408763792751e-02 4.397918033464119913e-01
-3.733744648628462004e-02 -1.086837272627459994e-01 4.729549113578362940e-01
-4.269681103829416069e-02 -1.174906203645771779e-01 5.352121981977158161e-01
-3.831758761172746053e-02 -1.150447504569085122e-01 5.403644405757348501e-01
-6.148330250999495261e-02 -7.093551559682567675e-02 4.428431477097656832e-01
-4.411880370260118367e-02 -1.142547869855373710e-01 5.363855554534665560e-01
-3.181268045096775909e-02 -1.127705755262906062e-01 5.473642642362018806e-01
-8.634475398798818757e-02 -7.557941061133939542e-02 4.421707077220695115e-01
-8.687867650800912278e-02 -1.191710511541779760e-01 4.988066790879118750e-01
-5.898474893772175792e-02 -8.116437508022941727e-02 4.467290605161727823e-01
-1.572928964800138565e-02 -1.143426485233317580e-01 5.573333812709303503e-01
-6.168769915308656981e-02 -1.178190575588670269e-01 4.960051621889074447e-01
-6.528583801344930992e-02 -1.122297301649900492e-01 5.259856016268052992e-01
-1.015779846404426673e-01 -1.108798581379478176e-01 4.573971756360447061e-01
-5.165220459781881546e-02 -1.156890413146040159e-01 4.876540549204873010e-01
-2.934408037644501560e-02 -9.906771682491899433e-02 4.597013638571643690e-01
-1.176638819893486010e-01 -1.152367777119031739e-01 4.815228726317684060e-01
-1.079717720141143422e-01 -1.068661875741970246e-01 4.591109507842642823e-01
-1.063363758329423370e-01 -1.151153757858951604e-01 4.985996534130686109e-01
-6.800840877387488020e-03 -1.288588433548210899e-01 5.155243301289491598e-01
-4.206341872727679260e-02 -1.089076087886384075e-01 5.391911124627929430e-01
-4.453411254376061362e-02 -1.198044079624206032e-01 5.026918037841546782e-01
-6.225712173087639967e-02 -1.031941032991167684e-01 4.631539523828251403e-01
-4.457653683384890653e-02 -1.123061712430972470e-01 4.798309511048086118e-01
-3.182114187956697204e-02 -1.118889057613472460e-01 5.474341928080289632e-01
-3.579759408817431710e-02 -1.216778936808261963e-01 5.073924070055557678e-01
-6.906661114431322801e-02 -1.140511836190192668e-01 4.815384691276706763e-01
-8.625666475793257459e-02 -1.192538867704213829e-01 4.975276066154293853e-01
-8.651378530983362680e-03 -1.220629094232597162e-01 5.387203533602844541e-01
-1.089836727985667303e-01 -1.198415119155226277e-01 4.782280649554348506e-01
-3.852153896654575416e-02 -8.339306391040608724e-02 4.502228761690554304e-01
-5.288235135686431693e-02 -9.272288717341425901e-02 4.548890852054238709e-01
-1.191411714826998008e-01 -1.045109488069723425e-01 4.676367653468284646e-01
-7.422780601307242543e-02 -1.191128936394608151e-01 5.103754466965846337e-01
-1.544065778704734916e-02 -1.196148377717174416e-01 4.840950895794866038e-01
-4.498173746926422550e-02 -1.205268883205367902e-01 5.083889155747483013e-01
-6.575420916134630533e-02 -7.685505262756059386e-02 4.433799597707850371e-01
-2.197385302931145409e-02 -1.048643811841069862e-01 5.607876975752885684e-01
-1.127279093268317156e-01 -1.103545644319908620e-01 4.642089208295736014e-01
-7.883829333643187220e-02 -7.786952141419194173e-02 4.413889038798445297e-01
-3.698022512258308109e-02 -8.661844744627932025e-02 4.522957996521041468e-01
-1.898204471967740448e-02 -1.112914201514795393e-01 5.595571270171952882e-01
-5.367347148535250856e-02 -1.088592115758273415e-01 5.338285855696551785e-01
-4.298012015862488072e-02 -9.380375138723072437e-02 4.575808878555026604e-01
-4.811887833207527387e-02 -1.176489451885675136e-01 4.934613396129028384e-01
-5.216411446693081794e-02 -6.396178534229478296e-02 4.420308660397158085e-01
-3.940191671223228220e-02 -1.109457519576961121e-01 4.770745998876955718e-01
-6.221328278002127149e-02 -1.154838215101165327e-01 4.867695759054411764e-01
-3.919211314047517380e-02 -1.211977518678620802e-01 5.294895811936485286e-01
-6.939476526160555381e-02 -7.385625541778037539e-02 4.415374700550788178e-01
-6.512729106005973878e-02 -1.192784910306380203e-01 5.112217017365363603e-01
-6.512300182351551947e-02 -1.171251460232017316e-01 4.914532607871603953e-01
-6.011464622797664525e-02 -6.255871982310622081e-02 4.408789508684308189e-01
-7.203161515922158753e-02 -1.046655550924744382e-01 4.633056225473687895e-01
-4.472432916230225514e-02 -8.328404230282440701e-02 4.500599078652882112e-01
-2.704009527599808560e-02 -1.122785207965186771e-01 4.759485536233938885e-01
-7.178714390768783926e-02 -9.101704918514080811e-02 4.503355428321682563e-01
-9.238387294696795426e-02 -1.184945119759698712e-01 4.763754947599826983e-01
-8.935021889721550536e-02 -1.193222317332822968e-01 4.950208271762850387e-01
-3.497071276441508780e-02 -8.656183673458622829e-02 4.519314873671296806e-01
-1.833460045402796404e-02 -1.240093384737946669e-01 5.367459751828121961e-01
-9.983382108277880085e-02 -1.045756304121657765e-01 4.553272140966850845e-01
-1.399663261038004529e-02 -1.176398712556266379e-01 5.531237102029352704e-01
-3.020817871150170350e-02 -1.009583289828597241e-01 4.616981745823361405e-01
-4.122064567084973014e-02 -9.326268573339989432e-02 4.572723367806900696e-01
-3.184044297236212490e-02 -9.759213026782616318e-02 4.593695432986225069e-01
-9.203055676667358520e-02 -9.622463454411157857e-02 4.512800251747097202e-01
-4.795396227306604475e-02 -7.383948241012862346e-02 4.456851130622994650e-01
-9.430083262995692106e-02 -1.171600133877161859e-01 5.062892222093231531e-01
-5.273308931683098888e-02 -1.135171900232744280e-01 5.318479744500007600e-01
-8.777518420046601100e-02 -1.125495578467876900e-01 5.136679500053223935e-01
-8.142966595759174031e-02 -9.350669683396402310e-02 4.513610612492793273e-01
-3.285312393029447831e-02 -1.203006814124220336e-01 4.969510465812363442e-01
-7.154117304999980942e-02 -7.653637726745367298e-02 4.418657435133331313e-01
-6.177563349758671135e-02 -1.124557703936741176e-01 4.793407898556072411e-01
-7.177967061744525146e-02 -6.569083042198700650e-02 4.387997467218300862e-01
-7.417171870625259567e-02 -7.117090181788743308e-02 4.397325847411683863e-01
-9.715615094736015922e-02 -1.182231593722776475e-01 4.677186144711302229e-01
-3.125823603991007699e-02 -1.233787784459307035e-01 5.233230068190924955e-01
-8.834780077673837217e-02 -1.157779661419035544e-01 4.718240069415355342e-01
-4.416789337009682792e-02 -1.064570891102391559e-01 4.703260754143920308e-01
-2.453457516857014339e-02 -1.080767070240034183e-01 5.579277284671285697e-01
-1.030503642262814434e-01 -9.170665670698104066e-02 4.508852154426283843e-01
-5.488340743514473485e-02 -1.049690894825247856e-01 4.674744683373159848e-01
-7.558628815239405718e-02 -1.130068156741789315e-01 4.757900397315615315e-01
-4.028678609631018009e-02 -1.081442135333990778e-01 4.725251045454204601e-01
-9.378881405997994969e-02 -1.076392271202863266e-01 4.581093993750561810e-01
-6.898963020372111954e-02 -8.521262046011404689e-02 4.467689898826583406e-01
-9.271492388107407945e-02 -1.083661180468570018e-01 4.590665170220613600e-01
-8.183520696237142622e-02 -1.194677947495903225e-01 4.955525130044579063e-01
-1.965157211838398921e-02 -1.193654816368927007e-01 5.494548418353075725e-01
-9.281712154344656796e-02 -8.741105195386707216e-02 4.471894953322371191e-01
-4.377325022177828290e-02 -1.207364409967225660e-01 5.093311846319830138e-01
-3.094538812496243872e-03 -1.286159771621379067e-01 5.117896605515624975e-01
-1.197738884328079373e-01 -1.093530820474870324e-01 4.853535579311107906e-01
-4.036954775826631647e-02 -8.029197993872611017e-02 4.485154484516279960e-01
-7.091237347254669698e-02 -1.144493458081486115e-01 4.816756616635791688e-01
-2.972951877744302654e-02 -1.151118717100726996e-01 5.489545245893360237e-01
-9.628650822162417022e-02 -9.085750412499173090e-02 4.486920966007444389e-01
-1.060223603025815392e-01 -1.196260258722435799e-01 4.692228374472469099e-01
-6.759708528991435761e-02 -9.395474960607963499e-02 4.530533357602687938e-01
-9.351349005871756326e-02 -9.224271792333091358e-02 4.493012906885188174e-01
-8.560460940103314931e-02 -1.009960624878971369e-01 4.559944805591572559e-01
-1.048163020187982061e-02 -1.260352599967693721e-01 5.303014535350512038e-01
-5.229247116467172773e-02 -1.201228892275254395e-01 5.154006108659752172e-01
-7.377389226906712338e-02 -8.435135060719683997e-02 4.453377639781635478e-01
-3.594527488246845176e-02 -7.743681665748035348e-02 4.463312294812232239e-01
-7.278053731400332960e-02 -1.158099821710864008e-01 5.189444014590528509e-01
-1.940645777667699204e-02 -1.222791472228662024e-01 4.927521418663660113e-01
-6.142120168906813754e-02 -1.149375153717083348e-01 4.852481207292441701e-01
-4.340263109367673705e-02 -8.373452477544635064e-02 4.503470781723069583e-01
-6.447146640592746336e-02 -1.007426244470173843e-01 4.598199217123529747e-01
-1.082371126838744119e-01 -1.208935375526813960e-01 4.721630742792257140e-01
-6.982515837708545836e-02 -5.364758975362243082e-02 4.407544352477935634e-01
-2.802671711455032716e-02 -9.537985342399152300e-02 4.562682607356177700e-01
-3.525773498043539844e-02 -1.222084357185029696e-01 5.135065816606169120e-01
-6.853037825319546750e-02 -1.162317072610723340e-01 4.863980332665900352e-01
-5.295056902619365430e-02 -1.106512085455857164e-01 4.763654440803059553e-01
-8.347759019159130267e-02 -1.195781526661806315e-01 4.993382910921178031e-01
-2.763220170720175062e-02 -1.054784816108669809e-01 5.541223745543224499e-01
-1.466880817066028644e-02 -1.191977982750512394e-01 5.504978473453010501e-01
-7.612889396722435920e-02 -1.187620894583973491e-01 4.915225407038832928e-01
-7.366233471841186764e-02 -1.030528152089419947e-01 4.610709797641190377e-01
-3.601452554945346052e-02 -1.143054373707350496e-01 4.835642044712861742e-01
-7.432908482201339151e-02 -8.251498525289474584e-02 4.440554932561908696e-01
-8.730431556129299164e-02 -1.180863827709643377e-01 4.848463394022450856e-01
-2.192936518984861527e-02 -1.241230712870838720e-01 5.349746762844541648e-01
-1.160024872945906033e-01 -1.151246335207925381e-01 4.890573258434242065e-01
-6.175669546943969579e-02 -1.137597800098860273e-01 5.270143894311047905e-01
-4.102419037973055460e-02 -1.043966362820595573e-01 4.677794143660511383e-01
-9.500976811369307717e-02 -1.181262335234541522e-01 5.026149445007874750e-01
-4.292321821020503303e-02 -1.153391388711976634e-01 4.861178629761666592e-01
-1.043348246027258619e-01 -1.060342639355982414e-01 4.569500678847062680e-01
-3.202421001579468934e-02 -1.062481534260806965e-01 5.478389476860500151e-01
-5.143271943122653539e-02 -9.212484456904639074e-02 4.546948436418517536e-01
-1.175304886613050409e-01 -1.139536971251647463e-01 4.767692208983466684e-01
-1.214962172286277869e-01 -1.039663259118677879e-01 4.732261447892934236e-01
-8.407631628765990794e-02 -1.017424629976431821e-01 4.571493900855823633e-01
-6.347876119056342081e-02 -1.180335021883654467e-01 4.966470855346151181e-01
-6.161287662323126219e-02 -6.077279739306735984e-02 4.403406070453664833e-01
-8.240824402847064800e-02 -1.054929206792017821e-01 4.606387798214863216e-01
-2.227647105062990907e-02 -1.194704886160851409e-01 5.482739063327000117e-01
-1.339663395871234716e-02 -1.275300820761757770e-01 5.224774845002628787e-01
-9.406484829309877393e-02 -1.199787973891560666e-01 4.837857380177055244e-01
-1.086679119885353428e-01 -1.201042737837167140e-01 4.779705801895548500e-01
-1.057020626407908087e-01 -1.027681920306323937e-01 4.555042293410557219e-01
-5.271363105534838944e-02 -1.191039192424305782e-01 5.022762592796753411e-01
-4.420449235116551134e-02 -1.206022349744244049e-01 5.079765153536370814e-01
-2.693113435920410290e-02 -1.046631257440066298e-01 4.648175265689279967e-01
-2.313158389756549832e-02 -1.228698504810443598e-01 4.977225367712900250e-01
-6.188490930375178944e-02 -1.181827057743920634e-01 5.200030976210350264e-01
-2.486947884095042430e-02 -1.023235804461797988e-01 4.610148350928633953e-01
-3.927298243411246614e-02 -9.526850100250100484e-02 4.590434978561608870e-01
-5.479362482698614534e-02 -1.164345873246553781e-01 4.906134061205842389e-01
