-1.208033770264665269e-01 -1.061540164480333365e-01 4.755548208711465885e-01
-5.342023316788256648e-02 -1.048670269231466168e-01 5.348855411507988933e-01
-5.361686197376436952e-02 -1.177559276299339069e-01 4.958974416820161601e-01
-4.326048999514486848e-02 -1.118215899273841962e-01 5.383621176513636586e-01
-9.867743768156649400e-03 -1.270992650873893071e-01 5.042402841394476587e-01
-2.605838694530971875e-02 -1.246847479937552294e-01 5.256742183279805580e-01
-2.803013473964916652e-02 -1.221346907617009564e-01 5.380345718503646291e-01
-7.624600406106701866e-02 -1.058773089647599419e-01 4.637604009600222454e-01
-9.991204939668620749e-03 -1.248569846489790136e-01 5.328103002902014884e-01
-1.199582437014346248e-01 -9.937263430688916821e-02 4.708407191331787089e-01
-5.029945349966200019e-02 -1.106829852481108212e-01 4.770020996707896588e-01
-9.046388288087196805e-02 -1.124165886230160949e-01 5.125837936459032296e-01
-7.863174265634240157e-02 -1.195950719430939752e-01 5.010760858329402767e-01
-4.476655826492795948e-02 -9.150435893975486512e-02 4.558506065364950621e-01
-5.299708534643907815e-02 -9.550962077650221316e-02 4.575324904777995916e-01
-7.257366861126712809e-02 -1.113749130454219222e-01 4.743063700174552921e-01
-3.075489756275634132e-02 -9.321643798264235559e-02 4.558436157211647188e-01
-2.034993371560209902e-02 -1.028465944188304421e-01 5.620677672834117899e-01
-9.700072461662094525e-02 -1.087574807637809032e-01 4.581358753919819171e-01
-3.808808234412357219e-02 -1.211456776501780297e-01 5.076999245938801364e-01
-2.602307794131178062e-02 -1.239637398049252270e-01 5.081143004644429473e-01
-2.201697351782366460e-02 -1.202133364775435226e-01 4.889864309039770873e-01
-9.284942503048698725e-02 -1.072665603969387704e-01 4.585440455040665220e-01
-2.877506929645353220e-02 -1.238595531908549957e-01 5.205401231474212631e-01
-1.493911761613729225e-02 -1.023699157287426137e-01 5.639674769254195974e-01
-1.806092948316339805e-02 -1.263854404141020460e-01 5.134378428438662878e-01
-5.469010006053452722e-02 -7.261853573481083512e-02 4.447551451628759533e-01
-4.174657159418062452e-02 -1.170690286445168898e-01 4.909902073848783632e-01
-7.895422401272547686e-02 -7.908619339420673577e-02 4.422441941512063046e-01
-1.958187870545897297e-02 -1.239157238492087504e-01 4.986497703172319551e-01
-3.917778236891995142e-02 -1.201859854372403225e-01 5.018843764396954121e-01
-1.170692425796993411e-02 -1.222643317091566817e-01 5.418764269023405022e-01
-7.526350704200313046e-02 -1.195489641984656265e-01 4.995437465059485715e-01
-7.125703702565937270e-02 -1.058413380182989805e-01 4.653271151670640426e-01
-2.753150634211586761e-02 -1.231392280471205192e-01 5.335284642550004452e-01
-1.038611789778660366e-01 -1.183081240114099292e-01 4.942752485727460732e-01
-4.708090787747363365e-02 -1.104163329091385620e-01 5.364404840178929046e-01
-2.528087497203206080e-02 -1.034461361599822438e-01 5.575909907115066400e-01
-6.637068721328254206e-02 -9.904959533029504548e-02 4.580407564357353301e-01
-5.773520653153350890e-02 -1.152464345494038644e-01 4.873305378315252456e-01
-1.099605112257501655e-01 -1.150369004761413461e-01 4.670680663791504927e-01
-1.042021874341332865e-01 -1.158935051465255633e-01 4.993951773477509071e-01
-1.515179505919720879e-02 -1.180794671312480060e-01 4.809473925332695132e-01
-6.478603075943614731e-02 -6.901489860098379558e-02 4.415843380059799594e-01
-1.991417479028835189e-02 -9.981373181853417376e-02 5.622791667092633672e-01
-1.674536036918021498e-02 -1.176608178669518029e-01 4.805809664570703799e-01
-6.877584115530542552e-02 -1.182814877144016258e-01 4.947958903768274186e-01
-3.516798445838737602e-02 -1.217717586756265208e-01 5.310797542443479458e-01
-6.758947673056896199e-02 -1.117636476495232067e-01 4.768488826756851484e-01
-8.186303327354131631e-02 -9.070692594097713723e-02 4.495590936585679431e-01
-3.271945869413465935e-02 -1.204766336195174231e-01 5.390100813931641976e-01
-1.004823669382261392e-01 -1.154087529510763876e-01 4.629654875454667917e-01
-4.580936496446506856e-02 -9.037621377001094081e-02 4.549025974786821691e-01
-6.649693030613783307e-02 -1.137170640144338774e-01 4.814031075301132834e-01
-2.721264873787455907e-02 -1.234784709457276280e-01 5.321204050715782063e-01
-7.280588658234615762e-02 -1.194739159505223552e-01 5.051402411697333283e-01
-3.244292128462606534e-02 -1.194221414655250862e-01 5.412062274584237276e-01
-1.125170512065224587e-02 -1.281787141758807813e-01 5.218200274374626968e-01
-1.367374202260687732e-02 -1.251449706689797825e-01 4.984570331543867194e-01
-3.064528181062679477e-02 -1.063129609993128527e-01 4.686553293833011224e-01
-8.995709017833095067e-02 -1.193409810722780018e-01 4.844412190170783172e-01
-6.098341935786522755e-02 -1.187434314884067976e-01 5.019755890086199379e-01
-8.936500039086661684e-02 -1.176453290679425889e-01 4.753228953731243878e-01
-8.267709170003678665e-02 -1.192970230350311189e-01 5.047925370445395243e-01
-1.136621013944721925e-01 -1.171710662637513028e-01 4.777078154696523526e-01
-7.434283993609316910e-02 -9.482837678402772363e-02 4.536903039020531714e-01
-8.667655683277673828e-02 -1.144553095477877369e-01 4.706975321071307228e-01
-9.030568999211806280e-02 -1.171691119845924139e-01 4.736701454438857484e-01
-5.703557264669571747e-02 -9.476614404474993647e-02 4.559408313120759670e-01
-6.262517023322375365e-02 -1.184006873222138434e-01 5.182446832255044322e-01
-1.541397944242660356e-02 -1.264477815100550906e-01 5.053635374251811418e-01
-8.877414995577517787e-02 -7.560864296354392888e-02 4.439106190197237845e-01
-1.014745600288085581e-01 -1.203708703883557274e-01 4.808522788636387935e-01
-7.148193003288885738e-02 -7.751352985275206109e-02 4.424905923236094885e-01
-8.334916616513120269e-02 -8.246805626850742255e-02 4.442056523294850567e-01
-1.608704701343853516e-02 -1.227337107782792425e-01 4.919076070022052050e-01
-1.183068027705574121e-01 -1.115163445350348392e-01 4.752296989010779682e-01
-2.646525271524292205e-02 -1.189521645320687909e-01 5.470254935625307180e-01
-7.351206768417493931e-02 -1.167617205094719085e-01 4.860543695720364599e-01
-8.825750621240584237e-02 -1.194808198897715223e-01 4.921394383154906182e-01
-3.046095293138151999e-02 -1.220799134221681875e-01 5.029568478121841935e-01
-5.587984257721626685e-02 -1.089114271350800356e-01 4.735717314494588548e-01
-9.944430663197273423e-02 -1.184993683915825519e-01 4.966204882303058010e-01
-3.560394906447401225e-02 -1.093180585134876093e-01 4.738936752124366936e-01
-6.770168610870494486e-02 -6.035271045617723873e-02 4.393513397508578833e-01
-7.260646956134306218e-02 -1.194572133875183018e-01 5.003449252681249071e-01
-9.631381730176930694e-03 -1.285311537580900165e-01 5.204177882098667274e-01
-1.062730889816553143e-01 -1.135227957610693700e-01 4.624356613826637874e-01
-6.619769106764968047e-02 -1.137909229270854944e-01 4.816303561853308990e-01
-4.638809588581586235e-02 -1.207439447517392878e-01 5.211554899763565230e-01
-3.798909850783574460e-02 -1.166437345724252728e-01 4.889421512785190882e-01
-6.581605380291377649e-02 -8.062843805140361420e-02 4.450609472978315773e-01
-5.639012285901480459e-02 -1.087264368087018096e-01 4.730560704237224967e-01
-2.909892106904727466e-02 -1.077951417879731838e-01 4.704746195346715121e-01
-1.670551980689525401e-02 -1.065828093140206434e-01 5.622866626331027851e-01
-1.167976619304833957e-01 -1.135981986108951791e-01 4.734280242403212657e-01
-6.414844298396100986e-02 -1.192685559457505595e-01 5.105789886180540638e-01
-1.008091806201054513e-01 -1.205665475949345561e-01 4.801540307644739380e-01
-4.691963368484683428e-02 -1.205796186674577414e-01 5.156395873491880222e-01
-2.681628708606931949e-02 -1.244089373220235856e-01 5.232367008126356245e-01
-4.503648493082959559e-02 -1.206309700183963440e-01 5.109835876863758619e-01
-3.926647386353843833e-02 -1.177460608759929028e-01 4.922975726095537019e-01
-6.035776994264920037e-02 -1.119069783063990076e-01 5.286613613078922080e-01
-1.102390266037042710e-01 -1.149525594750490098e-01 4.672013969020485935e-01
-9.905343366697214047e-02 -1.195072722283545691e-01 4.859405529176596961e-01
-2.045613560163777461e-02 -1.254895416411251075e-01 5.083266210793023765e-01
-1.943623223131488165e-02 -1.226353473296211000e-01 4.941143115269360231e-01
-5.964339723760222339e-02 -1.112762130540922573e-01 4.776669430095000779e-01
-9.847921129746048385e-02 -1.112805569733888167e-01 5.082643453893047614e-01
-9.453967567645965575e-02 -8.920884320645530718e-02 4.482267219404119651e-01
-5.098642831825336147e-02 -1.171544704111224106e-01 5.298240205499124000e-01
-1.429000065085283579e-02 -9.891180282006138691e-02 5.658378496558855719e-01
-4.680568081820815629e-02 -1.071586721906648554e-01 4.717685106818824137e-01
-1.020703608470547030e-01 -9.601388467751774403e-02 4.522245447507937111e-01
-4.195674421913193203e-02 -1.047426365770422196e-01 4.683277638883353022e-01
-6.744511458651808455e-02 -7.464808253355258161e-02 4.424562830326427831e-01
-1.121169702931520962e-01 -1.178053303817392511e-01 4.788957644229377419e-01
-6.348533093859093368e-02 -1.115739436200092194e-01 4.776063618794716414e-01
-7.913862257036087533e-02 -1.151701552982645482e-01 4.808645288103906013e-01
-6.838194729788249493e-02 -1.020450245494176900e-01 4.606831109734513263e-01
-6.044584156638776323e-02 -9.588144788826968856e-02 4.561198764012128759e-01
-7.113830037134975803e-02 -1.194524347720955226e-01 5.032592618711090315e-01
-6.957575246558793391e-02 -1.119462950939900669e-01 5.243511900019665051e-01
-8.703273811464218301e-02 -1.107487549198450383e-01 4.649554042412139543e-01
-6.055188972428481725e-02 -1.180468202647037140e-01 4.982237546900358804e-01
-9.715633976415145867e-02 -1.208014416934554691e-01 4.775697263385180746e-01
-6.240903939144563928e-02 -1.106906500348358996e-01 4.762153090711372938e-01
-6.243563117241877208e-02 -1.067494449965057934e-01 4.677842464581629667e-01
-1.162356945672765457e-01 -1.124158354684868660e-01 4.704575532589986842e-01
-2.223665058516618998e-02 -1.253185706209956340e-01 5.127452260095228809e-01
-4.300029860930063702e-02 -8.528159166044475825e-02 4.514187587481026664e-01
-4.380549638705098087e-02 -1.103306988834770880e-01 5.386471666887286958e-01
-7.582648239596878614e-02 -5.850311224769927376e-02 4.396922750936763657e-01
-1.208079382014145831e-01 -1.063301906179349443e-01 4.771815697872857087e-01
-1.172308694284005665e-01 -1.055740172532920046e-01 4.650876710908289913e-01
-6.708397413493874528e-02 -1.152767377391217124e-01 4.852217540457373635e-01
-1.197977449376073228e-02 -1.249441139254363758e-01 4.970320868262375624e-01
-2.554605078457579739e-02 -1.026977717278245300e-01 5.572061550817621889e-01
-4.167705191958501892e-02 -9.964387793286613726e-02 4.629769378260881196e-01
-2.731260849341976896e-02 -1.240583431108437107e-01 5.148596678577126440e-01
-1.245925366767412258e-02 -1.168522716260719102e-01 5.545102692247545484e-01
-4.143699851368288362e-02 -1.069486167641622437e-01 4.711405956648880844e-01
-4.091267043885672694e-02 -1.093317235228488532e-01 4.744355711828240341e-01
-3.678372918226030519e-02 -1.190560332197674182e-01 4.959016387411901983e-01
-7.858570847892344668e-02 -9.904494798647606180e-02 4.563875710133424302e-01
-2.968088138890419628e-02 -1.191186571536908684e-01 5.442082495123151675e-01
-9.834797667911961139e-02 -8.053491966639236832e-02 4.520154909803590360e-01
-7.189748011139573958e-02 -8.846403204127843700e-02 4.486201556666644108e-01
-1.101798826289587113e-01 -1.197940589826394370e-01 4.750563766941104382e-01
-8.629578649571829907e-02 -1.190675926299466780e-01 5.019293115291105778e-01
-8.542505032529069953e-02 -7.442601082041130911e-02 4.414821779997726847e-01
-6.108275832885567969e-02 -1.149499505375733283e-01 4.857572983072860340e-01
-1.210414460239461060e-01 -1.059838888014184993e-01 4.767164253560981502e-01
-9.745556718269857491e-03 -1.202869457150962662e-01 5.466601865358008405e-01
-6.186878048277128644e-02 -1.097395318822336208e-01 5.285706401393025500e-01
-2.765641083602253872e-02 -1.169639043305321646e-01 4.849427975346132236e-01
-5.968759164194979011e-02 -9.941675029504468131e-02 4.595417477535802542e-01
-3.606190425258165577e-02 -1.069343316967542312e-01 4.706512402646574889e-01
-2.987337264169269771e-02 -1.195984528819795251e-01 4.929465970460110702e-01
-8.507369122205669931e-03 -1.246219453932465998e-01 5.335806526921353932e-01
-8.322099490573157954e-02 -7.475082467553635646e-02 4.408490840979161773e-01
-8.859456134589538401e-02 -1.149727491702418197e-01 4.700280166118971925e-01
-5.722144991771013073e-02 -6.719652196845732339e-02 4.426532166273587365e-01
-5.988485556016585193e-03 -1.289117746261227992e-01 5.186939223981789082e-01
-7.729854914287488665e-02 -1.169258681661714677e-01 5.165133603209103308e-01
-7.829775305463507196e-02 -9.836168839928129126e-02 4.558479954447760552e-01
-3.118245729711034003e-02 -9.492026245029970555e-02 4.571709743549294824e-01
-5.780364065872856116e-02 -8.913784783978143111e-02 4.514423781284425119e-01
-8.418551954608569088e-02 -1.168562262486256415e-01 4.825871247353660243e-01
-3.690228199373033618e-02 -8.878992926735429503e-02 4.540654638140745325e-01
-7.907972012643525728e-02 -8.973249547769615586e-02 4.491415390247289197e-01
-6.179942940558600523e-02 -6.320509718975601821e-02 4.409282676090260367e-01
-6.356971963716462337e-02 -1.192173351067509907e-01 5.108457795981514726e-01
-1.205137401839113422e-02 -1.123885359773380416e-01 5.595312927239447509e-01
-4.814674117849759155e-02 -1.189529268492319908e-01 4.997990133121609779e-01
-2.718990281045118029e-02 -1.170431489882776399e-01 5.495744514256956093e-01
-1.082787818252949480e-01 -1.036004545152024031e-01 4.574876215606237806e-01
-1.063869054197359720e-01 -1.165984969295690565e-01 4.663674199454744262e-01
-2.467698846806904919e-02 -1.210742215201794647e-01 4.935940736412471330e-01
-1.618073567884610250e-02 -1.247899393118265809e-01 4.987548372826350884e-01
-6.590499368124660973e-02 -9.042863049519576923e-02 4.508651721475943064e-01
-4.941072202167200167e-02 -7.240404692810496756e-02 4.451742801976435460e-01
-9.547642570940238077e-03 -1.281955221787602073e-01 5.117755072723347842e-01
-5.874972994711253477e-02 -7.014953236609207388e-02 4.433436593461727582e-01
-3.464350608127266667e-02 -1.080504800821930622e-01 5.445023497655235856e-01
-6.337113368363779531e-02 -1.151881778508759696e-01 4.857157649479536543e-01
-1.000315929150042277e-01 -1.132559970454484616e-01 5.063877787377213391e-01
-4.496396928849265284e-02 -1.208867786541207440e-01 5.225217926595825402e-01
-9.213162307081491920e-02 -1.102041856826853905e-01 4.615350656885729430e-01
-3.293683164197577090e-02 -1.223101112234611515e-01 5.306280429487716388e-01
-1.050425289196488532e-01 -1.172778137356244726e-01 4.663966232665829881e-01
-7.064435354884272822e-02 -7.322020192066636124e-02 4.413382746377541577e-01
-7.501437857950625510e-02 -7.403041928502364366e-02 4.407627821962554204e-01
-1.294410295212891984e-02 -1.243429221466268997e-01 5.351691922672725532e-01
-5.427735909568723316e-02 -1.082095582547703272e-01 5.337900047605133036e-01
-7.720877385478371047e-02 -1.180118660543200554e-01 5.139030308932069913e-01
-4.597453268637385904e-02 -9.379202484636935122e-02 4.575718185378575553e-01
-1.043177253754405676e-01 -1.020644853850372763e-01 4.553798048950465360e-01
-9.254698774993912191e-02 -1.019671247998318181e-01 4.554737645777615640e-01
-7.753134027135336059e-02 -1.195917036820629414e-01 5.017580342275741456e-01
-4.212471236998061724e-02 -1.123413610804188667e-01 5.389252132736024326e-01
-3.711596552507840513e-02 -9.162732928822768519e-02 4.562184870587485674e-01
-1.128919199757092151e-01 -9.725622672805932234e-02 4.578857757946385720e-01
-8.673101223667659121e-02 -1.027390789994336862e-01 4.573508889711301317e-01
-1.130240935463237284e-01 -1.126870975682486703e-01 4.671612264170100226e-01
-4.318734180019832836e-02 -1.201444145987564105e-01 5.042655345312684334e-01
-6.494545574898596962e-02 -1.187348400103081653e-01 4.995986761533131038e-01
-1.059617636584706257e-01 -1.158264298518171115e-01 4.984733014455089428e-01
-2.714977951598399747e-02 -1.105527355981148208e-01 4.735209824749568308e-01
-1.778321615991157109e-02 -1.175023535111491407e-01 5.535362225047747442e-01
-1.858764332417841073e-02 -1.262817856542881867e-01 5.251804471625691750e-01
-5.344534024928104810e-02 -1.166137689668755861e-01 5.289794712871503934e-01
-1.774723139663818977e-02 -1.201848436069745396e-01 5.486010689873761503e-01
-5.322626465092265835e-02 -1.171021673083355585e-01 4.931895041470449326e-01
-6.397531959336430485e-02 -1.053893307332768869e-01 4.655950740229515827e-01
-5.041957338969599300e-02 -6.369859961952527294e-02 4.422664128448446363e-01
-4.468583773837307010e-02 -1.082112822395785018e-01 4.731185683863113889e-01
-1.009487012587259314e-01 -1.145978589734327063e-01 5.039325388855379062e-01
-3.986148270075472871e-02 -7.863784193123719846e-02 4.477954116713817045e-01
-3.416510921862789957e-02 -8.839380990810047356e-02 4.532535159521677293e-01
-1.122041348646697634e-01 -1.082312537742755876e-01 4.624982313160215242e-01
-9.872517329089519622e-02 -1.191695765002534629e-01 4.907189511468619258e-01
-3.543456240031959276e-02 -1.199983376879624891e-01 4.986134729661452769e-01
-5.839449478096915558e-02 -1.027885154752115060e-01 4.639905147234671956e-01
-5.964374313545752621e-02 -1.119375471348464796e-01 4.791308862171150262e-01
-2.548799207614873413e-02 -1.227850364146334944e-01 5.379568354348910342e-01
-6.550384587075369636e-02 -1.191122361072817631e-01 5.020729736469771165e-01
-8.152427185531060938e-02 -1.135173893236487014e-01 4.728153096701038782e-01
-1.203367747162565476e-02 -1.170464379212569767e-01 5.541656915308178499e-01
-9.909410822921964346e-02 -1.191701247608865366e-01 4.904080280114742618e-01
-1.010870783640624854e-01 -1.096754287099499653e-01 4.571519069288193515e-01
-2.584258282336290846e-02 -1.220652120436060695e-01 5.407837868529773440e-01
-5.282716654279003693e-02 -9.982838100120139391e-02 4.616212742085233911e-01
-8.860738488425487502e-02 -1.184560188618387355e-01 5.058310694844273536e-01
-2.792556208072541346e-02 -1.203002420215032453e-01 4.937897867744776570e-01
-1.030547682319286618e-01 -1.060939019423350893e-01 4.572503060424164545e-01
-3.588475236733966456e-02 -1.192492225170703468e-01 4.958994340532635881e-01
-5.626636618909348214e-02 -6.430232850953129797e-02 4.418570247539255758e-01
-3.016336602222231475e-02 -1.216314980247391181e-01 5.378760655356394915e-01
-5.692551318543222216e-02 -9.719690916096962452e-02 4.579784640099845983e-01
-3.129931314732845027e-02 -1.053654743217823514e-01 5.485817418775144061e-01
-1.049802804131715617e-01 -1.100672436775852470e-01 5.023288670604384443e-01
-9.974812799712223788e-02 -1.157808424503101730e-01 4.631973839203464838e-01
-5.533843694370430694e-02 -6.047101466392779817e-02 4.411759778846511826e-01
-1.188581927806285493e-01 -1.070890092272372973e-01 4.690568836460352053e-01
-7.137077246598817759e-02 -1.158839721179871773e-01 5.194163716377957485e-01
-3.643341350638335668e-02 -1.191813927905961273e-01 5.382557578122461051e-01
-7.915638762972207476e-02 -1.017582320677776209e-01 4.588383627440704160e-01
-1.235011182917127026e-02 -1.022196844511740893e-01 5.651369496236665624e-01
-6.734121420326275032e-02 -1.125222313284368336e-01 5.251457615591079708e-01
-1.015911832567210626e-01 -8.676194080346967541e-02 4.514522358913590216e-01
-3.841070189270207047e-02 -1.037387812243554946e-01 4.669608808947408041e-01
-5.478168256967487493e-02 -1.163423188922223656e-01 4.905520179232495392e-01
-8.651578323382776159e-02 -1.108150960974979699e-01 5.158725585676380287e-01
-5.970069593541166980e-02 -9.953676894796324726e-02 4.596577928379493305e-01
-5.647594373882917212e-02 -9.472334186534089873e-02 4.560353720885736983e-01
-4.192473591311624004e-02 -8.524239229982134847e-02 4.514259885815409268e-01
-6.160130889885434557e-02 -1.178377951263440832e-01 4.965909240827758864e-01
-7.870991478017731746e-02 -9.048299260812263378e-02 4.497328862203982536e-01
-6.183891323559208980e-02 -1.081938763921730107e-01 4.706979033043552363e-01
-2.072024882713747324e-02 -1.129250181460403346e-01 5.575636342117794575e-01
-8.895371861324997964e-02 -1.178728913712554227e-01 4.782132940602459859e-01
-2.433853411370709083e-02 -1.208259793412729682e-01 5.444510181972370688e-01
-3.638776022080408845e-02 -1.216354346116051005e-01 5.300425474765696476e-01
-2.954769324079316653e-02 -1.095853561073176080e-01 4.734081491498576266e-01
-8.619180732175087123e-02 -9.321467405633544756e-02 4.507184267663030819e-01
-2.039832949210752810e-02 -1.224902748699274041e-01 4.944374251262814157e-01
-4.473815890274081275e-02 -1.127683888775857651e-01 4.808694545154778566e-01
-5.559154437769272400e-02 -7.359669213566395751e-02 4.449219716120177415e-01
-4.541378564012540225e-02 -8.762167102386252127e-02 4.528476272045371398e-01
-8.603724130825597671e-02 -9.167461055545882143e-02 4.498423697225776841e-01
-5.875052728257977586e-02 -1.194676283848589149e-01 5.114163918197954795e-01
-9.123787701598912170e-02 -1.184663964930581653e-01 5.041594780995124481e-01
-5.915598107777247927e-02 -1.173412901884478277e-01 4.948320819830557271e-01
-1.069158120576092774e-01 -1.200140635941258083e-01 4.823091362739934662e-01
-2.528737877362293926e-02 -1.092575264429807153e-01 5.563208333905108605e-01
-3.666565771083385439e-02 -1.142395347522668358e-01 5.421165137291349412e-01
-2.200633547218114328e-02 -1.002896909573872120e-01 5.610480093438414695e-01
-5.174321499154774934e-02 -1.075071702488859804e-01 4.721381378736383416e-01
-5.141803797496737743e-02 -1.187402132907648400e-01 5.271398953925183761e-01
-6.606675538682699189e-02 -1.069040626233030561e-01 4.675654276789814046e-01
-7.706388278213809062e-02 -1.191183406530985645e-01 5.098375315095813320e-01
-6.859656980424043426e-02 -1.190082010969203685e-01 5.008077917179497573e-01
-2.767435818552783922e-02 -1.160495557543501088e-01 4.830918854917953253e-01
-1.161720796183750987e-01 -1.053807239620206254e-01 4.632163012171448546e-01
-6.147936614425281859e-02 -5.808136210806454786e-02 4.401016472049919526e-01
-8.899493004726344303e-02 -1.147655615198353435e-01 4.691371064208958996e-01
-1.941363258033515504e-02 -1.242797036972628777e-01 4.999723178933485612e-01
-3.788658234246317785e-02 -1.040378912300078118e-01 4.671937004981376318e-01
-4.177095870297151819e-02 -7.356907460252443132e-02 4.455366093676196848e-01
-3.606199646232905592e-02 -9.952497751412615890e-02 4.623381925223810640e-01
-8.190162065165580707e-02 -9.963703894769869451e-02 4.562552794906357123e-01
-2.115777380469163055e-02 -1.170334935191769815e-01 5.532556202460452432e-01
-7.788094948155667441e-03 -1.285253942222671641e-01 5.118989284521319183e-01
-1.022805046470391527e-01 -9.212704528292758877e-02 4.511792173013857155e-01
-8.148570990082891485e-02 -1.010265632120802975e-01 4.575485229731802717e-01
-9.302657283990757586e-02 -1.185525661643383188e-01 5.008994886291310289e-01
-2.060563851703231183e-02 -1.145373520586594057e-01 5.562405198835089770e-01
-1.934586566403414393e-02 -1.109368156530908534e-01 5.598810424392877128e-01
-1.217378027682627373e-01 -1.041997871602833026e-01 4.772420669508438129e-01
-8.625807458417948659e-02 -7.595564023489599637e-02 4.424290131338138310e-01
-1.178996011614667251e-02 -1.277975079596728736e-01 5.117005303233532754e-01
-8.255230539859133299e-02 -9.553399784120049365e-02 4.530482110824841646e-01
-4.069578425179892767e-02 -1.062426111383417277e-01 4.702122893515042756e-01
-8.714285263070330190e-02 -1.188386391693403293e-01 5.048113141482167832e-01
-1.806906707776358145e-02 -1.237921096986559361e-01 4.969243777496801240e-01
-4.709117854378402218e-02 -7.662835914559913697e-02 4.470776729097171720e-01
-5.525890388483971349e-02 -7.464508341766999677e-02 4.453088155591536368e-01
-2.999699054608339840e-02 -1.235090183363726501e-01 5.260211967852890247e-01
-7.807950693585993807e-02 -8.913847346088661638e-02 4.488358744608244022e-01
-3.304757579978003651e-02 -1.226698025250278073e-01 5.150555538172999492e-01
-1.119043856603562370e-01 -9.991075781605388006e-02 4.572267053459598274e-01
-6.218101985711684682e-02 -1.189184192312290472e-01 5.032483276145564011e-01
-5.191859428472433979e-02 -8.153720674116014810e-02 4.483680508083042748e-01
-3.018892977177423803e-02 -1.187042856107047295e-01 4.905321654284081623e-01
-2.495999391018948604e-02 -1.202202991423397260e-01 5.453338745064904014e-01
-5.704750318570876028e-02 -8.329753234677665652e-02 4.482346111880121664e-01
-9.496072036654269743e-02 -1.203045434700209804e-01 4.810753091668755754e-01
-2.701799114968866933e-02 -1.030236245928404654e-01 4.629104475187383883e-01
-8.432595384788206527e-02 -8.909634465948905457e-02 4.483413417221535635e-01
-8.444718957528579706e-02 -1.194290080241821039e-01 4.992873431465875145e-01
-9.095340317072629632e-02 -1.138935587159676799e-01 4.656583407954485443e-01
-3.510034043973886408e-02 -1.125784744538557147e-01 4.802283024574173775e-01
-6.435869405168498369e-02 -1.086422727312770647e-01 4.713107901209972472e-01
-1.083396286546116499e-01 -1.118968614016700169e-01 4.996078311873504152e-01
-6.572072494179222180e-02 -1.108266318162839936e-01 4.755096229109821437e-01
-1.186396377839649130e-01 -1.033201073941253378e-01 4.667088918463939140e-01
-4.712995593381224396e-02 -6.820993057636012824e-02 4.437876812708068108e-01
-9.554421304988588992e-02 -9.959984116757697459e-02 4.538616722650438140e-01
-6.623854091508286912e-02 -7.430098904334729581e-02 4.426487998433429327e-01
-4.256479319938039768e-02 -1.202072262053939800e-01 5.309030328854423830e-01
-7.461387083116237384e-02 -1.003799115194034530e-01 4.582352224521174522e-01
-8.066774996393603903e-02 -7.959022032389143075e-02 4.425760014762376016e-01
-2.510128263022191192e-02 -1.087821968898266545e-01 5.567537738224991317e-01
-4.832718622596307578e-02 -1.203525743771350631e-01 5.215188200998149837e-01
-1.000803955403030965e-01 -1.157209102470822260e-01 5.031425163472772466e-01
-3.962159853344437987e-02 -7.753296997110339928e-02 4.472640836406449050e-01
-8.271169351307841588e-02 -1.181076073121556241e-01 4.877274881938821194e-01
-5.836771935930750582e-02 -8.871015149387108389e-02 4.510591564863483116e-01
-6.928991107920816350e-02 -9.255624961575133203e-02 4.520052570904414257e-01
-8.693039768971036474e-02 -1.039193134163076543e-01 4.579746102619891013e-01
-6.238306903075098442e-02 -5.802830531923476587e-02 4.399378468678500909e-01
-7.691672336874681715e-02 -1.075522182962918849e-01 4.657617316139076591e-01
-2.400470187907257497e-02 -1.234607540098189571e-01 5.363052714911029639e-01
-2.939397333891062558e-02 -9.067362387920487043e-02 4.534644936684836258e-01
-3.069140137935548115e-02 -1.175617679250831465e-01 5.456232802331515419e-01
-2.148442483428702338e-02 -1.201185403484665848e-01 5.472914337035752474e-01
-1.316376273825907092e-02 -1.251827846238869890e-01 4.983594590543927172e-01
-1.064090558323544516e-01 -1.102509008318108968e-01 5.014691463934179971e-01
-7.991535592386879439e-02 -1.154325391588807426e-01 5.169230880305922815e-01
-9.126455070109432133e-02 -7.671687630919901690e-02 4.462102156301757661e-01
-1.725466363729222588e-02 -1.159103119522067044e-01 4.770736645892471595e-01
-8.647618691348196718e-02 -1.169648853315943537e-01 5.105902021656630874e-01
-6.977621145027634864e-02 -1.154012134558861369e-01 4.843505677376929719e-01
-5.540372057220927654e-02 -5.801760000864893824e-02 4.407481359858722580e-01
-1.185520783359578362e-01 -9.648394816686897690e-02 4.709352946952751195e-01
-1.200226174212651459e-01 -1.072956284614555722e-01 4.737498725164856483e-01
-2.487846779272016168e-02 -1.116280786149093374e-01 4.738324616805880685e-01
-1.170280801221773720e-01 -1.136633897238485541e-01 4.744586221018594063e-01
-1.810000854463085507e-02 -1.230654944669107020e-01 5.412951368185863199e-01
-6.931318082612428211e-02 -1.119199912183243967e-01 4.765781516399875684e-01
-4.374169248631054607e-02 -1.086005226344102931e-01 4.736396258703025608e-01
-3.465398579890496822e-02 -9.358519611047337594e-02 4.573953651683236865e-01
-5.616969490102281803e-02 -1.171366854812771474e-01 5.262764062460604242e-01
-3.304770709586031530e-02 -9.795198093277018847e-02 4.602223839393808080e-01
-1.697102875609316983e-02 -1.214188686071430295e-01 4.886472922221959947e-01
-3.530676775938513395e-02 -9.025067552720823782e-02 4.547775519509794084e-01
-1.136077803912470541e-01 -1.105374859912458957e-01 4.964165291633845789e-01
-1.030249326319935127e-01 -1.041674680390774349e-01 4.562541600685646737e-01
-4.669480541810642343e-02 -1.165888031096629085e-01 4.900841893203075617e-01
-6.407581104191599486e-02 -7.432873193570810333e-02 4.432811147734246893e-01
-1.022544294435308865e-01 -1.203071729337570617e-01 4.806069761044335920e-01
-1.177995589739078142e-02 -1.229842296622511294e-01 5.393379102792854596e-01
-9.372273269626572867e-02 -1.185494953559200343e-01 4.738118028330408626e-01
-3.040183911067712713e-02 -1.124989031808497908e-01 4.781481457963583370e-01
-1.827999992927321557e-02 -1.203057965660471185e-01 4.866608072594835743e-01
-5.797500402917559609e-02 -1.079560740700735433e-01 5.313422919122845478e-01
-7.261371066662929141e-02 -1.127527891152601963e-01 5.230965859619214342e-01
-5.486664124809240151e-02 -7.190727864634954836e-02 4.445062725788626046e-01
-1.187234640524496704e-01 -1.124465012741845682e-01 4.802000786580577496e-01
-1.024596197370872090e-02 -1.269306195288691097e-01 5.036619840232021694e-01
-2.510120878942015410e-02 -1.061253740502899057e-01 5.576261330689908924e-01
-1.046470812315335695e-02 -1.266309471220328775e-01 5.022923838895608784e-01
-8.508217826693430241e-02 -7.886672255018357947e-02 4.428206806521131633e-01
-4.054065381447487931e-02 -1.201113906300305956e-01 5.022644920132856017e-01
-4.772508638142627935e-02 -1.200331473876996985e-01 5.066784451331043382e-01
-4.530127788481562445e-02 -1.193263538908028720e-01 5.005673932358306599e-01
-1.042992169343670839e-01 -1.125941284688834476e-01 5.015234054480660619e-01
-7.130067861819081032e-02 -9.347220536520237100e-02 4.526784192942082674e-01
-1.083725332208006209e-01 -1.048949351703569455e-01 4.583085525954422312e-01
-3.378706314695206769e-02 -1.081494261430832465e-01 4.719995694533898334e-01
-1.611357607462472058e-02 -1.112365714471718753e-01 5.599778689322291170e-01
-3.019078600338334639e-02 -1.039281283264451017e-01 4.653050180329610375e-01
-8.497721500819460649e-02 -1.193052569508879085e-01 4.975394588383854622e-01
-9.504255963556890174e-02 -1.165149930635613063e-01 4.671955553794209792e-01
-6.402281295039971565e-02 -1.033073707950046410e-01 4.630677328686869654e-01
-2.037892020891848843e-02 -1.256684306203650070e-01 5.284049425931196531e-01
-8.217942749212742148e-02 -9.753760307651908323e-02 4.545626152625074079e-01
-2.311685631620664233e-02 -1.135681178262778063e-01 5.555605908595832032e-01
-5.297210940891160930e-02 -6.345159040124771777e-02 4.419909899447975188e-01
-1.875720292009350892e-02 -1.099506448204987247e-01 5.605918882660406721e-01
-9.875051296054124239e-02 -1.171890869960445919e-01 4.643666061142436297e-01
-2.071414708383574957e-02 -1.091349861214690742e-01 4.681214273543564675e-01
-5.414190402769917393e-02 -8.643026541016285424e-02 4.504027115054813901e-01
-9.859500793065346935e-02 -1.210220702830858697e-01 4.756308553185017995e-01
-1.140031169506711545e-01 -1.172068848413109904e-01 4.819558667559163956e-01
-4.527374314040311792e-02 -1.189045301901767160e-01 4.985935177736895429e-01
-5.413195135982059453e-02 -1.087949764524022422e-01 5.336860921511006328e-01
-1.014794072494179245e-01 -1.205977636092992744e-01 4.692773485880921691e-01
-7.122200712386030086e-02 -6.850885534746302408e-02 4.399068855563684766e-01
-3.720872102153921501e-02 -1.102795080078821516e-01 5.419556077623571833e-01
-7.034500471408937361e-02 -1.085665241750492227e-01 4.697626323137650828e-01
-1.094959596435216148e-01 -1.203634740110950119e-01 4.745045480179415631e-01
-5.298394455816681642e-02 -1.187661400443737469e-01 5.233633977493469258e-01
-8.024314388287909217e-02 -7.947383294312611313e-02 4.424978170800581423e-01
-5.993578463821579161e-02 -1.156333517909723385e-01 5.269739334073144654e-01
-6.597290832626710733e-02 -5.835687899131991596e-02 4.393799498886797328e-01
-1.119835732067383516e-01 -1.078286870857684820e-01 4.620983309028843244e-01
-6.320613456021534349e-02 -7.186354186053925397e-02 4.428472480672987488e-01
-8.172036083365445680e-02 -1.186260552330375556e-01 5.106970625012745568e-01
-5.779672041734487675e-02 -9.865115393914615505e-02 4.589258924291685360e-01
-8.883082719519351522e-02 -1.193234120153857380e-01 4.945890155725265469e-01
-1.479694389773932375e-02 -1.254176789832401606e-01 4.998574255723748361e-01
-7.403571487830722109e-02 -1.138940424789525729e-01 5.218006382333654214e-01
-9.703352275147247852e-02 -1.175511528565626462e-01 4.665271066761207952e-01
-3.952653236991243019e-02 -1.216332979803481235e-01 5.234345114166328861e-01
-7.323445193147945509e-02 -8.516534705429162910e-02 4.462487880979950083e-01
-9.646650878219474590e-02 -1.190512073143643323e-01 4.946167309682368840e-01
-5.226067895800957236e-02 -8.913287947878884010e-02 4.525041779642487438e-01
-9.975445136077862318e-02 -1.201810270932587577e-01 4.822762666103723173e-01
-2.428917446381793216e-02 -9.821492788100623372e-02 5.575907627270967337e-01
-1.132381452891214474e-01 -1.152280738211652333e-01 4.704496292368033905e-01
-9.480775323127463294e-02 -1.183697938401437194e-01 4.999910016625690456e-01
-2.926183536406512520e-02 -1.123768886346603463e-01 4.773196888495162549e-01
-5.406793710684593829e-02 -6.875402283244001767e-02 4.434188904750637761e-01
-7.332018822202283903e-02 -8.711049090549312368e-02 4.475677610282877139e-01
-4.483517505282458293e-02 -7.776095067885911705e-02 4.476472977079347104e-01
-6.393714890128653072e-02 -1.190124649942958523e-01 5.134447564310876677e-01
-3.891634731288643595e-02 -8.378562779578839492e-02 4.505987099177845567e-01
-5.669881107244477414e-02 -1.113795922771957797e-01 4.780580229846665974e-01
-5.225886413141368758e-02 -1.091472049356333462e-01 4.745796439093573071e-01
-6.711814841839663925e-02 -1.037984271162822741e-01 4.629204965317774700e-01
-3.978476365193579778e-02 -1.210566869620623293e-01 5.295121041987320698e-01
-1.198833252501597668e-01 -1.088635160785089567e-01 4.846852833631854485e-01
-7.807422033903460568e-02 -9.364774804028311306e-02 4.522809002156625846e-01
-7.798027790989618679e-02 -1.139920256750730360e-01 4.776027819890237835e-01
-1.119250620533182167e-01 -1.180941048270525151e-01 4.829247292044844819e-01
-1.120737476012158562e-01 -1.180735769089747145e-01 4.835590995313379659e-01
-2.409583152981681700e-02 -1.140913409993224853e-01 5.545785529552478277e-01
-3.399489892640356753e-02 -1.225261302515625456e-01 5.264362244146817416e-01
-8.161656768530561878e-02 -6.758938073703818494e-02 4.399157373301541551e-01
-7.519963780345709226e-02 -1.181158445018432451e-01 5.142730183010654210e-01
-4.210686065513008502e-02 -7.645540869677071305e-02 4.469169220691698863e-01
-2.093118799584142362e-02 -1.120867518874955893e-01 4.723255065923351870e-01
-5.021320160990038611e-02 -9.855532911711623045e-02 4.606831994224620530e-01
-1.103297494979246229e-01 -1.192082669725061939e-01 4.773771689161361853e-01
-9.001781452903173664e-02 -1.194411827018621169e-01 4.915506726857386544e-01
-3.424871803372712270e-02 -1.046845457309648342e-01 4.673423043750690731e-01
-4.780766522686454023e-02 -1.153028377980301333e-01 4.865251017574620529e-01
-7.846182420293285054e-02 -9.723964516731718744e-02 4.549858043009504249e-01
-9.561396211923710309e-02 -9.166655374503160369e-02 4.494574582161695586e-01
-2.928084796859867917e-02 -1.207220037263217194e-01 5.413000350965098129e-01
-9.857447567290286705e-02 -1.037351954349546856e-01 4.559747996270716031e-01
-1.417606897071827139e-02 -9.779638322376218995e-02 5.663810448021104893e-01
-2.349153235813936091e-02 -1.244624831898344247e-01 5.316514992099200532e-01
-2.944491637092754022e-02 -1.124910245621550814e-01 4.776378667182054616e-01
-9.829499034279536029e-02 -1.135421380013115766e-01 4.613960635930212106e-01
-5.063814391235091361e-02 -1.184273863535606069e-01 4.979739648210848024e-01
-2.803713785864039854e-02 -1.239369889271712821e-01 5.165125150306879576e-01
-9.933069089747066649e-02 -1.161359671792815546e-01 5.032549621481361424e-01
-5.634236304639603926e-02 -1.178428774026267639e-01 4.964644372895309909e-01
-8.735947261387722040e-02 -1.175708980716281549e-01 4.834372524182924402e-01
-4.396443714121173185e-02 -8.898267641979067111e-02 4.539187932604563103e-01
-7.760743382247217714e-02 -1.125551517098046378e-01 4.735623877892151667e-01
-4.651853556620541563e-02 -1.200234281006914566e-01 5.057867731495231389e-01
-7.629009704442545059e-02 -9.259192317852449339e-02 4.517117366752764207e-01
-2.158845412376236492e-02 -1.095817151387299820e-01 5.598324382619227491e-01
-8.458586861708632110e-02 -1.169032395056142926e-01 4.776168870053351667e-01
-4.730947108438324222e-02 -9.605134792654920761e-02 4.591589302666145289e-01
-8.563330975688399072e-02 -1.170668350352293691e-01 5.114197605992572004e-01
-9.911097695098959603e-02 -1.168338129154080085e-01 5.023398392561652104e-01
-2.702602038264726239e-02 -1.243474665134588625e-01 5.233010007515104256e-01
-3.319858775197843948e-02 -8.501704968094637993e-02 4.504304341030324621e-01
-3.454168886626571289e-02 -1.185882177023099698e-01 5.411087134431717960e-01
-4.496855584884121987e-02 -9.958878096093516652e-02 4.624589797501148514e-01
-7.100074051715175860e-02 -1.170268116582741935e-01 4.877689410967286920e-01
-7.496141160167196782e-02 -9.321239733022416984e-02 4.523707886022430014e-01
-1.200822578850065242e-01 -1.056821391960251627e-01 4.835224166213949459e-01
-9.603233820075923050e-03 -1.282077630425139392e-01 5.120158870705964205e-01
-1.593155160455887037e-02 -1.175353184208001583e-01 5.534179435444083195e-01
-7.082265360865389048e-02 -1.177174382823517607e-01 5.157723954071639083e-01
-7.156744122761035665e-02 -1.084510151452845877e-01 4.694742959533221294e-01
-9.944378994593081056e-02 -8.435778345975793180e-02 4.504110281940744698e-01
-8.799806229331906537e-02 -1.177313817412332653e-01 4.767818943554230637e-01
-4.847555029605762900e-02 -1.194782386774367045e-01 5.034033074255832574e-01
-7.694387636484706361e-02 -1.009122387684939365e-01 4.584788505238913681e-01
-7.140379991370161827e-02 -1.033177309756988932e-01 4.619820716502480717e-01
-7.927929269597701334e-02 -1.120803171044892493e-01 4.716008590798954070e-01
-2.691620657853240409e-02 -1.126027268021015243e-01 5.535611372112462236e-01
-9.996848820941824088e-02 -1.180418760688846797e-01 4.990337226162193662e-01
