-1.865515965953597893e-02 -1.172421260626924089e-01 4.803237120696215445e-01
-5.264391393950128978e-02 -1.079211811377059627e-01 4.727326207128531022e-01
-3.834072165600015125e-02 -1.215354694070447522e-01 5.269624608398028043e-01
-1.782504587973707255e-02 -1.162311781831588536e-01 4.779396057583481516e-01
-6.540599490062473653e-02 -8.347292740198630767e-02 4.467542784035306025e-01
-1.076998814069159982e-01 -1.152090041990485730e-01 4.656507465105561017e-01
-1.592940727606500378e-02 -1.003505991104365891e-01 5.641980924713351220e-01
-1.071210573423192342e-01 -1.205033162186906204e-01 4.769130075947961012e-01
-1.719219755228749633e-02 -1.161868366748899789e-01 4.776427335568522725e-01
-8.821398278980148444e-02 -9.871502166418330559e-02 4.539737431347139474e-01
-1.372096707366286285e-02 -1.275161223036316016e-01 5.147027740199344725e-01
-1.144820485596856341e-01 -1.107243621851495829e-01 4.951067389609689062e-01
-1.184012297469668948e-02 -1.154747602013473651e-01 5.563048106430673601e-01
-2.695710766242741599e-02 -1.243896398205350251e-01 5.245143894194744805e-01
-5.396135435046039985e-02 -1.182492186258976147e-01 5.251007915240130108e-01
-1.177297507582640047e-02 -1.228473797237085996e-01 4.905635272890334075e-01
-2.095172347275530561e-02 -1.156549584765491773e-01 4.780526638380823146e-01
-7.429436547360776522e-02 -8.431831254078406279e-02 4.455349258561933090e-01
-4.320010719442625435e-02 -1.211691308127105515e-01 5.217911192703837964e-01
-6.818305625733470099e-02 -1.149906423292663959e-01 4.842345042057867310e-01
-2.550401266318876384e-02 -1.244964903859012290e-01 5.135315495129592067e-01
-1.179295478774159828e-01 -1.154316951687170273e-01 4.850804115382790771e-01
-6.300155743504061434e-02 -6.665153982571926650e-02 4.414711837756569168e-01
-5.410336398533425323e-02 -8.000115615839138716e-02 4.475387853047009812e-01
-8.508385560828359007e-02 -7.947702128704065005e-02 4.431359670001978612e-01
-1.888136941852799552e-02 -1.137758938131268049e-01 5.578267528567980582e-01
-2.707462965785104383e-02 -1.041957012726668907e-01 4.643413561960984537e-01
-4.224155880176069106e-02 -9.429305693803199939e-02 4.582007682104767277e-01
-9.935113131627523742e-02 -8.891998103321506475e-02 4.505288767785627368e-01
-9.302118230679201627e-02 -8.900628495142511032e-02 4.482171836851785995e-01
-4.110315413290515502e-02 -1.209021833768363779e-01 5.080425659170246799e-01
-5.398257590759805019e-02 -1.030559567025714496e-01 4.654589244528558600e-01
-1.116406696091289535e-01 -9.617587588494107276e-02 4.564061052924083262e-01
-6.804082589901842837e-02 -1.059612167396263849e-01 4.659600340680513098e-01
-4.190657960623909301e-02 -9.661852589857886087e-02 4.601572040131539088e-01
-9.485742728033984272e-02 -1.167752403485406709e-01 4.681993685616305800e-01
-1.109661169267068537e-01 -9.689636378637901670e-02 4.561240173606790904e-01
-8.875138440418482710e-02 -1.186632268434521242e-01 5.051348473760564062e-01
-1.642358899995309540e-02 -1.270078638002580251e-01 5.209972703542706807e-01
-3.972618454397659760e-02 -9.301429626542977169e-02 4.573492852406827458e-01
-5.736534501923871293e-02 -1.142879352005185534e-01 4.848300966715763938e-01
-1.036185575853222109e-02 -1.271312022222295945e-01 5.048210002591678736e-01
-3.655224596901265194e-02 -1.193918780045871292e-01 4.972113415853422480e-01
-4.770989330658286648e-02 -1.187401183382091746e-01 4.985548406041125369e-01
-1.012238221943863592e-01 -1.214597233397862602e-01 4.708149549876539663e-01
-1.108990342205788682e-01 -1.129807340398530369e-01 4.652889223708697175e-01
-3.841877557203136895e-02 -1.123012899877142701e-01 4.798704803960380239e-01
-1.459353224708221861e-02 -1.267639232639006241e-01 5.248688746684128104e-01
-9.952620956287102152e-03 -1.269732499721651364e-01 5.036614492802025111e-01
-3.531684172793231324e-02 -8.789415510774420404e-02 4.531993708807083854e-01
-2.367894465698392251e-02 -1.244707815172459153e-01 5.314271943218490390e-01
-4.276866494422947029e-02 -1.144558241990939751e-01 4.844873025678124723e-01
-5.191233515076520283e-02 -1.142223839632992149e-01 4.843468722264901993e-01
-8.923948602055496726e-02 -8.571540775789665556e-02 4.467239289322083029e-01
-1.035529440187668293e-01 -1.117464951280626728e-01 5.023442541307544529e-01
-6.128824833949299972e-02 -1.064630377405739320e-01 5.298086272062736413e-01
-4.633495362109396609e-02 -7.117124429388910212e-02 4.448103828196564025e-01
-5.817718165523273754e-02 -1.073896373765032553e-01 4.701734473932086544e-01
-3.701767978780903801e-02 -9.423623221148799689e-02 4.583458983625937622e-01
-9.854065973575554249e-02 -9.863366614764566831e-02 4.532999923541443654e-01
-8.004439793562508065e-02 -9.247994243365510736e-02 4.511103384236875291e-01
-3.377678280520136217e-02 -1.216556639167986481e-01 5.048440949865541372e-01
-7.384005136732986474e-02 -9.084241520574233564e-02 4.504418062314268778e-01
-1.332056872744493206e-02 -1.273457749758511726e-01 5.096545485642041129e-01
-4.872693729381127187e-02 -8.519297021568902895e-02 4.506966984909361873e-01
-2.951435825566399440e-02 -1.185214175976308237e-01 5.456197345397597598e-01
-2.302928430852011973e-02 -1.135683167178697939e-01 5.556130533348050404e-01
-8.300656007532759839e-02 -1.166164253114768679e-01 4.797917799641468473e-01
-5.864489493904502526e-02 -1.032490328758582238e-01 4.645360898925738891e-01
-1.789815982348651191e-02 -1.262062339666632227e-01 5.270930512048992433e-01
-7.539219647013016556e-02 -1.101373429021332007e-01 4.707807183492203618e-01
-8.911214893886672261e-02 -1.198353105865054696e-01 4.877067289189064292e-01
-5.325147199273193993e-02 -8.962918829910057616e-02 4.526534020040308692e-01
-4.906512577937741787e-02 -7.619823597584725328e-02 4.466934080311213418e-01
-9.006532443682560563e-02 -1.188138524661143808e-01 5.005443493109099640e-01
-7.063690705152454730e-02 -9.405937375437979642e-02 4.531951501829780127e-01
-1.218936014097594389e-01 -1.032227606508825113e-01 4.741564377200275238e-01
-5.863965860525108958e-02 -8.380174455467254147e-02 4.481776393038970907e-01
-2.936366273552343253e-02 -1.125780585034002190e-01 4.777752827532749658e-01
-3.692820607779610104e-02 -7.832419614238250727e-02 4.471563045705842510e-01
-9.857051326575223815e-02 -8.131762925739846604e-02 4.516278941066314556e-01
-1.486878308930462446e-02 -1.226424294923761926e-01 4.909752112064462715e-01
-8.841356053954101124e-02 -7.397463445696697559e-02 4.438291856185999640e-01
-1.178448918843960774e-01 -1.147213674079149426e-01 4.817220422407102465e-01
-6.555122368058137472e-02 -1.188328948810991881e-01 4.998809647194764061e-01
-2.347078657796683801e-02 -1.123607327519484944e-01 4.741098050021531063e-01
-7.779976767323118492e-02 -9.816387990618599679e-02 4.557910835071319888e-01
-8.320477817730051462e-02 -1.166058175376290251e-01 5.138329100987227838e-01
-6.150676487829926514e-02 -6.785036005303902995e-02 4.421708994339098031e-01
-5.787388284338525202e-02 -1.126360364225304778e-01 4.807920862236835235e-01
-7.695995839681535333e-02 -5.890704519010567936e-02 4.395831576247055117e-01
-6.104180808424711918e-02 -1.185004095136251434e-01 5.192152185225145100e-01
-7.124582458068243196e-02 -1.066204167940775632e-01 4.665499784643082903e-01
-4.235811444448642216e-02 -1.150918368568233235e-01 4.858662351385726330e-01
-9.592218041889427615e-02 -8.501155932711920715e-02 4.475792981146097804e-01
-7.703645504104207620e-02 -9.659260565802026133e-02 4.547256523060806410e-01
-4.059557957687388169e-02 -1.213677812597378225e-01 5.240471273455751255e-01
-7.508139063790442158e-03 -1.288516857841053298e-01 5.177834798182000542e-01
-3.451229530667242890e-02 -1.215372896406847203e-01 5.051586965921095462e-01
-1.356122769972784720e-02 -1.121165387927670481e-01 5.595694076151936924e-01
-4.390202324422550623e-02 -1.196398604182866560e-01 5.327025905926421334e-01
-5.134430631586161392e-02 -1.201409840669727391e-01 5.111037790338648357e-01
-7.324210450918364201e-02 -6.575300986265192327e-02 4.387232209117389869e-01
-9.128920081892606675e-02 -1.188035551931541645e-01 5.002248050441061578e-01
-2.280736090544903741e-02 -1.191691019686235836e-01 4.867433029351920237e-01
-1.177554844535534523e-01 -1.118397997611100536e-01 4.733175854171489116e-01
-9.583304659347906262e-02 -1.055201658655330055e-01 4.571717342472628176e-01
-6.367945450761972048e-02 -6.266083199138663962e-02 4.405027815226966181e-01
-2.585153571745943055e-02 -1.213981369635379615e-01 4.955896907139749064e-01
-8.806856208929167429e-02 -1.007237859728866008e-01 4.554510912643525145e-01
-1.073835097343896067e-01 -9.805438483758407986e-02 4.546436824524778264e-01
-4.703817825880754477e-02 -1.080846115810387975e-01 4.732751830713547991e-01
-3.381704505784970116e-02 -1.085471724586774128e-01 4.725818947570458173e-01
-7.633218930351620690e-02 -1.126440674785272184e-01 4.746711519283288716e-01
-1.494714830054145842e-02 -1.233157660986945875e-01 4.930149193785693940e-01
-3.089887156433353613e-02 -1.196482260087372851e-01 4.936756563056402536e-01
-9.361228674927185578e-02 -1.133078698856845729e-01 5.105603914717971037e-01
-1.223726330719742891e-02 -1.240317903738515498e-01 5.358949850364118639e-01
-4.008834129456531614e-02 -1.087368424692325974e-01 4.734914093517704758e-01
-4.713875409971111929e-02 -1.204774692695780858e-01 5.122630996756647459e-01
-3.670297110600063972e-02 -1.109460030277013426e-01 4.771043186458607810e-01
-4.563551658226869950e-02 -1.204508240202163682e-01 5.275024107061193623e-01
-4.387525500127485018e-02 -1.118718281448650292e-01 5.378939330673947472e-01
-4.338252196553887829e-02 -9.393146068850449781e-02 4.578480559355821433e-01
-4.076801400806893960e-02 -1.109984532986261485e-01 4.775225793316471012e-01
-5.538710625024039630e-02 -1.058880300852675233e-01 5.335105999969068646e-01
-4.988246213848292893e-02 -7.903896385745366737e-02 4.476930183174903655e-01
-5.214886122136487556e-02 -7.886575607771040275e-02 4.474210398451032855e-01
-7.848389094079004369e-02 -1.119303177849433062e-01 4.717475053353006875e-01
-9.983472402938252388e-03 -1.280386040952770643e-01 5.109294993096183957e-01
-8.015315208013672199e-02 -1.138610324882598779e-01 4.749841264505170191e-01
-3.696446089334033680e-02 -1.033594372243483439e-01 4.663108926948964505e-01
-6.768012268705055068e-02 -5.876826380843504921e-02 4.391700103423682444e-01
-3.264315694040992311e-02 -1.230411142588337392e-01 5.243440993969236130e-01
-9.070956873921356967e-02 -1.105414806396957939e-01 5.134977775879639994e-01
-1.891333001379060658e-02 -1.241833831956427325e-01 5.355342450095903484e-01
-8.501629798755676315e-02 -8.470830015986827166e-02 4.454430089847438712e-01
-5.158273430546286148e-02 -1.200979312734949817e-01 5.169436290487453567e-01
-5.373743574373118781e-02 -1.197902922970310313e-01 5.085263484580482274e-01
-9.379659628133733829e-02 -8.068577701644912004e-02 4.475549451708610293e-01
-3.863550060202194936e-02 -1.213339430715980605e-01 5.098296843860684602e-01
-9.257747920231335081e-02 -7.820227892812728343e-02 4.473450279508026650e-01
-9.799846973903156289e-02 -1.191794172081428460e-01 4.911778288980049312e-01
-7.088471428028234045e-02 -7.716440054174558694e-02 4.425249887406358940e-01
-2.800058102860058379e-02 -1.151122110962312928e-01 5.510285797881585568e-01
-6.831094456589827113e-02 -1.183528083718173723e-01 4.957669594825334647e-01
-5.161448604480438351e-02 -9.872379027312135069e-02 4.606326884427194290e-01
-9.927576995614298405e-02 -8.043690883461843133e-02 4.538481475340769844e-01
-1.090285426321313811e-01 -1.172075453093217451e-01 4.691673759645442754e-01
-7.344581517904248680e-02 -1.185709787929415809e-01 4.924449329151042720e-01
-3.224062334769770000e-02 -1.186008213729281419e-01 5.431072377386667593e-01
-8.344956326342138631e-02 -7.547288987923661541e-02 4.410748109637854797e-01
-4.710408829098189365e-02 -1.056612849798054810e-01 4.694817669687965100e-01
-5.946304793315559251e-02 -6.318095079477371867e-02 4.412598976240721393e-01
-5.619922135318568962e-02 -1.181266490972816136e-01 4.980129146373358240e-01
-4.721892151351192446e-02 -1.205197939052067013e-01 5.169208912864818872e-01
-6.145141428535672717e-02 -1.060731109998674371e-01 4.672066920196839002e-01
-8.711998264423199967e-02 -9.731141701967019331e-02 4.533343716474670382e-01
-5.272438453316568435e-02 -1.127679321032196980e-01 5.324703071664119713e-01
-9.784132617123492137e-02 -1.188429865879623293e-01 4.688447712248374755e-01
-3.693397327905596772e-02 -9.122204153363930312e-02 4.558359173111758422e-01
-6.784894422058647401e-02 -6.387390335015069587e-02 4.397595861065927703e-01
-7.292008852588621748e-02 -1.193058668367994041e-01 5.075239099789633501e-01
-1.102444011929594597e-01 -1.157060208882164237e-01 4.959825973772054586e-01
-9.720828397233122198e-02 -1.116881504728994973e-01 4.608229064596688906e-01
-4.965426790589678313e-02 -1.201474470004320616e-01 5.203147362882947213e-01
-4.144161645031197577e-02 -9.559492347569925608e-02 4.593292290179267767e-01
-9.623005205405536777e-02 -9.781003834674294184e-02 4.528041931922022756e-01
-7.726119410883110217e-02 -1.185747317400529244e-01 4.909957251260659294e-01
-2.989781965082934784e-02 -1.046482099752980427e-01 4.662432785467784946e-01
-2.757967804091667960e-02 -1.220007442503095035e-01 4.990063002234947365e-01
-3.188343679434645084e-02 -1.120139410038854116e-01 4.779739065958950039e-01
-1.015390099132061630e-01 -1.197836754645628804e-01 4.848556417186858369e-01
-6.589482769283543095e-02 -9.830975513463226234e-02 4.574430666589674455e-01
-2.390815715500375221e-02 -1.232140480134976124e-01 5.376448994774463142e-01
-7.977919678434537698e-02 -1.154156271644165982e-01 4.807611702257435504e-01
-2.240416841390990843e-02 -1.175017673476613511e-01 5.519745339811742424e-01
-1.165245272733893139e-01 -1.049576278532498436e-01 4.635932349508926631e-01
-5.959824882389929551e-02 -1.063959856776472701e-01 5.307807774115326227e-01
-3.363838613330657340e-02 -1.199668746148856990e-01 5.392533712005326274e-01
-1.024650083526303518e-01 -1.074888530950025428e-01 4.575790685119214829e-01
-7.229674618603924852e-02 -7.442212726570911208e-02 4.413504708360466711e-01
-8.266436595084382388e-02 -9.860073935486605989e-02 4.552682243424598374e-01
-6.910424880609410125e-02 -9.638587136288553903e-02 4.552450091006552957e-01
-3.461379305584127986e-02 -1.217565801641417311e-01 5.066211976371494119e-01
-7.243078562986496327e-02 -1.170933208347505750e-01 5.167850138595211362e-01
-2.226996539137406431e-02 -1.250271589548368478e-01 5.082137154654117195e-01
-1.197487668978429592e-01 -1.075458177637499679e-01 4.727293825365269653e-01
-7.030452099844164415e-02 -1.183688098378017223e-01 4.940587365154096022e-01
-6.961873841449528477e-03 -1.288538690504526241e-01 5.170134356457818381e-01
-8.208182921809052679e-02 -7.926759107597516896e-02 4.425464045434703286e-01
-9.433690658616736280e-02 -1.055491769987267209e-01 4.576282958364984998e-01
-1.686820495605334883e-02 -1.135912786327334806e-01 5.581560532118617912e-01
-2.811745995210537807e-02 -1.023485200926159688e-01 5.519313761790529682e-01
-5.964727105819466607e-02 -9.138362942176632420e-02 4.527202275653367525e-01
-4.627233504393000324e-02 -1.095241678829589060e-01 4.754787712925372944e-01
-6.542012914496934950e-02 -1.063065630731825778e-01 4.667156897975903718e-01
-2.068266772196671044e-02 -1.119719394110674643e-01 4.720331962001553250e-01
-9.892011325004750055e-02 -1.205351214045417146e-01 4.801611664793192236e-01
-1.102493081453926743e-01 -1.192093763845942372e-01 4.776476510399099151e-01
-9.606636541329890977e-02 -1.193241609939891257e-01 4.905150875298466828e-01
-7.794640500449322162e-02 -1.194348504406846784e-01 4.953250359063158803e-01
-3.434349922622483009e-02 -8.716041041847366611e-02 4.523082639907264890e-01
-1.141721676748999048e-01 -1.142887671689479107e-01 4.702773698542106473e-01
-4.329560330895708409e-02 -1.197075450138772312e-01 5.326364675602166532e-01
-1.128070817539772036e-01 -1.085672113226654883e-01 4.973666856577849682e-01
-7.818738432674787742e-02 -1.071499634801287293e-01 4.647651639231978882e-01
-1.488918379807024212e-02 -1.272093731930223071e-01 5.220335108824565307e-01
-4.366536693815593201e-02 -1.111667349747854777e-01 5.384061703699473123e-01
-4.820686313570562986e-02 -8.118124263400351703e-02 4.487313355075652210e-01
-2.646703486385316995e-02 -1.216980517543518880e-01 4.968589514343983993e-01
-4.677314940476227922e-02 -8.007659230953206864e-02 4.485325452178711148e-01
-5.261664771102118887e-02 -1.182765248311106882e-01 4.977583008467748038e-01
-6.259772199108804003e-02 -1.188538109551198485e-01 5.144041763843062443e-01
-1.065687242027235776e-01 -9.499160462155464835e-02 4.536364666053124828e-01
-6.737690533635443124e-02 -1.139867507487384302e-01 4.819855958358528203e-01
-1.652345631262647566e-02 -1.165035722217124953e-01 5.550136385710947584e-01
-3.861496571178577725e-02 -1.185901754812445225e-01 5.371865168433551663e-01
-9.020294920370543201e-02 -9.328411559193790226e-02 4.503992088148761619e-01
-3.033415020535784948e-02 -9.018017599011997343e-02 4.533926588588333972e-01
-4.310871886741386716e-02 -8.243508285375218680e-02 4.497670894365742855e-01
-8.899845432610375973e-02 -1.194456136833704218e-01 4.921961007148787370e-01
-1.009958295340192269e-02 -1.009502208307616611e-01 5.659871724571862162e-01
-5.612132905113521864e-02 -1.085064060429322685e-01 5.324305913123963396e-01
-9.011574391912012538e-02 -1.068237508563988220e-01 4.588473665069644492e-01
-2.834372191276772132e-02 -1.057250748912106492e-01 4.671457470251725863e-01
-1.647133935130914301e-02 -1.083051362678794649e-01 5.615812582190795599e-01
-9.727947073576870274e-02 -1.204604441471737730e-01 4.745725678061597508e-01
-1.046716859070957878e-01 -1.107430021737606241e-01 5.022043940925285943e-01
-4.513076423853922686e-02 -1.205740248308665857e-01 5.102880153348848813e-01
-2.289007069396524832e-02 -1.122265212147870589e-01 5.569469514386106157e-01
-5.043679259649935104e-02 -1.191350914130476918e-01 5.021320369023820618e-01
-6.882643502819769943e-02 -1.165823860541213286e-01 4.875843199023743857e-01
-6.580207424633710556e-02 -9.296241093857324223e-02 4.528776136675075614e-01
-7.558382448861536429e-02 -1.194248619309843246e-01 5.056407531560672686e-01
-8.525566454189377474e-02 -1.009437032176141447e-01 4.565037236412559096e-01
-2.810759636085736687e-02 -1.093164905136198572e-01 4.721800507674674963e-01
-4.145297435172364681e-02 -1.169920960192612491e-01 5.365184805131795187e-01
-8.038181873398962674e-02 -1.126688649459046121e-01 4.719059469666657680e-01
-8.435032074747231268e-02 -1.194138998144882724e-01 4.998475051397209823e-01
-9.976422420306785277e-02 -1.117981997362359620e-01 4.598158743233767276e-01
-5.719999389678819685e-02 -1.191609399130463820e-01 5.054187745616250949e-01
-1.721730892760520160e-02 -1.110477002117161716e-01 5.599987853395044235e-01
-5.665366288397066102e-02 -9.196584441079458383e-02 4.535639993583500673e-01
-2.446668073451823203e-02 -1.116118469475891051e-01 4.735695578597929334e-01
-1.118931949282895022e-01 -1.031261511753243931e-01 4.586972771582990549e-01
-7.182157043375488048e-02 -5.409911791228896177e-02 4.410093686919134837e-01
-3.812994082738636881e-02 -1.216700117664748088e-01 5.259279540954419074e-01
-7.017160326685936700e-02 -1.004982285923909369e-01 4.587475323318098153e-01
-1.070134451458976121e-01 -1.008755761879242263e-01 4.554961549581656999e-01
-1.058565473823618597e-01 -1.121385200838352775e-01 4.602176806389454145e-01
-5.374153748161807076e-02 -1.200925020478133820e-01 5.111175903163992507e-01
-9.778789374420487901e-02 -1.108807525724934406e-01 4.598691776607061743e-01
-1.174474614797274136e-01 -1.125843958606195516e-01 4.737980528199228769e-01
-9.487620439775132364e-02 -1.090286869894979693e-01 4.595116216039532575e-01
-9.121312698372720240e-02 -1.190123986512224286e-01 4.983504501888792459e-01
-4.203513944144884884e-02 -1.163059252466559224e-01 4.888842505227025681e-01
-4.844913670658901328e-02 -1.138097688288751408e-01 5.340506350680267467e-01
-5.550994445616751899e-02 -1.160993879176960841e-01 5.282588885886394525e-01
-8.351982617898356942e-02 -1.192724625841129898e-01 4.931202049535766685e-01
-5.781957598060250003e-02 -1.095711133454335684e-01 4.740126096586226301e-01
-7.075842890619069014e-02 -1.132981131283180426e-01 4.797875959268614876e-01
-3.295664504983038257e-02 -1.201857866884766951e-01 4.968575485762504740e-01
-7.384408749852898468e-02 -1.195444015366247809e-01 5.037041719120736172e-01
-5.835752940045819959e-02 -7.959605251416058957e-02 4.464945330308049409e-01
-2.123620974827644670e-02 -1.251132395687939158e-01 5.055328768180608057e-01
-7.876696091326020055e-02 -6.559367463309034862e-02 4.380665704338178590e-01
-7.372427442625401062e-02 -7.963463456713931743e-02 4.428530800900953857e-01
-1.949185087319584703e-02 -1.254466862259647486e-01 5.051725116930293469e-01
-1.040423164789892330e-01 -1.218171416148125658e-01 4.735856956772097059e-01
-9.968504820953411061e-02 -1.174099280457744920e-01 5.007128823288324870e-01
-8.568397021833740190e-02 -6.723053729543294887e-02 4.415433569528293689e-01
-1.855807907099589135e-02 -1.201184892985558972e-01 5.484239065509085576e-01
-3.432801718396333995e-02 -9.419917676386559136e-02 4.577265857625807954e-01
-7.592469208651328461e-02 -1.150065653966165363e-01 5.198322307902254469e-01
-5.557341328687498416e-02 -8.075962251133290970e-02 4.475259211425770545e-01
-6.963998063473066102e-02 -1.185298620307200651e-01 4.958384703979999975e-01
-1.800964592380110280e-02 -1.047772454199664138e-01 5.626463362904914334e-01
-1.143888212069741339e-01 -1.108365610379687810e-01 4.952213286839404760e-01
-8.118511620200914713e-02 -7.769432189568924174e-02 4.417565053855107560e-01
-5.754193819831282530e-02 -1.195690939409493753e-01 5.139655992644578397e-01
-4.969153733081610458e-02 -8.547620443279037306e-02 4.506687260642893156e-01
-6.187671166945069717e-02 -1.177727240321713581e-01 4.962130207559306561e-01
-2.199152531962202464e-02 -1.256533926962943026e-01 5.192906404458811354e-01
-7.712022694587322702e-02 -1.142765961819165316e-01 5.202454479663956022e-01
-5.282311278050350056e-02 -1.185706520079822107e-01 5.252241002911385293e-01
-6.796103715655300859e-02 -1.137685793603283729e-01 4.813548300566291571e-01
-1.169767663572357091e-01 -1.030589092368328491e-01 4.636758574102101682e-01
-2.428480623225558188e-02 -1.006661855254684934e-01 4.590819565378703171e-01
-1.021429159792647950e-02 -1.010847356869283148e-01 5.659179351857718254e-01
-4.349065011935841080e-02 -9.584256386391543092e-02 4.592905103435032110e-01
-2.155385333315533100e-02 -1.001192505594839938e-01 5.613997835419720639e-01
-9.678551062139437167e-02 -7.970503402554245109e-02 4.499862313449401463e-01
-1.111341348803456391e-01 -1.168873955979180118e-01 4.913729298808410806e-01
-3.760671908495220178e-02 -8.285276360027679643e-02 4.498235148902898217e-01
-2.487743972359764480e-02 -1.248276657709688348e-01 5.273895256719832725e-01
-5.178967096789502400e-02 -1.196339487933738982e-01 5.062591571041235028e-01
-1.138240528727289987e-02 -1.258139968815442378e-01 5.305055106607386994e-01
-4.685416874037544310e-02 -7.053153147820849511e-02 4.446095852644718072e-01
-7.877291560911253709e-02 -1.191785628333476704e-01 5.081689569598110134e-01
-2.702076191579913522e-02 -1.213161659202592613e-01 4.961260634500169187e-01
-6.035036108771629770e-02 -1.175883687123934623e-01 4.957021855502837804e-01
-5.290130545939070172e-02 -1.086444089393014956e-01 5.345901807857837973e-01
-2.890065517200558071e-02 -1.051685623337783315e-01 5.519470746347522327e-01
-2.415511596581661202e-02 -1.249289400902800495e-01 5.150274325408283893e-01
-4.878847753067136472e-02 -1.197804956386931546e-01 5.254716628720293992e-01
-2.780476606806177309e-02 -1.218909679397434664e-01 5.394715575939318386e-01
-2.873387891533881952e-02 -1.045119162064416657e-01 5.518732737154862233e-01
-2.726431060191153444e-02 -1.053184201800528158e-01 5.545664305850116493e-01
-7.906540605216480500e-02 -9.561984398462262946e-02 4.536878089591169227e-01
-5.864051383656908312e-02 -1.194458082400632476e-01 5.128536154763747579e-01
-5.043707387191592034e-02 -7.406647409330538445e-02 4.457315969942559075e-01
-6.402223196345985246e-02 -1.073890918235163722e-01 5.282250764734861548e-01
-8.097514497879597373e-02 -1.193567799909501237e-01 5.045566046090935730e-01
-7.476391264901204037e-02 -1.167113072392808454e-01 4.854717367311752740e-01
-2.674549340954646484e-02 -1.236639763383856200e-01 5.069309773741300651e-01
-8.742024388109755073e-02 -7.005237728054368451e-02 4.435576907302806182e-01
-6.050191586099841479e-02 -1.155141205667602478e-01 5.268457200828744469e-01
-1.149333000972364155e-01 -1.049360757675320277e-01 4.617902697128556389e-01
-1.126987875130331107e-01 -9.548947698321137711e-02 4.579867757864236610e-01
-2.543282150122114227e-02 -1.223398408752194022e-01 4.980631859326994371e-01
-2.101030658252648481e-02 -1.241923426786250007e-01 5.350860677626140260e-01
-2.414336553449519460e-02 -1.204821724948425543e-01 4.913030690499661235e-01
-4.807755791496131498e-02 -1.061718514139435715e-01 4.702705954448774817e-01
-3.636134331731963321e-02 -1.107612845471120794e-01 5.425269103770071766e-01
-3.734816736441734508e-02 -1.200893705550888368e-01 5.007989640488043070e-01
-4.926513075286250570e-02 -1.199866003381805657e-01 5.225969516131974135e-01
-9.756706699101268254e-02 -1.190598590417553809e-01 4.934951049479759377e-01
-6.933316741486686419e-02 -9.088776306070875388e-02 4.507306142183006292e-01
-1.126616304740939503e-02 -1.244216605916728252e-01 4.949652878633179487e-01
-7.557742455941002246e-02 -1.165299611570561056e-01 5.174924108241891751e-01
-4.053148355111164253e-02 -1.011412389716642574e-01 4.645849620094140708e-01
-1.064682087617321027e-01 -1.119584357326484647e-01 4.614253331371355182e-01
-1.080253814494828157e-01 -9.475432531795499602e-02 4.550351769567683724e-01
-1.989064580971655269e-02 -1.207997732136523172e-01 4.889902301292657905e-01
-6.852332242403774698e-02 -1.001407007860629084e-01 4.586566852103114433e-01
-2.679210718353328829e-02 -1.224098598498220697e-01 4.999327768289485441e-01
-1.012329576526198038e-01 -1.214853939361524304e-01 4.711754845688334026e-01
-9.169651875946550901e-02 -7.758117777587254793e-02 4.465545334049511039e-01
-1.196713440595102290e-01 -1.112023339858239368e-01 4.844301491751483724e-01
-5.140007049278852436e-02 -1.121835687117904296e-01 5.335806240051578220e-01
-6.352155398758119187e-02 -9.831254638631051201e-02 4.579299371333321877e-01
-5.590348614526857024e-02 -9.276144401304231568e-02 4.544463236560777331e-01
-2.631075335579969796e-02 -1.160898270708686369e-01 4.820332255851779713e-01
-5.444480260809354821e-02 -5.651454453804405365e-02 4.405890280063390896e-01
-8.926056736755534626e-02 -7.488649032442780407e-02 4.444681270418331387e-01
-4.038061544184606139e-02 -8.008776133154919818e-02 4.485662760485992773e-01
-5.608645448757954011e-02 -7.568734341593884307e-02 4.455280954021351714e-01
-1.403314532711795980e-02 -1.190671360030960552e-01 5.507751855297488008e-01
-7.495436276923052310e-02 -1.077595821535855120e-01 4.668787070145004603e-01
-5.780233180173912494e-02 -1.061508633376559291e-01 4.684555440767015355e-01
-2.368143170247549376e-02 -1.212421010921462261e-01 4.932679962438079047e-01
-7.729461583511547385e-02 -9.808406293319343883e-02 4.558201597171714359e-01
-3.341710565844872860e-02 -9.061186752878259976e-02 4.547062427478814617e-01
-7.694425123511473841e-02 -1.140272785468441213e-01 5.206592984477823594e-01
-8.471136774540601044e-02 -1.170351419696637751e-01 4.813007841798874753e-01
-2.550382814357397138e-02 -1.212231471887338513e-01 5.426631664550811696e-01
-4.022049190584357087e-02 -1.200188255349358135e-01 5.333931336229045250e-01
-9.498886852836310735e-02 -1.050103317264872022e-01 4.573471560513280854e-01
-2.980380626725997670e-02 -1.111740957503773580e-01 5.512883937130415024e-01
-1.081350892450062412e-01 -1.157825448805437224e-01 4.970799595978618313e-01
-6.179477821790365505e-02 -1.100364164958177737e-01 4.747925623728749822e-01
-6.828292314832509757e-02 -7.507087040443423398e-02 4.424143728752340521e-01
-9.279856594817645354e-02 -1.016488190468295277e-01 4.552060380042263210e-01
-6.181140682379732132e-02 -1.112225514835150225e-01 4.773770897862566476e-01
-1.639666561039593989e-02 -1.186683752241547152e-01 5.515277671214446897e-01
-9.899589790073408391e-02 -1.152575146835755210e-01 4.626460987838386663e-01
-1.931746756466105885e-02 -1.207451620068885623e-01 4.884159905625850007e-01
-2.061092785810704139e-02 -1.118210374014898673e-01 4.717735828791080888e-01
-4.101187044448798003e-02 -8.673743003714130817e-02 4.523443709998096751e-01
-9.517993559614421062e-02 -9.443737892009944346e-02 4.508824154834591980e-01
-1.166624920911771973e-01 -1.149950898742756328e-01 4.769351383332419148e-01
-7.711779464220178126e-02 -1.027867595746100732e-01 4.603827827897075120e-01
-2.368659566219016160e-02 -1.252752945845333199e-01 5.254571834531810426e-01
-1.082744384721000819e-01 -9.413690299458576938e-02 4.553110621104026756e-01
-1.888458717565989417e-02 -1.234870133864639785e-01 4.965803248443106388e-01
-5.340937013506125847e-02 -1.195606610332111686e-01 5.063092348325228809e-01
-8.127068336216201894e-02 -1.168687829925039307e-01 4.843381187830735901e-01
-5.025605446172275864e-02 -6.163175713026672331e-02 4.417105886073477428e-01
-6.178664486351773122e-02 -6.563952067389576539e-02 4.413981723358178511e-01
-8.723968800310151483e-02 -1.188268776603883248e-01 5.048159264400794433e-01
-7.933342315193753214e-02 -1.157224454787601775e-01 4.820562028636689034e-01
-8.964321475323940025e-02 -8.327728501755662927e-02 4.456087230562550960e-01
-2.854773848041653947e-02 -1.167176622833247662e-01 4.852704990668313956e-01
-5.358555961544094609e-02 -1.198451494971163461e-01 5.088801460216686445e-01
-5.599991056435675574e-02 -1.104323215695840604e-01 5.318441059443591579e-01
-7.266225124642022859e-02 -1.139794243660515044e-01 4.804443232199407388e-01
-7.669254697430014089e-02 -7.947869162257878428e-02 4.424201416056154357e-01
-7.544653665293341027e-02 -1.165104503007526743e-01 5.175446105176220168e-01
-9.232449742939059789e-02 -1.183775806662984431e-01 4.745581099482598098e-01
-2.554973865270267555e-02 -1.017218590411846091e-01 5.566768816482340343e-01
-5.913937564556283333e-02 -7.644078707960373642e-02 4.452703480551222781e-01
-1.263291239838571639e-02 -1.035041797687625276e-01 5.646139589003159598e-01
-7.088160630409752472e-02 -1.155870377580425074e-01 5.203235449749419317e-01
-2.453656222728174685e-02 -1.229803323797839798e-01 4.998868159937200906e-01
-5.887570888611223796e-02 -1.090534798182907078e-01 4.727830848080520343e-01
-3.576475877577230122e-02 -1.059400724976514996e-01 4.691905480442927767e-01
-3.412023850159252164e-02 -9.896509752768042900e-02 4.613738098307061941e-01
-3.817707920580613173e-02 -1.215691611229696573e-01 5.269191971314185485e-01
-4.356528094640581966e-02 -1.207514126323790821e-01 5.266159354214556831e-01
-3.223662344793077478e-02 -1.070997342700966970e-01 4.703539439577048564e-01
-1.197003950496879077e-01 -1.087852684034830569e-01 4.823315611969418715e-01
-5.659652791663995902e-02 -1.196462864211568777e-01 5.160590179744205530e-01
-1.164623089509062154e-01 -1.086992551558417508e-01 4.667135483170558041e-01
-7.079503232671306712e-02 -1.175564828480051838e-01 4.895974698719968710e-01
-9.053309758994000644e-02 -1.179388059935531780e-01 5.062589180327958793e-01
-2.299968307007755133e-02 -1.001720398320972288e-01 5.603205802879716035e-01
-5.673100620902565838e-02 -6.745208137918835833e-02 4.427914546361068071e-01
-8.472946630765600118e-02 -1.162623579265729956e-01 4.762235194752811873e-01
-1.039175045786688290e-01 -1.210051542851332124e-01 4.767665134642069535e-01
-2.610185836570207835e-02 -1.243772407507093419e-01 5.281290946732642988e-01
-6.231877946787656858e-02 -1.106798501283941527e-01 5.280942307771273603e-01
-2.047092788648820910e-02 -1.258447565882733488e-01 5.149928091406417163e-01
-1.813674077495512627e-02 -1.076684906447135381e-01 5.615448530198562382e-01
-8.938824487140130046e-03 -1.250628338214089252e-01 4.960509573823847496e-01
-1.121149759132045315e-01 -1.078820837996295329e-01 4.622271545826464045e-01
-7.715960707812209718e-02 -7.557375348603781462e-02 4.410210977265038856e-01
-5.023587722729160737e-02 -1.119892130768830735e-01 4.793439036469452352e-01
-9.802273964193840283e-02 -8.015875088190491105e-02 4.518161066658117897e-01
-1.353784035280071463e-02 -1.222826742132673145e-01 4.895992701632759792e-01
-9.018525723347985135e-02 -7.983032884940086116e-02 4.449290689278219690e-01
-4.719098162564241278e-02 -1.169324464084020854e-01 4.911335758769895254e-01
-2.637666606747021344e-02 -1.235189570538184345e-01 5.044137582978468481e-01
-8.593139336549299179e-02 -9.432312032162395998e-02 4.515595198740761651e-01
-4.509920000694642855e-02 -9.678385407675015040e-02 4.598989711578688744e-01
-9.301219537235137780e-02 -1.170646043971224626e-01 4.708452961872658937e-01
-1.046881932655014807e-01 -1.208930383271516751e-01 4.767212183681071580e-01
-9.216237874068755609e-02 -1.138141648781583332e-01 5.109823270266504736e-01
-9.947663255341322730e-02 -1.201227553080440325e-01 4.826008107107876421e-01
-4.258500801089906002e-02 -1.105278309284164207e-01 4.768405065563967593e-01
-7.385870784366346808e-02 -9.639252203476671166e-02 4.549703656325470025e-01
-9.976221275669175381e-02 -1.184655317913547168e-01 4.966520625508848985e-01
-7.889538613709322357e-02 -1.137645539417125595e-01 5.195940327521926250e-01
-5.388809218889368396e-02 -9.273046299856765873e-02 4.548977638863857531e-01
-8.461369549018780967e-02 -1.181225044787606454e-01 4.876654760459659399e-01
-1.108261207816966382e-01 -1.107875172581658796e-01 4.637983828598623570e-01
-1.092526489025519021e-01 -1.203592050546598430e-01 4.739497523376234311e-01
-7.646551565779391435e-02 -8.549495587066620328e-02 4.463037987510184990e-01
-1.190298947758896136e-01 -1.104022633335704773e-01 4.770988322575629437e-01
-3.776703730369785489e-02 -1.209191630183537869e-01 5.059689148313966101e-01
-2.962103861898657264e-02 -1.206723819604193643e-01 5.411890163356222194e-01
-8.763047346178613750e-02 -8.824707521059718673e-02 4.477104855751171120e-01
-5.990623327896338335e-02 -8.396852712342690872e-02 4.479868675848264203e-01
-7.055913609154780552e-02 -1.151588961335049954e-01 5.210356515375104136e-01
-6.571560995149687556e-02 -7.088429529736388346e-02 4.418417355318587925e-01
-4.839878219572420204e-02 -1.089260315180792804e-01 5.366287640039958395e-01
-1.195916751777644227e-01 -9.918728403537137306e-02 4.702349075130273781e-01
-4.833871633258536582e-02 -6.238534251289892113e-02 4.420753905139604978e-01
-6.786778654863273585e-02 -1.187090384753740763e-01 4.987047592716788436e-01
-5.073389901379024569e-02 -1.088748473955824803e-01 4.742759234799582280e-01
-4.949484778369052373e-02 -1.200367704847834366e-01 5.090832850343143257e-01
-1.219460896117766785e-01 -1.029172278967142584e-01 4.735531359953070729e-01
-7.850768246217941504e-02 -1.111489077749989174e-01 4.707995957379134677e-01
-7.172101456810269469e-03 -1.287914326579282231e-01 5.228950909876270980e-01
-1.035850788574653285e-02 -9.886727387885241303e-02 5.667235020427094927e-01
-2.885191162635916337e-02 -1.075259559781731877e-01 4.699510678375622974e-01
-3.246212560050603518e-02 -1.161754313681424844e-01 5.452066281279305260e-01
-9.818497415930177441e-02 -8.299293094137330518e-02 4.497682597481788003e-01
-4.267328133933501882e-02 -1.211843533733338862e-01 5.168134780778095294e-01
-7.986718821351460051e-02 -9.940677468544167894e-02 4.564713514238003533e-01
-4.151061517924247574e-02 -1.140779923906490578e-01 4.837208509265280565e-01
-7.984805605327284506e-02 -1.067736606772229646e-01 4.636397709500139630e-01
-7.492889542426343918e-02 -7.142026450615653055e-02 4.400042789110665820e-01
-3.791926601455559986e-02 -9.119860562125259307e-02 4.560084835769154799e-01
-5.398173682341952245e-02 -1.186928268162762701e-01 5.226147775466341017e-01
-4.708313010477583466e-02 -6.708069091046003907e-02 4.434849662196988507e-01
-3.083071429075969969e-02 -1.072962412205523131e-01 4.702452505484387424e-01
-2.050948908000368651e-02 -1.150543610233900060e-01 5.558187497105286923e-01
-1.066687164792591049e-02 -1.241058792878809575e-01 4.936357524264790020e-01
-5.072388410808814641e-02 -8.087419801397530139e-02 4.482684424717889304e-01
-2.971824640973248777e-02 -9.370237622100674457e-02 4.558533959826407966e-01
-2.769506507715709456e-02 -1.050330925936192733e-01 4.658442611021124669e-01
-6.162407432528383550e-02 -1.065375750952965439e-01 4.677161766327643799e-01
-6.553303691071114823e-02 -7.854358284935773760e-02 4.442881006962592916e-01
-1.049100088985436274e-01 -1.165684889192625390e-01 4.977294387930409902e-01
-1.703688334275394248e-02 -1.173465405982161147e-01 4.800246622933918572e-01
-9.918044040351677026e-02 -9.930896802175748217e-02 4.536145152551686044e-01
-1.152854954758203015e-01 -1.159025987467462576e-01 4.761591129990415672e-01
-3.972940728181220682e-02 -1.215635290341489927e-01 5.163244683041456895e-01
-7.931474244635298987e-02 -7.710334992765756346e-02 4.413374461911228064e-01
-8.884371294157814014e-02 -1.030470597178921033e-01 4.569405150063005072e-01
-7.035831598406303011e-02 -1.001171705010960034e-01 4.584079752605366154e-01
-5.498808404057425880e-02 -6.146579001373404100e-02 4.413893203116581732e-01
-2.225575702506317130e-02 -1.114360211001570455e-01 5.581018158426966913e-01
-9.822762209521594678e-02 -1.191635137951007617e-01 4.912359216661643102e-01
-4.089377727735017676e-02 -1.208801389287475492e-01 5.291730948957379388e-01
-2.816418296705977542e-02 -1.237964159612281179e-01 5.274330457134801531e-01
-7.200933716592602951e-02 -1.129565311583149018e-01 4.784485962410771620e-01
-1.007439803868753758e-02 -1.276730078388350342e-01 5.263025059286206009e-01
-2.397010256234869546e-02 -1.011021649277657475e-01 4.593060974766713378e-01
-1.147569657097531962e-02 -1.248269261821486481e-01 5.333486035584138474e-01
-7.078716603694094889e-02 -1.180190971050311260e-01 4.911888699219564280e-01
-3.209842781929417299e-02 -1.135708039287128962e-01 4.810747409700056321e-01
-2.409114761721475526e-02 -1.237392945758357954e-01 5.347882400965302541e-01
-5.010050426551846542e-02 -1.199280450493934447e-01 5.209857209772418285e-01
-4.362444493331341100e-02 -7.429213256217562233e-02 4.459837162482743200e-01
-1.060658831284759934e-01 -1.203697324082857040e-01 4.793327562334366299e-01
-3.843575112892171769e-02 -9.472212782938706221e-02 4.587218648744179617e-01
-6.873983404100103556e-02 -1.137006736006580254e-01 4.810781255502492026e-01
-9.459450702304243730e-02 -1.181930980660642894e-01 5.022388741551805369e-01
