-7.673111711808783264e-02 -1.046669868141935633e-01 4.628304419161756722e-01
-7.662543772783453333e-02 -1.117102379423371289e-01 4.730857459993274006e-01
-8.467277109477368280e-02 -1.085921272854544761e-01 4.646762035199984431e-01
-6.581965024391757402e-02 -7.440837481037934631e-02 4.431860801217823442e-01
-1.187882238473419727e-01 -1.135667893097614539e-01 4.871669043111845343e-01
-4.027033176794691388e-02 -8.712160484538837568e-02 4.529275401006302437e-01
-1.003419189636669678e-01 -1.213038965377058881e-01 4.731720576455736293e-01
-1.197040988818006274e-01 -1.004508833021649089e-01 4.693712557965936116e-01
-5.973344040570489899e-02 -1.091023651035533115e-01 5.300797059810695711e-01
-1.137725695819531008e-01 -1.153611882995348586e-01 4.726453863177142445e-01
-9.621192564146477388e-02 -1.198767938903640418e-01 4.753705665429250882e-01
-1.137021753048890471e-01 -1.164376108768890583e-01 4.750692140229391125e-01
-8.747981112151938243e-02 -1.151361826840702623e-01 4.723013811945403484e-01
-9.450133268208121828e-02 -8.506029256040364972e-02 4.476354946350799557e-01
-1.076665074340610317e-01 -1.100293005064050811e-01 4.628508439428675181e-01
-3.079293174867183541e-02 -1.227906588532209908e-01 5.301839470814943001e-01
-1.027443234123285171e-01 -1.013960217270256509e-01 4.554642420805725123e-01
-6.513893550293907431e-02 -1.174561825677435806e-01 4.935316499489578179e-01
-5.298108239159347171e-02 -1.186096342394473840e-01 5.242166237193708334e-01
-8.330840237320783631e-03 -1.235533415198208501e-01 5.361162418760385684e-01
-2.075983683614925773e-02 -1.256826521714872469e-01 5.142861660405756430e-01
-6.072765980969538346e-02 -7.649622070141762209e-02 4.452936242434410441e-01
-7.342098849550252049e-02 -9.363065946722397281e-02 4.532084912077296579e-01
-5.227449500915299502e-02 -1.175610739893306195e-01 4.953044247415241963e-01
-9.799508754699307045e-02 -1.058783942979077963e-01 4.573291304174038063e-01
-9.916433241075714444e-02 -1.183721508682984286e-01 4.976935221835418477e-01
-2.453832099975955527e-02 -1.249395076534795812e-01 5.194930921666403023e-01
-9.602924267645412959e-02 -1.169890510660385324e-01 4.676109409628707581e-01
-1.050438247574431022e-01 -1.200832656266635906e-01 4.830148855635422178e-01
-1.912322565664587720e-02 -1.019443210760344054e-01 5.625666588901110376e-01
-9.084023239554808726e-02 -1.199411268767365257e-01 4.855367733634176619e-01
-8.767665273608635235e-02 -9.881684921261706112e-02 4.547833149329918445e-01
-3.252043235036289337e-02 -1.166512511278745695e-01 4.880656143043143880e-01
-5.244548025533561642e-02 -1.088324567358155831e-01 4.744892524419880298e-01
-1.088114308161605565e-01 -1.022345457472263741e-01 4.574822343919008327e-01
-2.044968492013882200e-02 -1.109306178637008838e-01 5.594865033895937145e-01
-4.602978404044234112e-02 -1.206357742040184283e-01 5.157750118545515461e-01
-3.895212292585073510e-02 -1.214544301828688749e-01 5.135471808265956728e-01
-5.527572586943387684e-02 -1.081591154653828157e-01 5.333580250614815554e-01
-7.232701941592387107e-02 -1.176767606259200433e-01 5.160258518510829617e-01
-9.880428150170766921e-02 -1.137181608446472258e-01 5.078465790510160449e-01
-1.016151339149627686e-01 -8.657257427505136993e-02 4.521399006151406996e-01
-4.630090193716607239e-02 -1.073216954252422944e-01 4.722869509707203206e-01
-3.629193744112365477e-02 -1.221837537245997751e-01 5.194464731442622885e-01
-7.058114873854215432e-02 -1.059725631930170386e-01 4.662159791181519353e-01
-1.086241644877248697e-01 -1.145350655492907987e-01 4.987427577329778816e-01
-1.069609618246673138e-01 -1.191630866047195536e-01 4.708069119401255831e-01
-6.566794492876210088e-02 -1.164566638747954463e-01 4.898036029377644263e-01
-4.326574159151541643e-02 -9.590976961848776683e-02 4.596272492072556171e-01
-8.856533066055331804e-02 -1.193572457093393657e-01 4.878305415648648280e-01
-3.170220512241103683e-02 -1.091525102045518281e-01 4.735004047729928223e-01
-3.101833251790189067e-02 -1.231270549206690407e-01 5.163161687877687589e-01
-4.092061562578791500e-02 -1.108627268462565180e-01 5.398382121908558151e-01
-3.142173909613738686e-02 -1.184781850932571934e-01 5.441334650650153648e-01
-9.753668863889165819e-02 -8.357200075423337760e-02 4.495323027488901113e-01
-4.805205425699584504e-02 -9.007188074003456835e-02 4.544819386333155964e-01
-7.361088291573428255e-02 -9.659128980770963213e-02 4.556134469994099767e-01
-8.973632117740579228e-02 -1.188335169456235102e-01 5.004236082539810226e-01
-9.525413223048589950e-02 -8.387519944641708136e-02 4.478244269114101117e-01
-9.131038287506132445e-02 -8.020977400215231756e-02 4.462969331878194335e-01
-9.684984667215749965e-02 -9.973544213740717645e-02 4.546255181507277143e-01
-1.851612658764102345e-02 -1.204604354640812086e-01 4.873278516212119493e-01
-5.093478158909383463e-02 -1.197790951809362958e-01 5.208617812084156418e-01
-1.060494633721986296e-01 -1.178759158687295583e-01 4.935477685817619697e-01
-6.753432829977699947e-02 -1.132492203951159654e-01 4.806095205589903108e-01
-6.518443358797552933e-02 -1.193876916915325298e-01 5.095715697542715361e-01
-2.431787521497287205e-02 -1.246294499392739813e-01 5.294316472399028806e-01
-6.744573130176209630e-02 -1.191071452770551126e-01 5.127989913858114202e-01
-1.051046797904698210e-01 -1.211359190759062621e-01 4.766105742063727058e-01
-6.680977963452613966e-02 -1.172532508141202884e-01 4.918138518277799798e-01
-6.533827851700689526e-02 -1.178350061513414593e-01 4.952217740416036684e-01
-1.015588819971796619e-01 -1.022722348665565661e-01 4.557108400754188438e-01
-4.817189215162314547e-02 -6.904587902382826325e-02 4.442098200704523436e-01
-1.000153182925541534e-02 -1.267677422518888875e-01 5.029856066272271331e-01
-5.116201621218852830e-02 -1.065508303390872435e-01 4.710744837993603995e-01
-2.481453842093300083e-02 -1.211112988448740935e-01 4.941487567527699798e-01
-4.483894955672909632e-02 -1.199862085057798455e-01 5.050898223256683472e-01
-5.275517044300408187e-02 -1.021126134847735040e-01 4.647784143876535490e-01
-7.183451172566407417e-02 -5.373283203343630354e-02 4.414533916017830406e-01
-5.703147392301255447e-02 -1.014596889355283554e-01 4.628957891402392666e-01
-1.088025617279345936e-01 -1.117631707174174677e-01 5.000636482101357139e-01
-1.517442445493575459e-02 -1.071667754818533963e-01 5.624680088557552082e-01
-6.697894094816994603e-02 -8.419218677622188063e-02 4.471436984358129751e-01
-5.510718325806750195e-02 -9.583899720563986147e-02 4.576908054188852937e-01
-6.119776894245411436e-02 -7.165055426668633098e-02 4.436670327120766921e-01
-7.630516317451985220e-02 -1.145029750047988626e-01 4.807791880646825056e-01
-2.549361682895341305e-02 -1.068499565779813115e-01 5.566623645262590570e-01
-5.413836619938672962e-02 -7.094246555312092029e-02 4.445534093375613782e-01
-9.195784964255596106e-02 -7.820815960010239765e-02 4.471290562313356420e-01
-3.656338188881239071e-02 -1.192162299948642951e-01 4.968871733461040496e-01
-1.511304678937350557e-02 -1.041424543081317794e-01 5.635720241117510021e-01
-1.197990447027976052e-01 -1.072558345748131081e-01 4.890797411537780026e-01
-3.522053085303592651e-02 -1.208696399997733206e-01 5.341831791154306730e-01
-6.086033370331571379e-02 -1.145050032490048109e-01 5.276251663097871747e-01
-9.585861147608772115e-02 -1.204694746553887641e-01 4.780929467188458348e-01
-9.036310025514786293e-02 -7.614734158965427713e-02 4.457736574762073967e-01
-8.019744824599253641e-02 -1.074567559334480699e-01 4.650163075957109982e-01
-2.183198244517458100e-02 -1.252272367591586721e-01 5.107097925446991704e-01
-1.014340660485315987e-01 -1.204648352734017380e-01 4.699467735574039406e-01
-7.128225639542846992e-02 -1.194300960128380773e-01 5.055386520805627004e-01
-9.694335057475457484e-02 -1.183868095132257908e-01 4.987335867881081408e-01
-1.180700011803242633e-01 -1.033936152387580354e-01 4.663911969693051995e-01
-1.216231995632653523e-01 -1.020717094155580706e-01 4.717862291108219641e-01
-8.589961653418780319e-02 -1.189459539631540913e-01 5.044459309805452429e-01
-3.632886411587290393e-02 -1.161547221494818177e-01 5.417394025650789091e-01
-3.592262061345826568e-02 -1.114243183908697754e-01 5.430104268958302338e-01
-2.768107239422500088e-02 -1.240648863336666768e-01 5.192347012873149703e-01
-2.114821974358291681e-02 -1.010317632149868444e-01 5.616636798672492992e-01
-4.368370941431695686e-02 -1.191428434152669302e-01 4.992761294700534536e-01
-1.149131381690642467e-01 -9.749531377107512053e-02 4.616228796535640777e-01
-1.046830120029370315e-01 -1.201098184488401249e-01 4.829993971173673906e-01
-7.092726425563963821e-02 -7.467427996506156851e-02 4.421121101293760680e-01
-3.314670460530162732e-02 -1.228498785318809655e-01 5.248280594980989644e-01
-7.753458194604402609e-02 -6.955794844566227930e-02 4.397269468534326653e-01
-3.100994801914755059e-02 -1.224960848167720162e-01 5.321760643754240849e-01
-8.793870053430019595e-02 -1.194508482012731632e-01 4.925899990657372496e-01
-2.226660307275901002e-02 -1.089693178602165885e-01 4.686724450450935886e-01
-6.743191986164702445e-02 -1.140230457715854934e-01 5.239692367251410632e-01
-9.492793044314369599e-02 -1.180158894026772792e-01 4.720352835208892484e-01
-4.093119130709976794e-02 -9.553367152766141512e-02 4.596148764074012294e-01
-7.351356585101775920e-02 -6.742807685457362366e-02 4.394822977377884077e-01
-1.081023416796981010e-02 -1.281863537113384910e-01 5.154893115417846783e-01
-6.166627601554735411e-02 -9.726383074315438082e-02 4.576419740150027837e-01
-8.664177012964076330e-02 -8.836565992568104488e-02 4.483000198451848606e-01
-1.635583294781399466e-02 -1.246961723031343311e-01 4.989066497561791547e-01
-1.906931326275189756e-02 -1.263708689191697099e-01 5.217696024746455441e-01
-3.111378878930149555e-02 -1.232890311754368390e-01 5.216070244170515346e-01
-2.608936102352012176e-02 -1.211715483316815056e-01 5.424281768836116679e-01
-8.134515478063301941e-02 -6.932873556503750534e-02 4.399551940735471067e-01
-2.777649173782089156e-02 -1.149577002261380765e-01 5.513538249397339497e-01
-5.130648100681029639e-02 -9.021052640759784358e-02 4.538046431856001539e-01
-8.603759825460040311e-02 -1.191621262994062014e-01 4.985242153389725095e-01
-4.358935748516511860e-02 -1.069049193486971694e-01 4.714365267310259844e-01
-6.182872384440593616e-02 -1.127245121954710272e-01 4.806056876778864728e-01
-7.131267104664487308e-03 -1.288124042451364304e-01 5.217820638694988800e-01
-4.380931145024422046e-02 -1.043737047504446902e-01 4.682378104277422071e-01
-2.269505794959113254e-02 -1.195958671164304155e-01 4.880921377434941366e-01
-9.503038916470632480e-02 -1.189587865448435977e-01 4.963554697573049901e-01
-8.545679801099199946e-02 -9.151104150862232611e-02 4.502835926294851965e-01
-1.043345792843590331e-01 -1.215597959744845052e-01 4.758405906409705066e-01
-7.859935704986138749e-02 -7.968058720379513071e-02 4.429220337445765598e-01
-9.043789017335771008e-02 -9.329251994568658890e-02 4.509270896190978872e-01
-1.017799358829919593e-01 -1.151169419511879621e-01 4.630723042150167168e-01
-6.803522598385927656e-02 -1.137800636079111111e-01 5.239863218370131026e-01
-7.854415872105396934e-02 -1.193258399727149671e-01 5.055446813228708924e-01
-8.033480003090139043e-02 -1.118391599507992107e-01 4.715246314819976914e-01
-6.518810164169032417e-02 -9.264723034332915386e-02 4.531305928265337291e-01
-8.798202045319644671e-02 -7.255933097693020861e-02 4.439615980474214130e-01
-7.339804478230933793e-02 -8.540134508549825088e-02 4.468072539261139786e-01
-6.695519711173444910e-02 -1.189427402331440231e-01 5.011657525211644648e-01
-4.881639190471045997e-02 -1.023100690742820840e-01 4.655328157088580165e-01
-2.763993330564958398e-02 -1.231441527033664690e-01 5.331825480285558028e-01
-9.225693972333848941e-03 -1.285460903134395816e-01 5.193580656508862692e-01
-2.669148854333317639e-02 -1.229954378054991110e-01 5.351912467965947995e-01
-7.905362547767066927e-02 -1.195356828319691089e-01 5.011598696166348343e-01
-5.561218219174723920e-02 -6.851163777219149154e-02 4.434661783469510676e-01
-6.447456997740715068e-02 -1.153436284164496145e-01 5.239955025109275244e-01
-7.267691793943237277e-02 -1.160174898894467121e-01 4.851134520074581458e-01
-2.639529435735164103e-02 -1.129249565276228551e-01 4.769431286082852495e-01
-1.298705171126392222e-02 -1.216460464460614732e-01 5.449387589784846497e-01
-1.293194618509983275e-02 -1.275147630738818483e-01 5.229313591269874051e-01
-1.012579006297636974e-01 -1.169359084298747520e-01 5.002561112472789784e-01
-2.940368907868515236e-02 -1.226148438833292997e-01 5.336706552503522882e-01
-7.479022967335129113e-02 -1.149808894235801321e-01 4.821560236449656811e-01
-1.044335097545107116e-01 -9.763004265720405528e-02 4.542250024837505284e-01
-7.272436613354280044e-02 -1.075907196576333935e-01 4.680905238475956409e-01
-3.659858581835032099e-02 -1.220884077362430348e-01 5.173422459006070673e-01
-9.822040820538062433e-02 -8.476935701538840240e-02 4.497715279596616322e-01
-1.119334668346091272e-01 -1.178080692628165616e-01 4.795551049110008957e-01
-8.359667217953017926e-02 -8.707053991395652393e-02 4.474872411579818854e-01
-9.221192484152014590e-02 -1.116454318161806541e-01 5.126647187941132389e-01
-6.667132552923579411e-03 -1.288803394847639616e-01 5.205971748102418140e-01
-1.005300240798638334e-01 -1.210681280464330350e-01 4.769635590814714776e-01
-9.613055721503180329e-02 -1.151600346448538870e-01 4.639568424705088900e-01
-5.624140009641565019e-02 -9.535624151277526106e-02 4.570204309881002458e-01
-5.388259882984396815e-02 -1.145897354834464338e-01 4.857113609644856944e-01
-6.098006040044550574e-02 -1.037423624411291240e-01 4.649451113785202927e-01
-1.139331266138794013e-02 -1.276273775015492606e-01 5.097259023764558750e-01
-4.641224942072141174e-02 -1.070071561778879188e-01 4.718466414956050126e-01
-8.420564517765138923e-02 -9.348413423294381353e-02 4.517801248302422135e-01
-3.020891690378614547e-02 -1.037396519544167839e-01 4.652613062234237096e-01
-6.495179955508258163e-02 -9.793077025324846419e-02 4.576917612989068740e-01
-8.393440193688640749e-02 -1.166705346586540959e-01 4.785080007889360720e-01
-1.112104938532002818e-01 -1.182736335434913799e-01 4.851172788420832771e-01
-6.516491336706350945e-02 -1.186104859225437375e-01 5.162462552431358320e-01
-6.259994098246662864e-02 -1.143013623994585670e-01 5.267061536471112637e-01
-5.277974792649315489e-02 -8.492027444494068544e-02 4.501079288887806507e-01
-5.690561389853883434e-02 -1.196674952282583276e-01 5.112827350692079609e-01
-7.840891046267441100e-02 -1.195419734595689482e-01 5.024621682468994877e-01
-3.545843872784346790e-02 -1.019183103254325401e-01 4.646908573997555192e-01
-8.181064405385241045e-02 -1.162173040965322895e-01 4.813208618469232425e-01
-5.123344684436093033e-02 -1.139140361684064934e-01 5.328517882541413675e-01
-7.721999556888677063e-02 -1.150406263292299003e-01 5.196144458967933977e-01
-2.138961116140367102e-02 -1.172686366884831827e-01 4.816522994314593742e-01
-8.833356958879231766e-03 -1.209864629195498975e-01 5.436138767509099967e-01
-7.672960969245200963e-03 -1.251490339314856037e-01 4.960023009376980374e-01
-6.033722018905083445e-02 -1.162756803887303320e-01 5.257157109545214091e-01
-5.087738135810596779e-02 -1.137553409480349526e-01 4.836050384554740900e-01
-7.005015893120190851e-02 -1.176560688977239255e-01 5.164418243244445206e-01
-3.687509112876895950e-02 -1.203670214297769964e-01 5.021361414557509173e-01
-1.157506875302173957e-02 -1.279349844332978714e-01 5.135201263960033069e-01
-1.201353976280730568e-01 -1.057304962959243894e-01 4.860633927983130653e-01
-1.203216152596650185e-01 -9.978034552035570937e-02 4.717695557046427957e-01
-7.386412968127192835e-02 -1.131142683195576620e-01 4.783690462049653980e-01
-1.195744937326408547e-01 -1.015670664774140503e-01 4.679160849297355762e-01
-9.480170249442149144e-02 -9.884460967843666790e-02 4.539299806386458136e-01
-5.396303561498963508e-02 -9.710271428854491682e-02 4.590135479573074773e-01
-9.698753317314866285e-02 -1.184187019792440621e-01 4.985256505530163973e-01
-7.564678662919818025e-03 -1.257979976507140052e-01 5.318229715515760958e-01
-8.093795105932509448e-02 -1.147784237408760594e-01 4.777113515406174460e-01
-2.511131903713124600e-02 -9.872475862296896387e-02 5.557222746475001252e-01
-3.293795955677676635e-02 -1.086648068453232308e-01 5.464739894403233267e-01
-1.025783158566826170e-01 -8.748017802889071493e-02 4.526390679734372258e-01
-9.204447730377444958e-02 -1.157348544696106679e-01 4.692047435712040082e-01
-9.085803949790850764e-02 -8.247675050968938937e-02 4.460137805489690632e-01
-1.044045339542640921e-01 -8.729211014197051088e-02 4.551676440728931183e-01
-2.760947245886690923e-02 -1.028358436844988288e-01 4.631235078959166640e-01
-1.217658699943768713e-01 -1.035100522039258952e-01 4.749140259249733931e-01
-1.047604303044902957e-01 -1.202248239202956259e-01 4.811855007719730848e-01
-5.777757938649975139e-02 -6.960285641287961012e-02 4.436385449033447004e-01
-4.553019557116812915e-02 -1.082490608092128020e-01 5.384522756565797152e-01
-1.179076500412063883e-01 -9.829743132718554710e-02 4.672371034474889218e-01
-4.330301527210186213e-02 -1.205104186970967217e-01 5.074232298228923410e-01
-6.142237974174039744e-02 -8.175003930965622778e-02 4.471068527363513678e-01
-2.813470613277185839e-02 -1.079796084916514881e-01 5.531159898461495139e-01
-6.376418894203998711e-02 -1.161932368405386579e-01 4.900130044826197517e-01
-1.158070770016535050e-01 -1.109282800199552499e-01 4.690526959174816102e-01
-8.620567920408789275e-02 -1.192277105398611009e-01 4.965342775206099124e-01
-9.669940215491699270e-03 -1.279172872412348005e-01 5.253488602372949900e-01
-5.271090232354359167e-02 -1.124686998714285596e-01 5.328841070092856791e-01
-6.366262458718760509e-02 -1.106860441867606598e-01 4.763673163593680759e-01
-9.963727149447021425e-02 -1.141925718424459252e-01 4.625205807274216374e-01
-9.630969428195881171e-03 -1.241345589291649593e-01 5.348585744061787883e-01
-1.116701651669751161e-01 -1.186994437805697633e-01 4.759779836548245768e-01
-6.866403221217814989e-02 -1.187624263102346894e-01 4.991667083899940516e-01
-3.361684216555467508e-02 -1.138958114185994880e-01 4.826281336666506938e-01
-5.996880868934924974e-02 -9.446648365554916049e-02 4.554163375550241977e-01
-3.231184674517614125e-02 -1.071448513047982970e-01 5.473348373626065744e-01
-7.586454382478706460e-02 -6.297086974761145761e-02 4.388452583901011894e-01
-1.162475399158763578e-01 -9.902850144051184023e-02 4.630766130153558535e-01
-6.102837096308989795e-02 -1.134761842585502029e-01 5.280149227612415119e-01
-6.580212309710636864e-02 -9.183936273248137494e-02 4.523972306726999348e-01
-8.983483950434006937e-02 -1.129150108284483339e-01 4.661402000389334166e-01
-8.840775813462233013e-02 -7.406271669587127793e-02 4.441382624328718554e-01
-3.343558790686971399e-02 -1.199655941904594070e-01 4.968146780302406529e-01
-5.528216476971305887e-02 -1.021918022539898552e-01 4.644329004422725338e-01
-5.813644948337876733e-02 -1.174624328125500189e-01 5.246248488301870072e-01
-5.061334897493385832e-02 -1.202466464022031584e-01 5.128291117760865880e-01
-2.851636317332965909e-02 -1.040778153403490031e-01 4.650100993733959354e-01
-7.448189991624293294e-02 -9.167867803531602744e-02 4.515558520720392433e-01
-3.605535290958687689e-02 -1.125163546864172137e-01 5.428721838203682815e-01
-9.656682534795717199e-02 -1.166236812954136171e-01 5.074862159970633391e-01
-3.328267248348846380e-02 -1.224783589766311881e-01 5.280501914267742292e-01
-3.721363465855582336e-02 -8.195494503649411455e-02 4.494095324150237936e-01
-5.956155056294042127e-02 -6.769452485541840869e-02 4.427550085057055385e-01
-7.403835501834697685e-02 -8.418117049523871076e-02 4.459024678808943265e-01
-1.009010675352838421e-01 -1.195283266902425617e-01 4.869327201926635373e-01
-2.931932495555020571e-02 -1.114756564894734542e-01 4.761707855452012583e-01
-3.533739184363651753e-02 -1.219723951837748954e-01 5.284330901540942316e-01
-1.035748509985525839e-01 -9.985987810509318330e-02 4.548275060005729786e-01
-5.143330406377593506e-02 -9.351469145469977484e-02 4.564659238730692237e-01
-2.602281015306518591e-02 -1.079785955120113883e-01 4.693250867389638370e-01
-8.180362645755606676e-02 -8.011641642834310684e-02 4.433560635158454999e-01
-4.382813378658190206e-02 -8.476041538004956688e-02 4.513516923869796971e-01
-7.551552014893979370e-02 -8.199831145473622518e-02 4.442302312695127764e-01
-3.405681147411220716e-02 -1.157684638423224638e-01 5.439964850909775329e-01
-8.383429347335498438e-02 -1.192986623177543781e-01 4.971534894805566540e-01
-4.910910789412663985e-02 -1.174248565779232867e-01 4.935530257935581422e-01
-5.384564471895813415e-02 -1.100893471099637921e-01 4.761147646593568705e-01
-5.415801679707926003e-02 -1.129353703817664450e-01 4.819140631844708311e-01
-1.979247471966597699e-02 -1.230293304364853263e-01 4.960706651798556521e-01
-4.966907684955849944e-02 -1.196661217765600665e-01 5.056244204977878853e-01
-6.503041265084084921e-02 -7.025783388929555950e-02 4.422451477782813889e-01
-7.984198846392144555e-02 -6.740944580787328055e-02 4.390009912325643637e-01
-1.280613617003681197e-02 -1.252620402692445623e-01 4.987418002800690919e-01
-9.306732265552138117e-02 -1.184025088046315732e-01 5.020784980225547756e-01
-5.605862523186509044e-02 -1.068271763737465990e-01 4.703159946167831951e-01
-6.140377796615929112e-02 -1.141780680479616422e-01 5.275175196187132931e-01
-4.190029932936403800e-02 -1.122102415084429428e-01 5.393051983336395461e-01
-3.266939566563998448e-02 -1.224416858337131486e-01 5.108306059478923133e-01
-1.011966340225530087e-01 -1.142418021859626098e-01 5.042331115996493418e-01
-4.666012869322043455e-02 -1.203750484593138770e-01 5.261874195639918428e-01
-1.737473789784195477e-02 -1.260875556314207391e-01 5.281289852585702160e-01
-4.955312418735959706e-02 -6.131477091311926531e-02 4.419088928791936044e-01
-4.639692460679229608e-02 -1.197701502262887990e-01 5.306368627770782220e-01
-5.439626056008114996e-02 -1.194694722606354648e-01 5.070692473609745843e-01
-7.467867565440215738e-02 -1.185953857573224107e-01 4.920415861143919711e-01
-1.169807528220498521e-01 -1.157807000950794168e-01 4.846465536563666077e-01
-1.137187005898617209e-01 -1.091361163736563611e-01 4.972195006860189448e-01
-7.987257513304973910e-02 -1.195460322232748951e-01 5.016253559610160950e-01
-6.563754615419235827e-02 -1.109375672918295475e-01 4.762688018177640425e-01
-2.512405730845594654e-02 -1.052009621992321675e-01 5.577001137078546611e-01
-8.300377732575375811e-02 -6.605399977698506175e-02 4.412561837585772806e-01
-2.697642892049325128e-02 -1.242532981944356463e-01 5.188065868690956428e-01
-1.135214233659114502e-01 -9.704508315117582606e-02 4.596896753499206123e-01
-1.133856026031802716e-01 -1.120578051140758008e-01 4.677302476064889025e-01
-1.243987318524522601e-02 -1.263985099206834939e-01 5.031120799060754267e-01
-1.559102680399674333e-02 -1.061876147813384658e-01 5.628689990089975614e-01
-1.041251349784571983e-01 -8.659059655205199324e-02 4.554305694199740628e-01
-1.139982268588012743e-01 -1.137049824864317660e-01 4.701071456002709481e-01
-7.490803220206990187e-02 -7.662002264130558793e-02 4.419649816012314880e-01
-7.152941321578644429e-02 -7.035414940507461745e-02 4.406701002509827436e-01
-7.475368922307837338e-02 -9.551314460940257822e-02 4.546465186719394480e-01
-9.337685468514216047e-02 -1.185793235883125796e-01 4.757390175598917859e-01
-7.925954579695325408e-02 -1.016864243574478743e-01 4.592934609302281035e-01
-2.304658268507423988e-02 -1.252515169996047673e-01 5.179035950538252164e-01
-4.277853718823827062e-02 -1.150428281938829095e-01 5.372342971888579566e-01
-1.024302369430221821e-01 -1.043980241353117816e-01 4.569678753002985316e-01
-6.096474114896803520e-02 -9.704371540906416016e-02 4.575394093881320901e-01
-8.677165323983707101e-02 -6.900697095423162508e-02 4.423406974123834656e-01
-7.043415870740810103e-02 -1.094946843856484942e-01 5.254551814351412498e-01
-4.109421770666849688e-02 -1.026234092520965369e-01 4.664188313707312572e-01
-3.062696063542657762e-02 -1.225186815326863160e-01 5.074419364726249215e-01
-1.140099489681229011e-01 -1.171637057965183720e-01 4.838713541224067272e-01
-3.516789113878346362e-02 -1.176008233234742822e-01 4.906934795243549918e-01
-4.287647179043755502e-02 -1.101027591734811545e-01 5.392260571859486262e-01
-4.334344016416840500e-02 -1.200239632344025364e-01 5.042032050179956482e-01
-1.094766727878522250e-01 -9.826575540088443306e-02 4.561022669877088931e-01
-6.894413527791722063e-02 -1.086633578097384312e-01 5.261384923119669654e-01
-4.511867008894136777e-02 -1.013150059616080151e-01 4.647440576254079914e-01
-4.445766610514660655e-02 -9.544908018823672347e-02 4.592138211240772150e-01
-5.825282153756410064e-02 -1.163224736356098243e-01 4.914405642249080608e-01
-8.342415797745757200e-02 -1.166601661023022318e-01 4.822622981003073517e-01
-8.707108359294869759e-02 -9.510387709073118978e-02 4.523996466337911748e-01
-1.202252218569102582e-02 -1.189491627718824857e-01 5.510049572167061704e-01
-2.790135567613684017e-02 -1.186409695324898150e-01 4.892996001292863051e-01
-1.471139139294674186e-02 -1.106333889814833521e-01 5.607792029032138137e-01
-1.045474636953482861e-01 -1.199873359318086447e-01 4.842644981770499735e-01
-8.658667331406270928e-02 -1.098404268736759976e-01 5.165182574250151148e-01
-8.035807366856734246e-02 -1.120861935331714243e-01 5.208099635993702625e-01
-5.691720807966197532e-02 -1.192447474562219334e-01 5.193420315096612949e-01
-3.091309193762914811e-02 -1.119083171504588886e-01 5.489012624075102487e-01
-3.280033044118352281e-02 -1.222003838973373807e-01 5.083710274961201758e-01
-7.749503589027981199e-02 -6.375922041391286765e-02 4.386275179032080862e-01
-2.086531759903261646e-02 -1.258662418127044214e-01 5.243170417743970857e-01
-8.397560867311597288e-02 -1.193205185318615136e-01 4.979083098039683852e-01
-1.001880160925946173e-01 -9.385804051588605978e-02 4.515638754315515757e-01
-8.795886690795738649e-02 -1.172728277795032359e-01 4.763947906844016034e-01
-2.872979713883846986e-02 -1.036249088911956745e-01 4.644375377077448186e-01
-4.573891692445963136e-02 -1.001472947986105644e-01 4.633682303162355298e-01
-1.137253209513408025e-01 -1.076515961949131572e-01 4.638126670245785177e-01
-7.540756408632356966e-02 -1.068731174101453241e-01 4.659684410423644563e-01
-1.123725759925294915e-01 -1.152766854529967827e-01 4.960031855626606534e-01
-1.050986502639239678e-01 -1.165938273839492306e-01 4.664765963137776916e-01
-3.828103170473762945e-02 -1.168333131492692301e-01 4.898812624868547627e-01
-5.143944442686226165e-02 -1.177339514037029217e-01 4.956925096430370714e-01
-9.693321683597989902e-02 -1.181371595403125363e-01 4.693035998636278516e-01
-2.725155180853308656e-02 -1.060355139816232112e-01 4.673335091355281801e-01
-7.832385027468455330e-02 -7.971780845563231077e-02 4.429233721956937209e-01
-3.121862177226536472e-02 -9.102523038422091761e-02 4.545747075254365499e-01
-2.565072012606876839e-02 -1.190181923191255542e-01 4.886920027836677560e-01
-2.205529584672954319e-02 -1.137766718659865839e-01 4.756211089924967661e-01
-7.073733242221108553e-02 -7.711900027024605475e-02 4.429412087406399134e-01
-5.882911881003169419e-02 -1.145162186229047724e-01 5.285503030532866520e-01
-8.255073152307215723e-02 -1.194987252735987410e-01 5.014383286909958048e-01
-2.441043783575301551e-02 -1.249210339412071269e-01 5.181588211345011796e-01
-1.020295392529253775e-01 -8.403949498229926207e-02 4.548437001173870065e-01
-1.192142872566280959e-01 -9.996373193469335061e-02 4.688547995709765326e-01
-1.199355636928524649e-01 -1.063230838758796731e-01 4.834689232112898694e-01
-1.024416098278091852e-01 -1.125686400440370494e-01 5.031835388352237093e-01
-5.312122936254312644e-02 -1.198588498684110548e-01 5.094447706974747359e-01
-6.534654572939116446e-02 -1.195054022892422935e-01 5.075971901551389331e-01
-5.093686109772859599e-02 -6.419223096676435203e-02 4.426110783362823820e-01
-1.023093851880858829e-01 -1.103960867383970840e-01 5.047238424898978781e-01
-9.051347352849999084e-02 -1.132766650221920107e-01 5.126235590915716456e-01
-6.816299578410733861e-02 -7.278146917502659186e-02 4.421154927803622736e-01
-3.398913808102672213e-02 -1.121296574862961914e-01 4.794609801916362435e-01
-2.645699842281747441e-02 -1.106298486332650266e-01 5.542762989055153300e-01
-4.601791251449199871e-02 -9.150292415317226591e-02 4.560556008551195362e-01
-5.569625279743799229e-02 -7.259612351662338148e-02 4.448909441172079759e-01
-4.535296496671560595e-02 -1.181308190254648088e-01 4.956537134734684269e-01
-9.147420395550261152e-02 -9.423363316549288049e-02 4.513176914647073490e-01
-2.484611347820941604e-02 -1.249338678071123532e-01 5.245839121495130541e-01
-1.359438928459915340e-02 -1.275938426043961293e-01 5.174370169586495205e-01
-9.952243029860603774e-02 -9.083804004418251365e-02 4.513393608091991194e-01
-2.259275784904438492e-02 -1.215904424528752997e-01 4.937106880984224455e-01
-2.903701710150425816e-02 -9.143814694181023883e-02 4.541477409270974208e-01
-5.177971763851915710e-02 -1.195450498703714143e-01 5.059742093964167964e-01
-8.531345762006464772e-02 -7.740911237153903779e-02 4.425685703345220157e-01
-3.078502980299793745e-02 -1.196353164349469173e-01 4.938967177117054574e-01
-5.411878253056666421e-02 -8.626042627108673755e-02 4.506525289325163386e-01
-1.441268529796465442e-02 -1.266281572697404434e-01 5.256834798926145469e-01
-4.357575871465471651e-02 -1.185085026500661831e-01 4.967374358179991178e-01
-5.282300617662941816e-02 -1.191043915338585862e-01 5.033570131328174435e-01
-9.292630120339646915e-02 -1.093743416722725154e-01 4.611794087138769149e-01
-2.870052339581802281e-02 -1.227689512789893189e-01 5.044643613256306613e-01
-8.756533715944744833e-02 -1.190140058418727026e-01 4.995746233279091952e-01
-2.586559455394049981e-02 -1.025384631461428303e-01 5.561655816309812872e-01
-4.252119755255622663e-02 -1.165467163849237819e-01 4.900693520672315118e-01
-1.126977844447072108e-01 -1.097599724112240938e-01 4.979725401365109883e-01
-1.073518223818686473e-01 -1.204355768151164352e-01 4.775846824528447998e-01
-5.847585407775954258e-02 -1.078940384230977073e-01 4.713295078165631868e-01
-8.682995446376479132e-02 -6.812970229041431791e-02 4.422116219270030846e-01
-1.023530094174994326e-01 -1.193577747823955787e-01 4.685641220902028725e-01
-6.774501392131562771e-02 -1.191670116464269291e-01 5.116844507505010631e-01
-8.798917624096659618e-02 -7.843575801108816636e-02 4.445353799383945370e-01
-9.356006445207531996e-02 -9.990995675944815135e-02 4.545752936631126673e-01
-5.675396486968926207e-02 -8.987918078375262132e-02 4.524751995121403247e-01
-4.248091064693025609e-02 -1.094007381453167699e-01 5.394089473585041983e-01
-6.465397110407199166e-02 -9.012209286996732127e-02 4.512372392970714352e-01
-1.173272474597583243e-01 -1.157049889095468770e-01 4.868573054432209224e-01
-1.093684075998054145e-01 -1.165309284037598786e-01 4.693656382198120869e-01
-6.683217108920846972e-02 -8.749668612597741313e-02 4.491129444264699289e-01
-8.589049200253785765e-02 -8.817443987311063269e-02 4.481830429308843455e-01
-8.462215462420889789e-02 -7.310343909554944952e-02 4.413162265187852151e-01
-9.710872664078738781e-02 -8.646049621114124117e-02 4.491933607596275135e-01
-2.161854175457440796e-02 -1.188691542241151616e-01 4.852586862487145436e-01
-1.141813096354748480e-01 -1.035084137258973219e-01 4.607918661112934688e-01
-2.006750439305100830e-02 -1.190436563266956266e-01 5.499847591732099916e-01
-6.491991221077156315e-02 -1.188446020927847457e-01 5.006973324376524648e-01
-1.041015061778818307e-01 -1.130693107168044692e-01 5.020605948874575786e-01
-7.481516884696223779e-02 -9.446216358039091765e-02 4.538246296492300935e-01
-1.054718983010223959e-01 -9.652842425932815773e-02 4.540863582367992146e-01
-2.048109948531084967e-02 -1.219763572556833847e-01 4.931505093413717788e-01
-3.307858201198109194e-02 -8.802871358436807625e-02 4.527581258470128045e-01
-4.950747556648087133e-02 -6.950034453686090852e-02 4.442963619028337252e-01
-6.162356595405924647e-02 -1.067513576308995044e-01 4.684976552096233315e-01
-8.222412808219620173e-02 -1.131551083175027367e-01 5.180935037840594948e-01
-8.666000419407884903e-02 -1.174781292851300868e-01 4.786483519351744098e-01
-2.903871417716767656e-02 -1.159353336748907559e-01 4.843468305209501779e-01
-5.698909572655517369e-02 -1.193873454380715154e-01 5.083914404603188109e-01
-9.626209268487553872e-02 -8.113188560622000556e-02 4.491443807811941746e-01
-1.081792489895014309e-01 -1.073380689226968304e-01 4.608125463138106337e-01
-5.812138892771355481e-02 -1.064508901698369425e-01 5.319928161563103330e-01
-1.090121904332432418e-01 -1.152462869603055190e-01 4.674216194045659467e-01
-3.585084921199140767e-02 -1.221363712575243982e-01 5.258845945215744333e-01
-9.460455754447941179e-02 -8.214625045008175364e-02 4.480147955644861457e-01
-1.110406992682376054e-01 -1.117282486649561896e-01 4.652387003642069474e-01
-1.207808402537483006e-01 -1.011158640822081844e-01 4.710586104105032312e-01
-2.586033327313622121e-02 -1.048871421827920619e-01 5.566081911252187542e-01
-6.241986800556514892e-02 -7.104194656306667133e-02 4.432024122916052855e-01
-4.015703720692722495e-02 -1.211422668444615547e-01 5.271649122889207062e-01
-8.498167266496538252e-02 -7.083555867513886828e-02 4.412129169585722877e-01
-1.832904657370295481e-02 -1.240915328421865610e-01 5.361134564020298976e-01
-1.027125207816101393e-01 -1.201236389504685420e-01 4.696855340877664209e-01
-7.254025738809888324e-02 -1.080979625041332270e-01 4.690411908307567934e-01
-9.462810641977398296e-02 -1.193638630161520525e-01 4.900945047604483573e-01
-2.634502798209368071e-02 -1.117286584502790586e-01 4.750916328590507609e-01
-1.592201782336941096e-02 -1.158993144687739257e-01 4.768419256900743308e-01
-9.909415437663048054e-02 -1.191157938280482664e-01 4.908555388607644399e-01
-4.656641913963851381e-02 -1.110870194195305721e-01 4.781563707177719502e-01
-7.218921670486665165e-02 -8.522814963415790979e-02 4.469048542611770980e-01
-1.145816693041705886e-01 -1.066433717581757590e-01 4.636471886407098064e-01
-7.076654229185581901e-02 -9.801967011870607593e-02 4.570070944954470193e-01
-2.780644993320673108e-02 -1.234470104636464366e-01 5.090262273461346743e-01
-4.469283824383651904e-02 -7.979418162644569268e-02 4.487489746548147251e-01
-2.063574609526134390e-02 -1.081476739174171975e-01 5.608654534018178150e-01
-1.155891249093333045e-01 -9.591272110096750458e-02 4.637585704722068103e-01
-3.376110484774250825e-02 -1.096349265935264855e-01 4.746383877082627767e-01
-4.441678562850236156e-02 -1.196603395414901211e-01 5.026620935904450027e-01
-2.276740011376642697e-02 -1.224567574787414348e-01 5.419382565166173116e-01
-4.350912547458048174e-02 -9.412490122998889985e-02 4.582590393410868601e-01
-1.052353507614739309e-01 -1.042359014032689518e-01 4.573501044067040944e-01
-1.121922789901168456e-02 -1.186911874787414806e-01 5.514093704777255356e-01
-1.043355044931826639e-02 -1.273549447701066151e-01 5.064290787321427123e-01
-2.244139124620830178e-02 -1.253293267299270264e-01 5.160050146640016155e-01
-4.729252614440654368e-03 -1.288115299182309714e-01 5.145085217227216567e-01
-3.573627188989905029e-02 -1.209695455121095053e-01 5.334432157614382719e-01
-6.458106763247811744e-02 -8.993858224824713421e-02 4.511226259651507364e-01
-7.764920609474550151e-02 -8.739808110035539312e-02 4.480841663283432474e-01
-1.044968120130684852e-01 -8.592339346327892979e-02 4.564381133298133220e-01
-3.083204743187801036e-02 -1.229861476936080361e-01 5.135091489655406738e-01
-8.158125290571317800e-02 -1.117385853129667928e-01 5.188001459408018157e-01
-5.033295474303997596e-02 -1.163040089518867920e-01 4.899931981445813101e-01
-3.715263132041490834e-02 -1.220547823020086686e-01 5.212456324407525043e-01
-6.240371398453834623e-02 -1.159037761400104893e-01 4.892473745047098976e-01
-1.010017513167765502e-01 -1.211689699090271188e-01 4.758919561805671217e-01
-4.257965027591441992e-02 -8.139410023420194651e-02 4.494548716986770387e-01
-6.133330245168330808e-02 -1.170973020949865606e-01 4.944599015969872169e-01
-1.036544430780275139e-01 -1.184899736978898971e-01 4.679977489949462277e-01
-7.841917918976894220e-02 -1.147614162892610506e-01 4.806343187899890790e-01
-8.994560340666427067e-02 -7.648490743475942766e-02 4.453317310711449872e-01
-1.112690940760043268e-01 -1.142773343632290939e-01 4.680175828456339948e-01
-8.723258198121494611e-02 -9.388595344681215094e-02 4.516033135558994438e-01
-9.937361017431567412e-02 -1.125839800857619255e-01 4.612175825977777865e-01
-1.499567838448309307e-02 -1.194379585781777803e-01 5.502942189216915025e-01
-4.839380485782489305e-02 -9.915360741401006706e-02 4.619323114524895302e-01
-1.056461150223323708e-01 -1.051648898649106684e-01 4.580563535266820030e-01
-4.702655595571859221e-02 -7.835215592898260584e-02 4.480155139371211348e-01
-8.951346485921773954e-02 -9.758359838855368285e-02 4.533942129183436975e-01
-6.714482960623144314e-02 -1.192473315070543965e-01 5.113983460529768488e-01
-9.623892052721549906e-02 -1.063429991882527542e-01 4.580528536489174019e-01
-3.411448781074602477e-02 -1.197709679780890046e-01 4.966936510522423354e-01
-7.863697808770436781e-02 -1.148225718566189268e-01 4.804026483748263243e-01
-3.982532472013611269e-02 -9.385629602232854751e-02 4.582326706101120251e-01
-4.138590368662057456e-02 -1.004379609005792290e-01 4.640658858483502902e-01
-2.639807929713002335e-02 -1.237665490871572849e-01 5.078257546406169665e-01
-6.127010261558641507e-02 -1.157780296328620034e-01 4.891129797680545677e-01
-5.201019331597842715e-02 -1.116246862130919199e-01 4.789455958591596341e-01
-1.997947815488572421e-02 -1.227160013708881309e-01 4.951314169937323095e-01
-1.208075104305440933e-01 -1.049786641675278520e-01 4.727968295258440645e-01
-5.179478055100177059e-02 -1.187323824841771402e-01 5.259691484581753285e-01
-8.238355052194307193e-02 -1.111528644320933512e-01 4.699287626884310898e-01
-5.055661942365592687e-02 -1.180621139934126124e-01 4.968383526693140873e-01
-5.604488987052082261e-02 -1.156194667177423835e-01 5.289098315570610609e-01
-4.399652229699686085e-02 -1.200504742422943139e-01 5.048930103856373863e-01
-8.519655717001330120e-02 -8.624421325085926404e-02 4.468830669883267492e-01
-5.994671991029561914e-02 -1.190404387369353306e-01 5.073679552854903907e-01
-9.094406466422158553e-02 -1.182683160258571342e-01 5.053992523122777802e-01
-7.555036631602481123e-02 -7.313886496187219088e-02 4.408478438862726279e-01
