-9.582685403640990585e-02 -9.948381467638685305e-02 4.558361724008146987e-01
-3.087481333599369909e-02 -1.227372704859733960e-01 5.297467718806462278e-01
-6.570248430937521145e-02 -8.195576287874326016e-02 4.471445454466967950e-01
-3.254999549025299616e-02 -1.227303078353596671e-01 5.189029151040486232e-01
-1.717380364617202004e-02 -1.246661275247690215e-01 5.003146833473217647e-01
-1.993590340466815103e-02 -1.114605782410216794e-01 5.594496408313472946e-01
-3.623114868845084963e-02 -9.614636474477809835e-02 4.605067492698759479e-01
-3.881667002932439464e-02 -9.658406959593954233e-02 4.613149233440677621e-01
-4.103340963367267669e-02 -1.177515713459244967e-01 4.940161179115915013e-01
-3.308747045085735222e-02 -1.092911317960086476e-01 5.463364958113521297e-01
-1.174830472934913217e-01 -1.143709030457011749e-01 4.809588568923132690e-01
-3.893009806525686567e-02 -1.201882759480968899e-01 5.035609678403553113e-01
-1.207192128294797967e-01 -1.064240209491032069e-01 4.798939702080431968e-01
-2.322948456936428999e-02 -1.132280638371536835e-01 4.759987592743266105e-01
-1.168885172314433341e-01 -1.135319907617928781e-01 4.762920599025421975e-01
-3.218525100637122799e-02 -1.227252765206612306e-01 5.172461275583645213e-01
-1.047159609642745320e-01 -1.199630004787220205e-01 4.847966200491092281e-01
-5.173062263829120155e-02 -9.129465769513644968e-02 4.552636868385217528e-01
-6.820492501070300750e-02 -9.223982058954055541e-02 4.533055244705533893e-01
-2.259109506790076341e-02 -1.041405318175307321e-01 5.606764159901443945e-01
-3.878080551618790645e-02 -8.642861813370381063e-02 4.530121309514123507e-01
-1.127946633072236388e-01 -1.166471541896762221e-01 4.914801317689642679e-01
-5.559551250656584453e-02 -1.061254814908890176e-01 5.341805437804727497e-01
-3.617231976061132531e-02 -1.187957633556033094e-01 4.958764257668368813e-01
-3.713005412066162220e-02 -1.099333399170817765e-01 4.761461906923459830e-01
-8.720560727260227851e-02 -1.072386513107273648e-01 4.628410204187836663e-01
-3.792435792439684261e-02 -1.209763396725546530e-01 5.318597240729396880e-01
-1.799638207133325701e-02 -1.261912464557528035e-01 5.256035891536744442e-01
-7.002523977109252618e-02 -5.906138671993711731e-02 4.400942638382469574e-01
-2.963470567563972202e-02 -1.232295528454594585e-01 5.279772242293352402e-01
-1.043573856916716197e-01 -1.189539915147179716e-01 4.910758249601571701e-01
-9.053094758307694834e-02 -7.920527520809597655e-02 4.465146859762855192e-01
-9.822826322767176654e-02 -1.199468367971884275e-01 4.849446148345967766e-01
-2.049892863887553887e-02 -1.180493013540682423e-01 4.834291415246090295e-01
-1.006689409815939712e-01 -1.146324435966167427e-01 5.058061962914520704e-01
-1.040560259057407150e-01 -1.131035200148265141e-01 5.035522983046795131e-01
-4.869459008684707407e-02 -1.072125802456830035e-01 4.730156609998364958e-01
-5.247481209092931531e-02 -1.147087805447109532e-01 4.867902976555638084e-01
-4.658934383623272724e-02 -5.919358874154748151e-02 4.420729225712253241e-01
-7.828742317511526438e-02 -1.122532098800369110e-01 4.744811386987602964e-01
-4.039966544342395161e-02 -1.213127848383848545e-01 5.199490731778404484e-01
-3.170293713751144021e-02 -1.220451957260707404e-01 5.061411265308366492e-01
-6.822330184621624993e-02 -1.174129507939664779e-01 4.928019579497537883e-01
-1.654731347702372360e-02 -1.227558008765802094e-01 4.932738867756893963e-01
-1.143435571510097309e-01 -1.160432411219767534e-01 4.774967915738393409e-01
-2.365870704836644384e-02 -9.998799662181541426e-02 5.593648573190266315e-01
-1.132849097166288149e-01 -1.132578591474399654e-01 4.977872499571478482e-01
-5.970812012120597229e-02 -1.184761970049621332e-01 5.206071677478436577e-01
-5.366718921990463326e-02 -1.113129068964126972e-01 4.792252969221229564e-01
-8.723337948018736188e-02 -6.929648981015555653e-02 4.437450788380384870e-01
-5.576724859865505451e-02 -1.181665184089699533e-01 5.237398710301287563e-01
-5.836526744244420473e-02 -1.184414315925042399e-01 5.217342434059388800e-01
-9.005034915346860069e-02 -1.053414688154946932e-01 4.601252096607792996e-01
-1.048171255339917091e-01 -1.089848648657460312e-01 5.049796910761724655e-01
-1.196427538715525984e-01 -1.108569775652945982e-01 4.861821690421332387e-01
-2.315112897795523067e-02 -1.243874954339612843e-01 5.319673616809715844e-01
-2.233531511541734724e-02 -1.103515877503892101e-01 4.711982807777353455e-01
-8.346739527221629096e-02 -1.068481588756819700e-01 5.197570547906688043e-01
-1.214425950674033611e-01 -1.048248123603528759e-01 4.786904204053669676e-01
-1.139685208575041131e-01 -9.857365004179727275e-02 4.614735477059462854e-01
-3.731328713174462963e-02 -8.219857029116325875e-02 4.500207460394000658e-01
-3.397829525563121622e-02 -1.193397534808086635e-01 5.403138771693032361e-01
-5.437358667417554331e-02 -1.163442597189993655e-01 5.293176744425811542e-01
-1.013737851608101648e-01 -1.209418134713402954e-01 4.797508062218528435e-01
-5.243851790894157872e-02 -1.137340472780461187e-01 4.846358293476510370e-01
-1.488019330520065284e-02 -1.191511001024867927e-01 5.510359721503220731e-01
-6.870467771129182277e-02 -1.185495531559147553e-01 4.993415632568655171e-01
-1.518200831652967951e-02 -1.259423540446289458e-01 5.039690841268896770e-01
-3.349637612664922715e-02 -1.223105718596000646e-01 5.142139570773366364e-01
-1.093798484042670383e-01 -9.741015160855123756e-02 4.574059996072000200e-01
-1.091427074561254484e-01 -9.602083849013513805e-02 4.572775230361200705e-01
-9.141430680684435595e-02 -1.007110105820646223e-01 4.567153057916789050e-01
-1.122919261234262972e-01 -1.155937568678453431e-01 4.958447420989340326e-01
-1.579998427428217639e-02 -1.107299032263367872e-01 5.608281954605838227e-01
-3.120797961880932697e-02 -1.210880677593105387e-01 5.383451698299704935e-01
-7.054183410776605767e-02 -1.134495786701288228e-01 4.819990806183628851e-01
-4.626220556222009062e-02 -1.126429635444761296e-01 4.817416511034142146e-01
-8.440371743104935209e-02 -7.064149377514983286e-02 4.419722783040733183e-01
-2.299589572528509124e-02 -1.233959389174973942e-01 5.371200315794861790e-01
-3.053173802460142083e-02 -1.050162518855418670e-01 4.677135497223787186e-01
-3.164935827818006475e-02 -1.023690585573110295e-01 4.645651877682873132e-01
-5.445253665403288618e-02 -1.195315674280817697e-01 5.095865892687735377e-01
-3.327242208293832576e-02 -9.246763976484717595e-02 4.567856292059267465e-01
-1.213813911090526158e-02 -1.069471774544804160e-01 5.635312474423725959e-01
-3.608414400871159944e-02 -1.048713449203489412e-01 4.687015390662420122e-01
-1.253436954967462186e-02 -1.222245534221056418e-01 4.899338574891595188e-01
-9.003899268221188246e-02 -9.133358996731030799e-02 4.511841764265435151e-01
-6.736980930283247015e-02 -1.178120895862996564e-01 5.186656947085330760e-01
-6.620934179908204154e-02 -1.188794486937571337e-01 5.027436785499329597e-01
-4.823500463093481627e-02 -1.201749928628600417e-01 5.209566456960535996e-01
-5.813402686008236481e-02 -8.340555960818331338e-02 4.491969518741504852e-01
-1.669099327944631450e-02 -1.150637538026304807e-01 5.569929954293497687e-01
-9.519887077374625250e-02 -9.549548354772621761e-02 4.533978830268377558e-01
-8.809251068166562559e-02 -1.182073076647200682e-01 5.079572808568988407e-01
-2.810570573390012289e-02 -1.125429931039097636e-01 4.778733924943432965e-01
-6.948363486836114933e-02 -1.023412485360930546e-01 4.624970629544184475e-01
-5.773574226464591591e-02 -1.070056055354950547e-01 4.710805065598314689e-01
-6.617361322234173449e-02 -1.009372459795135207e-01 4.614367931197279615e-01
-3.577731622146494012e-02 -9.318411905798859585e-02 4.580407531907112473e-01
-6.935419773386029829e-02 -1.178877095434893024e-01 4.939211575152047118e-01
-7.109651243344898564e-02 -5.634266685690241666e-02 4.411999582046406965e-01
-1.238235124943404958e-02 -1.258261709706165465e-01 5.010663856616026646e-01
-1.125258164852555864e-01 -1.177221682975207184e-01 4.794686695859585179e-01
-4.256057281448950846e-02 -1.165889016212383195e-01 5.367081933550466033e-01
-9.889314397232529252e-02 -1.176790481498413143e-01 4.676629436407847562e-01
-9.602235376039153225e-02 -1.191743327120463741e-01 4.753696999574371085e-01
-5.978260894715914375e-02 -1.188445887002785584e-01 5.187594335044269922e-01
-9.659125470440409200e-02 -1.017445769686573798e-01 4.573870431384659541e-01
-1.998364865648435962e-02 -1.257963695554089045e-01 5.267688811970527851e-01
-7.708789094137501186e-02 -1.160892694228088523e-01 5.191018315167077457e-01
-6.231625571123710489e-02 -1.092831201618372355e-01 4.744001948873929342e-01
-2.819170731564854537e-02 -1.200233695170989656e-01 5.434935442704161845e-01
-3.782111109082865463e-02 -1.212718402235055254e-01 5.294691620115679065e-01
-8.921897454432381469e-02 -1.103100602914269535e-01 4.653183283825775285e-01
-9.205621654388382313e-02 -9.329148725596378422e-02 4.520811350517379146e-01
-8.159030667670455483e-02 -7.036198074554833592e-02 4.408332231351087538e-01
-1.538772911136673978e-02 -1.248147337193819539e-01 5.332450932333249183e-01
-7.539904524622825788e-02 -1.183600302411936950e-01 5.140672275775683975e-01
-1.035696152229775707e-01 -8.838109487997487801e-02 4.543570103792996528e-01
-3.428790229801922940e-02 -1.196088988837983313e-01 4.971253371390726983e-01
-1.705209251225554140e-02 -1.192525327604020691e-01 4.847791971160864133e-01
-4.256166786687116260e-02 -8.475897692813354201e-02 4.519441008669619064e-01
-8.935318631078192908e-02 -7.923404816672985351e-02 4.460960123202874494e-01
-9.500419243931153279e-02 -1.153726513795908792e-01 5.105187878569903415e-01
-4.693164425882657975e-02 -5.913822794145090489e-02 4.420464329919167601e-01
-6.625849271173306354e-02 -8.081129265270135809e-02 4.463366408914237193e-01
-1.114814045279497179e-01 -9.510984163547098191e-02 4.585169690375667795e-01
-1.049989470843324876e-02 -1.277113030457122100e-01 5.248376323987323788e-01
-7.611526084263951775e-02 -1.136262286672313909e-01 4.800035213528379696e-01
-7.934660371183292760e-02 -9.186787918372693595e-02 4.523158753636860596e-01
-8.275549384425880117e-02 -9.310236827332356302e-02 4.529076879235547914e-01
-2.378607967473495705e-02 -1.245206580169394561e-01 5.100425036334474971e-01
-8.681629864780872341e-02 -7.460606046265608193e-02 4.437101298023353735e-01
-3.296359232593550070e-02 -1.162918671285459726e-01 5.449922790750312274e-01
-9.515484688774478172e-02 -1.200954781823636436e-01 4.800922335831885879e-01
-4.679234597447019806e-02 -1.198752608600177211e-01 5.287013214195146471e-01
-2.613750134403785425e-02 -1.115060625890045565e-01 4.751479452074476306e-01
-3.037226540096477079e-02 -1.055942002385550499e-01 4.684444063932552416e-01
-1.100547537361547118e-01 -1.167993128753885279e-01 4.941456585069992635e-01
-4.492850299205740361e-02 -8.149545596671117775e-02 4.500525468201566626e-01
-7.878552154316252609e-02 -1.032060862949995550e-01 4.621466741756521945e-01
-4.194823718718036776e-02 -8.017577558414540340e-02 4.493455266120173208e-01
-7.525973711648917264e-02 -1.193923002448810111e-01 5.040530025571143824e-01
-9.074885122978652852e-02 -1.164416742954054451e-01 4.741110281873314181e-01
-1.121681625982777070e-01 -1.152279684701697920e-01 4.971624449315118488e-01
-1.161195845875610949e-01 -1.149200878542107201e-01 4.784413854698535973e-01
-3.878426634672410556e-02 -1.179278630631875047e-01 4.938898539230370255e-01
-4.076654402052401482e-02 -1.199929229334303626e-01 5.034969309355907807e-01
-7.701248813566104190e-02 -1.001343203707053264e-01 4.594733855096720943e-01
-2.455596199719899120e-02 -1.217362646670260978e-01 4.966315063895087034e-01
-8.784959554507308643e-02 -1.109328344818323597e-01 5.163846420386378755e-01
-8.605074786410252252e-02 -1.132573166055323988e-01 5.162729374314459774e-01
-5.544744348147231938e-02 -1.164167676334301876e-01 4.927478362993997218e-01
-4.388341983218883163e-02 -7.909014453682976231e-02 4.489337686179912801e-01
-8.479917346271594047e-02 -8.863449191955519169e-02 4.496403230916820037e-01
-1.116939224947786913e-01 -1.086419281658388414e-01 4.650281348838172235e-01
-9.406952580617350401e-02 -9.706622456960077583e-02 4.541996879593059311e-01
-4.748696364882695753e-02 -1.136260315745405564e-01 5.353897137583678578e-01
-4.054693174107470294e-02 -1.205168369119738875e-01 5.314702329498320887e-01
-1.052312790472683668e-01 -8.688677235296936308e-02 4.577199907583032745e-01
-3.184659169913488935e-02 -9.540075032874434369e-02 4.583792951323062415e-01
-3.742322388288404911e-02 -1.190907097681517951e-01 4.975850544782938201e-01
-9.769489597672627312e-02 -1.182514895717707709e-01 4.995270098847781615e-01
-4.229697073158646126e-02 -8.699743380974389595e-02 4.533193900840014612e-01
-9.168625700378334187e-02 -1.123864488719098498e-01 4.661815477375318428e-01
-9.841420691143459853e-02 -1.190979245970170824e-01 4.909435592775292512e-01
-2.616369323775875888e-02 -1.112176358824750327e-01 4.747222988900868801e-01
-2.041578319157938762e-02 -1.197919199617819980e-01 5.485089786665287015e-01
-8.054218263338425166e-02 -1.093062632810127277e-01 4.693978298207125421e-01
-5.851675868724288965e-02 -1.081824558561383792e-01 4.727869173232613909e-01
-9.149587287881326414e-02 -1.177890596846401933e-01 4.765625499827997880e-01
-2.385750879428854068e-02 -1.010978245224894018e-01 5.594254217482640401e-01
-5.083764091618080821e-02 -1.014471432805752471e-01 4.650137517019300448e-01
-7.662315790195828313e-02 -1.193956547189586881e-01 5.036041218583137136e-01
-3.885000204465949292e-02 -1.192801472187348943e-01 4.988809451545069829e-01
-5.616169624054021675e-02 -6.952489293763372546e-02 4.444697377925874160e-01
-3.081561520405990198e-02 -1.215829838536849478e-01 5.024080920724193211e-01
-1.117931668634157272e-01 -1.178849981048775697e-01 4.857023153905449808e-01
-1.186204711073990392e-01 -1.021945042555133104e-01 4.683670235844489826e-01
-9.136704316784990954e-02 -1.123032461158796763e-01 4.663075146946023541e-01
-2.489815429602462021e-02 -1.138006714713623718e-01 4.779089391208053983e-01
-1.031945555184299868e-01 -1.210989144986844429e-01 4.789436085171229207e-01
-3.599927978346967317e-02 -8.507933338223744313e-02 4.518886824827683113e-01
-3.856927493299972670e-02 -7.914695354456569021e-02 4.486606199190967814e-01
-8.094210418192539225e-02 -1.127860868925767146e-01 5.200262764642141766e-01
-2.924680638494917342e-02 -1.201022820896711085e-01 4.951351550900505161e-01
-9.723983023856640207e-02 -1.166682464530200275e-01 5.075953529042884771e-01
-2.899798208307826156e-02 -1.164610686056685163e-01 4.860333758187071473e-01
-6.045243506904161845e-02 -9.210947851093839733e-02 4.543281212473072039e-01
-6.698598536630179234e-02 -1.180015424491250992e-01 4.968653279498256858e-01
-4.438305318167332092e-02 -9.209910649612230993e-02 4.572451670157496872e-01
-5.220985831301976771e-02 -1.161838331818728365e-01 4.909094508784905275e-01
-3.338251658355938234e-02 -1.118739025596487136e-01 4.793198821688774425e-01
-2.964421043102249617e-02 -9.922383683189683889e-02 4.607254891648215889e-01
-9.528904342482469314e-02 -1.197087529124713223e-01 4.866485439562195925e-01
-5.561374637123234904e-02 -1.191722068434675208e-01 5.205985332261416909e-01
-2.518522406938522931e-02 -1.176408690570222154e-01 4.852662832246523728e-01
-7.510878116678514071e-02 -9.707825091645025384e-02 4.569299489904660727e-01
-3.659748067833624996e-02 -9.924701916443309790e-02 4.630133415613473247e-01
-4.085474519631535767e-02 -1.170069818512983195e-01 4.918007860835474920e-01
-7.836507000826287150e-02 -1.167884768412349727e-01 4.869697737340774601e-01
-2.434226207255838284e-02 -1.085289479660965367e-01 5.576009571269582299e-01
-3.984856548555699290e-02 -1.090744017771681368e-01 5.408441741446509132e-01
-3.021847446572929752e-02 -1.233475058729903429e-01 5.220869250345314683e-01
-6.910208743558961253e-02 -1.153077987421158024e-01 4.862474539432572462e-01
-6.970559688952006339e-02 -1.145730928629871276e-01 4.845764619938505158e-01
-8.310894510917132827e-02 -1.183142823570013380e-01 4.911586484248504636e-01
-7.703092084277021745e-02 -1.193938289545415782e-01 5.029793717967266931e-01
-9.277998071810641956e-02 -1.077389555732430337e-01 4.611770573289009634e-01
-1.201704758704320586e-01 -1.027159348401487926e-01 4.711295979130781242e-01
-1.223999311425241591e-02 -1.248978119994704622e-01 4.979485023618115402e-01
-5.186849956258050842e-02 -8.008197257123228496e-02 4.488451952398906930e-01
-5.850347573515602556e-02 -6.625076551152705995e-02 4.431270245826594567e-01
-8.797844481250632898e-02 -7.379200621432650820e-02 4.443961839458789864e-01
-9.089008931250565360e-02 -7.197292497107375675e-02 4.482558164800166667e-01
-3.473683369271066829e-02 -8.539571101485464444e-02 4.517902379874950136e-01
-9.974663629502332485e-02 -9.524517778936317236e-02 4.534847694555149689e-01
-6.263623594164231811e-02 -9.741407303942219154e-02 4.585472230140399397e-01
-1.051540459820737433e-01 -1.184892200722730271e-01 4.925460588836644837e-01
-5.252645264405093883e-02 -1.098985524041911216e-01 4.768811822497083797e-01
-1.897864781733890616e-02 -1.209416022038695693e-01 4.895785612939995146e-01
-1.913616322051166566e-02 -1.186271400398740822e-01 4.841531230994398083e-01
-1.098304898635583809e-01 -1.129750183852067102e-01 5.005131670512533715e-01
-5.296545422046662621e-02 -1.055778053866635036e-01 4.700525955108204035e-01
-5.142491404782716796e-02 -1.199610204978365097e-01 5.166300714900305957e-01
-6.389674139285861365e-02 -1.156913044065975837e-01 4.891128000725666891e-01
-7.803408841141570851e-02 -7.445485048002006834e-02 4.419693113365767978e-01
-2.464302564068911530e-02 -1.221337609590972817e-01 4.979595912557034376e-01
-1.066537823441361249e-01 -1.134051316897362188e-01 5.019475476320087726e-01
-8.751931581235508628e-02 -1.186973881796624525e-01 5.034775807757871924e-01
-3.647604061528546965e-02 -1.175858247528593498e-01 4.920194153124006764e-01
-4.486905474243858827e-02 -1.198382900880843732e-01 5.315794459972533748e-01
-5.981315294361608942e-02 -9.679181159713959315e-02 4.582839942326374372e-01
-6.186391965240945617e-02 -6.473722860030119153e-02 4.421934857834318722e-01
-1.052846720610013942e-01 -1.082178373858338066e-01 4.615270974766664258e-01
-8.063822527891952030e-02 -1.155305725352345492e-01 5.176949231051173328e-01
-3.990447480883220488e-02 -1.090767870459598415e-01 4.748911795620965881e-01
-1.015772580971722461e-01 -1.019430661009309569e-01 4.570605736655213303e-01
-3.373299439083919660e-02 -1.219007171148371593e-01 5.087922235845487862e-01
-4.672258260043200828e-02 -1.204185854253677634e-01 5.196234734375329012e-01
-8.717173536629672925e-02 -1.035261196210025270e-01 4.597295157111850328e-01
-8.499665744803572287e-02 -9.709506095585594687e-02 4.555755522420611436e-01
-3.826379702161537139e-02 -1.203894967920928066e-01 5.336531604095484660e-01
-5.639667996365285707e-02 -8.477121769393412831e-02 4.503096520739734987e-01
-5.675619342800496819e-02 -6.941259411796224521e-02 4.443796471512572177e-01
-1.179434198255657901e-01 -1.026568966196108462e-01 4.672724381745750888e-01
-1.070337455231602369e-01 -1.199547944333185096e-01 4.832803027633117421e-01
-3.490962234379337004e-02 -9.910509805121497928e-02 4.623924084853425209e-01
-1.035278668871642826e-01 -1.197839996004464447e-01 4.865600066300935778e-01
-4.740308660054133247e-03 -1.288139262098897675e-01 5.184217972105904515e-01
-2.421803936013072062e-02 -1.234856469205080076e-01 5.030842353739218842e-01
-2.430832373605636143e-02 -1.078696234215412858e-01 4.686532784508979921e-01
-9.550012958354821280e-02 -1.175742917862487164e-01 4.719864299345226666e-01
-1.544645995704703283e-02 -1.255671458318696476e-01 5.024072463133225641e-01
-3.222375900047916991e-02 -1.228052553023594451e-01 5.197684325297738939e-01
-8.251148878855031621e-02 -8.971898318192554622e-02 4.504064543304881485e-01
-3.076334809924336985e-02 -1.225320925169112313e-01 5.096332880894663964e-01
-1.071450570468450297e-01 -1.175916636087526168e-01 4.944675458679086977e-01
-5.705996107633416053e-02 -1.175283721326203928e-01 4.971339407304561919e-01
-1.340499566596887147e-02 -1.269100173470548432e-01 5.074481615614377938e-01
-6.458505154791163716e-02 -5.889797140616872401e-02 4.407292959693930867e-01
-1.180692842500605105e-01 -1.048974027002200077e-01 4.686943607298055814e-01
-3.681683486436902741e-02 -8.978167415482130043e-02 4.554328261428474689e-01
-6.861080801134850082e-02 -1.077752628761966536e-01 4.703096798125832589e-01
-1.664089940351768174e-02 -1.166171864653429147e-01 4.791030517964454116e-01
-6.570182841931050677e-02 -9.862397970444546080e-02 4.592178879097183475e-01
-1.085306452535809707e-01 -1.173729972819296807e-01 4.716733265354525750e-01
-3.695508075042869267e-02 -1.152311551807545936e-01 4.867371585293943648e-01
-9.301424308946722175e-02 -1.107018702973936869e-01 4.641310243692890469e-01
-2.163483128361672059e-02 -1.180724049908122852e-01 5.513572516439367854e-01
-8.069668549486073983e-02 -1.083344017683488258e-01 5.228192487972459501e-01
-5.063375228775294362e-02 -1.187725716813271687e-01 5.274446670151295979e-01
-8.113655205170512696e-02 -1.160995216851363060e-01 5.168192476220068166e-01
-1.713538793515074349e-02 -1.223799478291435899e-01 4.924498330067261231e-01
-3.225909221933670468e-02 -1.216479452784741261e-01 5.044015927499765350e-01
-4.211774750146689283e-02 -7.592817086421976835e-02 4.473801731842820262e-01
-1.055819967878197096e-01 -1.206101537667787493e-01 4.793532209083438689e-01
-1.414053088339046332e-02 -1.191260374809275380e-01 4.835523885530332855e-01
-1.632568615759570282e-02 -1.245358357745458278e-01 4.990630389436350178e-01
-1.087777789358115865e-01 -1.190256253284580207e-01 4.859414881679605669e-01
-6.903596257333473318e-02 -1.085028020206513372e-01 4.714205978758568283e-01
-3.652879109606495256e-02 -1.218340408776543149e-01 5.264323210684223042e-01
-3.380733938550680578e-02 -1.074288994080262183e-01 5.456762895298258309e-01
-1.130166772536344427e-01 -1.090009033897306329e-01 4.660983935397551847e-01
-5.873634177284747793e-02 -1.060560659792378346e-01 4.694381745300313380e-01
-9.096431221545973889e-02 -1.083886054811940836e-01 4.623546934927200147e-01
-2.419137986099681795e-02 -1.203928249441468951e-01 4.920539488254824789e-01
-6.659855001978468025e-02 -5.937355351059443037e-02 4.405054662010089439e-01
-1.076109694687594071e-01 -9.171719110453029067e-02 4.575366977424272230e-01
-7.594549020283469787e-02 -6.464883547965916133e-02 4.396356946321245407e-01
-1.124357631061194684e-01 -1.174566863880373152e-01 4.812096604210198136e-01
-5.994467355527650226e-02 -1.098143018681814465e-01 5.304821945776179160e-01
-2.577715807357901581e-02 -1.170266134490602489e-01 5.506795898923275701e-01
-3.347332167512310358e-02 -1.069781986901390952e-01 4.711568869529742520e-01
-8.098966012594824293e-02 -1.184029093315376452e-01 4.919628319190548771e-01
-3.404932280580651172e-02 -1.013911789826721643e-01 4.643221237465083862e-01
-5.364778019980289553e-02 -1.114136047748975483e-01 4.794510601838690156e-01
-1.808589929058890267e-02 -1.263123881040421337e-01 5.168417403854155268e-01
-1.490926701894626852e-02 -1.254247080922220037e-01 5.314437910052998149e-01
-1.199729294582485284e-01 -1.059215344474375986e-01 4.891522769311443253e-01
-7.206295418713246081e-02 -1.189499568728345225e-01 5.110871528198831504e-01
-1.147229730634129058e-01 -1.165658642504025927e-01 4.855907385032576240e-01
-6.627880333737991292e-02 -1.093610654483073014e-01 4.739339851405582893e-01
-3.014586887012669913e-02 -1.098600759476759114e-01 4.748317581412634381e-01
-5.012004671613066314e-02 -1.199619889636598657e-01 5.203057905927773730e-01
-5.830046081567058502e-02 -1.171079460217605978e-01 5.257579925216200323e-01
-3.635183334150882128e-02 -8.562505473711116977e-02 4.523974467611674988e-01
-5.666714790384757422e-02 -6.408747775621567722e-02 4.426444563428162393e-01
-9.728282529997532568e-02 -9.177828399081329469e-02 4.514813949385939607e-01
-8.818689166860572970e-02 -1.151978738402846397e-01 5.139782877085290469e-01
-8.376955645766051561e-02 -9.115327908998291373e-02 4.512780652563901929e-01
-7.435738025155068376e-02 -8.557982346970045839e-02 4.478065146012107367e-01
-2.690800787696823876e-02 -1.118263573093640634e-01 4.761058208327989538e-01
-3.788272120572089285e-02 -1.215918213824859623e-01 5.154504905519339264e-01
-6.863308703161596913e-02 -1.169745604179839721e-01 4.910240090811675562e-01
-4.896711456523219347e-02 -1.151502518363468341e-01 4.875448088266099433e-01
-2.454039760894833819e-02 -1.021194616640960784e-01 4.613582872331947748e-01
-8.703057763097518662e-02 -7.400964410665325510e-02 4.437308318574321730e-01
-1.093430894261523262e-02 -9.765914819328326557e-02 5.674320259918229636e-01
-9.597154028898705058e-02 -9.122163302020334930e-02 4.511221569512052776e-01
-6.006280853097954037e-02 -1.047230289542082915e-01 4.674096479361689593e-01
-1.578221400060954988e-02 -1.237018039253424823e-01 5.383982603294341640e-01
-8.637764614824596648e-03 -1.224242709555639630e-01 5.393631642160809925e-01
-8.227498247711785562e-02 -7.699844158220725543e-02 4.429114589231381571e-01
-9.778680600989538008e-02 -9.524729516431422460e-02 4.533973689685589226e-01
-7.766575404494578672e-02 -1.182499600875753371e-01 4.916877375266326955e-01
-4.858957131041674593e-02 -1.200001798409250919e-01 5.108550298602239081e-01
-6.381912838513111030e-02 -1.155702745113915408e-01 4.886271934048518895e-01
-1.086259462323387326e-01 -1.060174124503090454e-01 4.615193641530887514e-01
-6.352080118931834052e-02 -1.170751813592642299e-01 5.225762682703576356e-01
-8.990379611819458716e-02 -1.184309289055536785e-01 5.037093035402787633e-01
-9.541775225338608446e-02 -1.181784856920278931e-01 4.736466951958805405e-01
-8.763548288120170948e-02 -1.192739866712862057e-01 4.950209262060993320e-01
-2.490861623115111709e-02 -1.240882310235399549e-01 5.087362726593541717e-01
-9.284358242652329674e-02 -9.033574354110657234e-02 4.506360574367738736e-01
-1.136085459309175844e-01 -1.115097145064639778e-01 4.692197061525650303e-01
-9.254391078359114342e-02 -7.926267554876838262e-02 4.485227425787431943e-01
-2.296533118389936304e-02 -1.211878351318501218e-01 4.934780736900425402e-01
-5.856743637204070430e-02 -6.347375046232879570e-02 4.423254943974149755e-01
-5.153378074535170522e-02 -1.158374258203421353e-01 5.318278993443745772e-01
-8.045441159846770940e-02 -1.047469660148166726e-01 4.632658763505734245e-01
-9.351313935248527220e-02 -7.674095554239875050e-02 4.497282726440979816e-01
-5.253997023837588681e-02 -8.138524418009039640e-02 4.492526361295185455e-01
-8.068444892873941066e-02 -1.011375661877998711e-01 4.596733471158063744e-01
-9.672214455028524394e-02 -1.189987232511597742e-01 4.937253064208368958e-01
-1.652839753285137089e-02 -1.264718146970080226e-01 5.110406076153782839e-01
-6.085312792359783007e-02 -1.001342472831796837e-01 4.614817578021169209e-01
-7.139912554008490120e-02 -1.155052978786998558e-01 4.857496229131846310e-01
-3.596244140129372518e-02 -8.386082445610333613e-02 4.509066481126776660e-01
-4.986215736187584596e-02 -9.707702990180797076e-02 4.606603757028125412e-01
-6.761051100351034293e-02 -6.296947955925137619e-02 4.408340133737965183e-01
-4.874349757448352694e-02 -1.025691804423577019e-01 4.666284050644150527e-01
-1.022277895068762210e-01 -1.133785457690988929e-01 4.630058445203996120e-01
-9.021637073349610125e-02 -1.043409217831018226e-01 4.595145684388122764e-01
-1.071365231008452601e-01 -1.166005463135660475e-01 4.971324215169512506e-01
-7.987261881651436246e-02 -1.117249635667085378e-01 4.729586839294818157e-01
-7.174263012660489491e-02 -9.063146494693628819e-02 4.516830997698704775e-01
-1.115371957806139541e-01 -1.127033516215371761e-01 4.996798205836131546e-01
-7.179561646085240445e-02 -6.644416781819821594e-02 4.405004764720258370e-01
-6.634870366154660415e-02 -1.129404499755598951e-01 4.811878516277723339e-01
-3.011884099959621572e-02 -1.059132054134365869e-01 4.688123245860632005e-01
-6.586233389471594923e-02 -8.454409494432749139e-02 4.484500879593533718e-01
-1.190318058847734256e-01 -1.100671758523921878e-01 4.775711704350821818e-01
-6.827298075436751337e-03 -1.278107969257108456e-01 5.275898498894153743e-01
-5.042452853984873140e-02 -1.189498149674950433e-01 5.029821819133891703e-01
-6.276770874942250167e-02 -8.597354927082691278e-02 4.498407759281275453e-01
-5.701613622440394880e-02 -1.057912476887439140e-01 4.696146815715332434e-01
-1.039173080012178590e-01 -1.139514633291375673e-01 4.629622315150517253e-01
-1.523224209436925547e-02 -1.235449037192160177e-01 4.949246192184302284e-01
-5.974900735403969321e-02 -1.164218548837350486e-01 4.931532902359652693e-01
-6.508087488531158482e-02 -1.191817140637343314e-01 5.062998179425837186e-01
-7.456707481901239665e-02 -1.054514021241931415e-01 4.655969671247236485e-01
-5.632169842680581628e-02 -1.073989091155015257e-01 4.721734991277850013e-01
-1.198959570008303749e-01 -1.074461836753211608e-01 4.757507903211301015e-01
-1.209249606341268879e-01 -1.015643617409931060e-01 4.722142278712502250e-01
-1.041194731531901313e-01 -1.215638162774162895e-01 4.771953641920027023e-01
-8.452364653318023002e-02 -1.030182623788529345e-01 4.602424556767874542e-01
-8.492247004829463208e-02 -1.177914394879494286e-01 5.114793691114892793e-01
-7.612541170049230699e-02 -9.856923155260872982e-02 4.581111625509026175e-01
-8.150929712876932298e-02 -1.161636825131133616e-01 5.165480143230363197e-01
-9.218980075410117270e-02 -7.907097692404847777e-02 4.481864966921176863e-01
-3.760643598494958773e-02 -1.198563668566094559e-01 5.358833629445954871e-01
-2.429198644522392175e-02 -1.131026458172164906e-01 5.554648324921976910e-01
-8.771773713515525206e-02 -8.968425436466849476e-02 4.503532164094481982e-01
-4.743196099792757608e-02 -9.152365858246015728e-02 4.564726326941565548e-01
-1.858412329249290590e-02 -1.257556864064762747e-01 5.287239013768203488e-01
-2.019893619155406495e-02 -1.149169419039846041e-01 4.771178512570545815e-01
-6.925560540426425882e-02 -9.910700108169663569e-02 4.590815836742591083e-01
-6.255840263168732651e-02 -9.702414562192113179e-02 4.581691247011124846e-01
-1.833516546431856326e-02 -1.229204185517573655e-01 5.420344018312782675e-01
-2.891888929363167424e-02 -1.211561953832724359e-01 5.408384064198215047e-01
-2.722290214513181650e-02 -1.064774497436454526e-01 4.684178067022070624e-01
-5.084365861799813174e-02 -6.351231071580497323e-02 4.429825737545027287e-01
-7.929277220103189694e-02 -7.824234019665377016e-02 4.432128149736831446e-01
-7.870425823272962640e-02 -1.154497656167262770e-01 4.836276312644164910e-01
-1.316796454907883523e-02 -1.239252469899382036e-01 5.369499095986330905e-01
-9.558060460936570329e-03 -9.874485844473013252e-02 5.672407518658771908e-01
-5.258012261357932621e-02 -7.600631141992383877e-02 4.472385224946037741e-01
-1.209889455007981118e-01 -1.045389198474399872e-01 4.827221033538601769e-01
-7.605793378078253182e-03 -9.717761647110526035e-02 5.681218351535894939e-01
-1.178974448906279227e-01 -1.118154783976007816e-01 4.922369502109031347e-01
-1.100330791516508921e-01 -9.410061743767873799e-02 4.581574602208167701e-01
-4.828902879557305655e-02 -7.411368542015073224e-02 4.467976402350903875e-01
-3.358909569409534307e-02 -9.223027745403669653e-02 4.567266992671074610e-01
-8.459242484329605738e-02 -1.162165473415620043e-01 4.785491146782381855e-01
-2.812192588777063379e-02 -1.053772467272248853e-01 4.672490187506887493e-01
-3.459802541061520603e-02 -1.173144655843000178e-01 4.905281154078287020e-01
-7.704536837544020966e-02 -1.191649465058960966e-01 5.074980260443145985e-01
-5.840062482670530658e-02 -1.165835957493311370e-01 4.936756962355580702e-01
-4.055384271988339562e-02 -1.002559023081282807e-01 4.646661465767150112e-01
-6.379632528382020440e-02 -1.180212675623217994e-01 5.198931921541648515e-01
-1.452105106553663524e-02 -1.180751256135499638e-01 4.814704801825077651e-01
-7.758533912751326700e-02 -1.089197127798355591e-01 4.697853923921603836e-01
-1.128402724910871485e-01 -1.174168034458573928e-01 4.838902510931761825e-01
-1.575625211394542438e-02 -1.267691940295084807e-01 5.137332083617397460e-01
-6.451302296403291225e-02 -6.053359008458135404e-02 4.410395433492633188e-01
-7.583016181305939074e-02 -1.193637622818458782e-01 4.986738551312275836e-01
-4.435604973495249626e-02 -9.804105620159803136e-02 4.620266846259128424e-01
-2.052416565539116194e-02 -1.256454843006759581e-01 5.274760978587430538e-01
-6.343081121911900433e-02 -6.845566755774259993e-02 4.430728875639339814e-01
-9.932080875492750593e-02 -1.174526506349951871e-01 4.674055388757656915e-01
-5.980776007716204212e-02 -1.106340449740287613e-01 4.777216308337238204e-01
-1.088542886512062074e-01 -1.172211000947066956e-01 4.717555621899117702e-01
-7.120775539034777946e-02 -6.946551192888376913e-02 4.413707237826292040e-01
-6.395363194078977631e-02 -1.188647303229325991e-01 5.146341039488743219e-01
-6.844665908570340962e-02 -1.189185149775753292e-01 5.031342688156563714e-01
-9.480593208011114936e-02 -8.155096814045229014e-02 4.494207753661786930e-01
-1.063916882392845903e-01 -1.137015582906946709e-01 4.650811051636674631e-01
-7.852047631263117666e-02 -1.191325045885943401e-01 5.073171418274589062e-01
-5.723207527187294807e-02 -1.146404867338441241e-01 4.872103202722971593e-01
-2.516187704714171677e-02 -1.239619211439363100e-01 5.080199391898058137e-01
-5.790117383940852208e-02 -6.536527526362748142e-02 4.429099466592046341e-01
-3.723779928259727395e-02 -1.089978947429524891e-01 4.744807750262388657e-01
-2.509643740387956096e-02 -1.009569382044160635e-01 5.565262646854239881e-01
-4.789907515574755997e-02 -1.137438168807600736e-01 4.841216615478252661e-01
-1.055179703129914687e-01 -1.220622583119560095e-01 4.755137682040190272e-01
-5.780623323104371047e-02 -9.751081841499782688e-02 4.592869473443591533e-01
-5.406034860970250489e-02 -1.198914794652999050e-01 5.124739554391567475e-01
-4.535970661081260152e-02 -1.201281243276512145e-01 5.077522757476019555e-01
-7.864087582082010530e-02 -1.155965692708056242e-01 4.839629591026473054e-01
-4.168435557757650678e-02 -1.204550602043954755e-01 5.306903458595143563e-01
-9.861522222697180484e-02 -9.578786031121858113e-02 4.537546685997594920e-01
-1.612508748155112512e-02 -1.200639733521144115e-01 4.861776859903438330e-01
-3.812558251863662484e-02 -1.216775775283293476e-01 5.246702794358316657e-01
-1.167328643108774405e-01 -1.131595120661736675e-01 4.753144751399791534e-01
-3.579592709468723544e-02 -1.179068025607734882e-01 4.924077544234227721e-01
-1.183663616321839890e-01 -1.116334465601163256e-01 4.916820175429513773e-01
-4.922008562448431518e-02 -1.095840549717356782e-01 4.766010922877509381e-01
-2.660318146228527261e-02 -1.087941053721910994e-01 4.712936254675720305e-01
-6.787617200865421474e-02 -9.087825508913882633e-02 4.522664918456921201e-01
-5.017707789720989020e-02 -5.714919165532698214e-02 4.414482345582800282e-01
-5.202557905518351983e-02 -9.810995200263956939e-02 4.611383849629913101e-01
-7.690495706630143258e-02 -1.193890701665105691e-01 5.022494813670274061e-01
-9.646106760489450704e-02 -1.021030309951905801e-01 4.576260332598082736e-01
-3.163962686015914932e-02 -1.210798037794332815e-01 5.378224354942751084e-01
-1.372059793272565470e-02 -1.169345147807390184e-01 5.547293063446614436e-01
-8.103974371068325966e-02 -8.187029466032007263e-02 4.452915357952273445e-01
-5.637286130152145691e-02 -6.404775947552771020e-02 4.426697043076871507e-01
-5.180763106692646419e-02 -1.138746366615348560e-01 4.848976445582044992e-01
-6.371948342972069690e-02 -7.579893228725828602e-02 4.450746254950846970e-01
-4.763376233411886068e-02 -1.152107182234012733e-01 4.875767290642936680e-01
-9.188099593786277011e-03 -1.228920070524397584e-01 5.389115196004051755e-01
-4.522603008760003873e-02 -1.166051998151227398e-01 4.913582531231446837e-01
-2.352327512198335024e-02 -9.717555456782173140e-02 5.579628989130609451e-01
-5.458611015389524396e-02 -8.156599335459098488e-02 4.490922835338546637e-01
-9.215220550023453527e-02 -9.220349951335619909e-02 4.515515379969068377e-01
-5.500357960011211661e-02 -1.098735100392053826e-01 5.334975799305710087e-01
-7.892538846267699304e-02 -7.600611744836356654e-02 4.423775142843065500e-01
-5.604727374244293514e-02 -5.785410014654148586e-02 4.414933952078701207e-01
-7.234887239596969610e-02 -6.744297833811509213e-02 4.406523437419868627e-01
-8.516323558623594553e-03 -1.256856504669244257e-01 4.987279876226473618e-01
-1.518776906748710298e-02 -1.268842080259226235e-01 5.228776209620711324e-01
-1.845469171043780457e-02 -1.201274690517931953e-01 5.485577188268682125e-01
-4.216791324444881667e-02 -1.103520394233734603e-01 5.399975172234166010e-01
-2.882611423674784346e-02 -1.236493926728386844e-01 5.204698933587269538e-01
-3.443224948818742609e-02 -1.151057168776140477e-01 4.861156642127000826e-01
-1.184824269426623666e-01 -1.116295143198791084e-01 4.790430076628308109e-01
-7.066411388580459696e-02 -1.187427053612711003e-01 5.137997366579829528e-01
-1.194924442365212225e-01 -1.092083328213196147e-01 4.782109417549150754e-01
-3.880055234582417689e-02 -1.205464535219002153e-01 5.059608917725849642e-01
-4.591680224606363436e-02 -7.293832528609167642e-02 4.461796723473932524e-01
-3.337503199666373016e-02 -1.072811761387231361e-01 5.461821707974644502e-01
-6.490268585305963844e-02 -1.135155049407557681e-01 4.828278305286093919e-01
-8.843766078600941161e-02 -1.190129495850908437e-01 4.989141693085856755e-01
-9.169953974244088313e-02 -9.656035474631496918e-02 4.537687702117513822e-01
-1.889235284759677516e-02 -1.154332497612019504e-01 5.561641047959651196e-01
-2.671557821311502240e-02 -1.190025324748476693e-01 5.466840898333390486e-01
-1.612305820740929374e-02 -1.240258498153497951e-01 4.971827153522360709e-01
-3.067504477871262764e-02 -1.200700015717397900e-01 4.958870058396203651e-01
-3.919564433747103199e-02 -1.201811191770114640e-01 5.336724791357441156e-01
-2.804243523548974673e-02 -1.209216548943603808e-01 5.418266995020578625e-01
-8.984587395180280989e-02 -1.174286333398261578e-01 5.091797926864208845e-01
-4.553474802782326442e-02 -1.196213706136088628e-01 5.323267347193433308e-01
-7.577457355776268111e-02 -1.183574213688340371e-01 4.922805937579228797e-01
-4.833010109364546669e-02 -8.862915221521555642e-02 4.540182160225505470e-01
-2.448471145727541126e-02 -1.116465108355135100e-01 4.743476790890782113e-01
-1.542500663437815049e-02 -1.240796968460532584e-01 4.968422585592324192e-01
-5.543754458001176610e-02 -1.109925051441157801e-01 5.328181786551834387e-01
-2.511868515976665647e-02 -1.193184416595101521e-01 5.471765670054239417e-01
-1.192409103827138106e-01 -1.099610847220035686e-01 4.809249491064793158e-01
