-2.610291235242884894e-02 -1.091558069083547189e-01 4.716381226705359531e-01
-6.205871003043610112e-02 -1.154622791447552504e-01 4.891567888674410169e-01
-8.631871593338509563e-02 -6.995904738356173436e-02 4.429473299926293128e-01
-3.827094957906646694e-02 -8.448656461104868398e-02 4.519477413448382830e-01
-7.564915847942650651e-02 -1.147239448288477764e-01 5.217123603626693251e-01
-7.222168766978910581e-02 -6.975559201235131956e-02 4.414727916903175564e-01
-7.685104604407080875e-02 -1.069267190073949769e-01 4.671214404019276012e-01
-2.208757400798196102e-02 -1.209500603257327583e-01 4.921197787213454355e-01
-2.567369624462042393e-02 -1.003201543766383957e-01 5.550427967913894589e-01
-4.626321548712029885e-02 -7.216857540702908969e-02 4.460435024715790342e-01
-4.165921919391939177e-02 -1.110695031907823621e-01 4.789675187177012128e-01
-1.488893387113021834e-02 -1.249070827345931528e-01 4.993686349311103334e-01
-7.455773612613114665e-02 -5.839788601588317973e-02 4.410201870041720040e-01
-1.890430250917702823e-02 -1.187025746055010572e-01 4.843730015889246010e-01
-9.932625412530492193e-02 -1.197115232348361508e-01 4.865770562349525097e-01
-5.834287893935481001e-02 -1.013143499000061787e-01 4.634386768931949008e-01
-9.754337498707464638e-02 -1.173141706604873685e-01 4.679953266299276549e-01
-6.468381859169476666e-02 -8.613933881678252635e-02 4.498308435564558616e-01
-9.373058109984791497e-02 -1.108832409013132680e-01 4.644351364718975472e-01
-4.084964616424253958e-02 -9.666189396822739976e-02 4.614048342336051767e-01
-4.994418795889783019e-02 -1.033056961342615904e-01 4.676689695313857031e-01
-7.075450374619331184e-02 -1.118975373794114936e-01 4.779917228963379006e-01
-1.774242761992957801e-02 -1.206537932814892161e-01 4.881863670825288271e-01
-5.105241316742173407e-02 -1.191453142558541178e-01 5.235412849101692689e-01
-4.254082822743245756e-02 -1.161736524507469698e-01 4.900597338760567800e-01
-4.120483648729139636e-02 -1.191830212502277553e-01 4.995986017876114516e-01
-8.781602322114023806e-02 -7.610702117118609000e-02 4.450288493184723637e-01
-3.764439122003766791e-02 -1.134821772993058059e-01 4.833700585235391478e-01
-6.506893161282888138e-02 -1.062461242055075250e-01 4.684319370767788815e-01
-5.390006789031113327e-02 -1.078642656243288533e-01 4.740648577296150412e-01
-1.283892930175882345e-02 -1.242336230475492020e-01 4.961208722176385089e-01
-3.960277298638421872e-02 -1.144610519152491901e-01 5.402390834975692169e-01
-3.950133136945005452e-02 -9.122934752403091818e-02 4.569429510674883343e-01
-2.667644711481743577e-02 -1.235094722251996319e-01 5.081841296544107323e-01
-9.483912603046434908e-02 -8.317649193370461880e-02 4.492681816073561540e-01
-1.065824267124385188e-01 -9.680611927425125662e-02 4.563988287476286598e-01
-2.959340481657409677e-02 -1.014487743854296103e-01 4.629414327601001355e-01
-1.999772492033928886e-02 -1.109022211681793130e-01 4.709626335171778200e-01
-8.651957264138443460e-02 -1.185218631250916366e-01 5.079123430559507879e-01
-6.736787396452732779e-02 -6.379613480350346255e-02 4.411928288031372047e-01
-1.273459937864107432e-02 -1.268847312944642036e-01 5.069870413114143659e-01
-8.022784387286760466e-02 -1.152812600755936945e-01 4.812723423052161498e-01
-8.142253313585592900e-02 -1.166637528260677514e-01 4.863571540678222060e-01
-9.886337149639000399e-02 -1.087356260808274022e-01 4.600969608825172807e-01
-9.333289466164993581e-03 -9.844703360799092473e-02 5.674462138340611306e-01
-2.962778584988012831e-02 -1.132785662484084577e-01 4.802806286193774810e-01
-1.091104366543365622e-01 -1.196881054858285609e-01 4.811653906790886448e-01
-8.200572675881470652e-02 -9.277421432625057585e-02 4.530173770925502996e-01
-2.771899068512220440e-02 -1.008272038600454001e-01 4.615215791733246475e-01
-7.563933615399352772e-02 -1.083117732067409023e-01 4.696957205594564644e-01
-1.355562240881520546e-02 -9.736490551100647484e-02 5.669798189834137636e-01
-6.785638222019539645e-02 -1.183155072635983240e-01 4.988312949587258571e-01
-5.607737995863103231e-02 -1.126542558879454203e-01 5.316229241621489576e-01
-6.172559936046072976e-02 -1.072708172424525624e-01 5.305716641255402433e-01
-9.493193542564752618e-02 -1.188914807800110635e-01 4.767820198723608516e-01
-7.667664767356253963e-02 -6.702522469225893897e-02 4.399532134375834236e-01
-4.233335719942690756e-02 -1.076883086181557037e-01 4.733242033173173935e-01
-7.748833975782835892e-02 -1.179147763458584658e-01 5.150020863216533407e-01
-6.070220238017753900e-02 -1.125660312961927756e-01 4.818907897735971724e-01
-5.462063300111835717e-02 -1.098689673145696460e-01 5.338909422059093801e-01
-7.614738168908159743e-02 -1.043202796098114810e-01 4.641828460831680658e-01
-1.094286072157516637e-01 -1.187059136579098340e-01 4.856726093669165301e-01
-4.168374555482081550e-02 -8.543874905767152861e-02 4.524929231147235553e-01
-8.022963558835723152e-02 -1.007420579872545380e-01 4.597094638344136341e-01
-1.315836820062224639e-02 -1.213890857053319811e-01 4.882776126114245496e-01
-3.172971106944542236e-02 -1.220303949091964824e-01 5.064724024579767558e-01
-9.618278209662595168e-02 -8.160903113361486771e-02 4.503899066479959967e-01
-8.776852108596534807e-02 -1.191074657446083984e-01 4.972932051702821932e-01
-4.580317504804522905e-02 -9.608916663548498771e-02 4.604575904410151410e-01
-7.833839209163916129e-02 -1.173963684971463944e-01 4.888414891034881804e-01
-7.380867474909057202e-02 -1.068656389327189843e-01 4.679446250233301741e-01
-3.579035992515274683e-02 -1.132120280452855593e-01 4.826391905676498117e-01
-8.274433713149559333e-02 -1.132145270337411025e-01 5.188805636141571309e-01
-2.711733725362948030e-02 -1.234196111709220112e-01 5.312375288748281132e-01
-3.471628364131731231e-02 -1.216059700608747018e-01 5.080627056118888207e-01
-2.461093082146119382e-02 -1.116079890940891578e-01 4.744933607653882279e-01
-4.128741134437882015e-02 -1.168111385058937246e-01 4.915719496946310829e-01
-6.492970969854025554e-02 -1.093330656755463759e-01 4.745178664878823560e-01
-1.024729234000674449e-01 -1.039562330762694858e-01 4.587014390483526993e-01
-8.147796632660742056e-03 -1.279142214772956143e-01 5.266848776927701703e-01
-7.927317129965741338e-02 -1.112342098356914888e-01 4.729233632174313917e-01
-2.326091351225766102e-02 -1.248521860941805700e-01 5.137354785939710622e-01
-9.865407426339663222e-02 -8.067869969911443950e-02 4.539815977569797711e-01
-9.942297653761487941e-02 -8.518717936551292724e-02 4.521015999341083114e-01
-5.554342643691020237e-02 -8.595031404605235625e-02 4.512453880691602581e-01
-1.073875645166527948e-01 -9.459199828821679423e-02 4.568364711742650131e-01
-2.542617116832171509e-02 -1.243751630156807036e-01 5.164898338018155677e-01
-6.763070947337555816e-02 -1.057177669816574683e-01 4.674723992960258534e-01
-5.017763337598177276e-02 -1.169520263472158816e-01 4.931761448842589823e-01
-5.315502332792190754e-02 -1.102143446250893055e-01 4.774938236313877593e-01
-7.758002786694445652e-02 -1.184727053974973382e-01 4.934521417869827675e-01
-8.625489112165454775e-02 -1.171534040292338680e-01 4.795039180571302739e-01
-4.834618745580238769e-02 -1.126329525035152518e-01 5.354905204044357880e-01
-3.734184477801458929e-02 -1.193615365892653490e-01 5.377125650572172066e-01
-5.464843691052409524e-02 -1.013451248435141977e-01 4.645379757201791859e-01
-8.786667307384087022e-02 -8.416621495018689059e-02 4.474680723220532674e-01
-1.077420300411033732e-01 -9.933910121033132090e-02 4.577510675556524800e-01
-2.423314619800939762e-02 -1.211604297760614374e-01 5.437440257019133805e-01
-5.582674440986082343e-02 -7.684420219170177979e-02 4.472347769427967856e-01
-5.905408187968604061e-02 -9.128684103321534071e-02 4.541371225991084892e-01
-9.714853782041792118e-02 -1.204643688234989518e-01 4.783705746078121823e-01
-1.028925048345166737e-01 -1.154679684640966958e-01 5.029042150179358073e-01
-4.523434789689882718e-02 -1.131920114391448406e-01 5.369754911293703747e-01
-7.020398980927980426e-02 -6.797295619490216489e-02 4.414498172870215398e-01
-1.036416474299830109e-01 -1.036751134774576560e-01 4.587607403118857952e-01
-9.344860555370632094e-02 -1.024286916842259143e-01 4.581869087616428082e-01
-8.877232800637738230e-02 -1.159343864459773249e-01 5.133244500673327382e-01
-1.123590792613304301e-01 -1.151890038336686461e-01 4.726048023030068879e-01
-2.243986523602225017e-02 -1.175756298235107883e-01 4.834839049512953402e-01
-8.251214582230079198e-02 -1.151622865370885151e-01 5.173579806142970527e-01
-7.590507352595059209e-02 -7.189843530493486568e-02 4.415829705055170362e-01
-9.109941906671105427e-02 -1.161991173592667320e-01 4.735788044086629567e-01
-3.507010192688884975e-02 -1.179639354382018140e-01 4.923770575836630692e-01
-7.401226376831830656e-02 -1.111744364238387850e-01 5.251115447091569965e-01
-1.060138350329573043e-01 -9.894050299493396816e-02 4.570457490919308530e-01
-1.984015268475337879e-02 -1.163124715446002266e-01 5.549111001947756305e-01
-3.537372931895566008e-02 -9.964777400717921008e-02 4.631619880736588812e-01
-6.900497882138416361e-02 -6.143910136405416472e-02 4.405421198485173773e-01
-5.711827625249741441e-02 -1.124052482467888248e-01 4.819992078220906029e-01
-3.835069898835270774e-02 -1.105522274048447995e-01 4.776071097904234786e-01
-1.506239993894933210e-02 -1.262570134475120842e-01 5.280977898362901879e-01
-1.143910254272041543e-01 -1.014680008668326916e-01 4.625987336847074416e-01
-3.479114998626180177e-02 -1.223000797556946240e-01 5.208917228542017108e-01
-2.183271859123149181e-02 -1.254924835574743602e-01 5.228883973266165164e-01
-6.310734426860521717e-02 -7.107454247021666172e-02 4.440387565142706050e-01
-4.357576609577414051e-02 -1.057165688597003772e-01 4.706876080300494980e-01
-8.192165457216431246e-02 -7.407709914042875932e-02 4.421819037275757092e-01
-5.086694060176540078e-02 -1.124125889623499158e-01 5.346005519863114008e-01
-7.981481316227811984e-02 -7.179180128005759054e-02 4.415385522235572568e-01
-1.137103508803255780e-01 -1.169992456867868236e-01 4.880411524444086546e-01
-1.021549292920816421e-01 -9.990391462930676980e-02 4.564803045497719536e-01
-1.376104426967868916e-02 -1.272764543866249098e-01 5.149371175303479875e-01
-9.586160149349205739e-02 -1.123884409046579935e-01 4.647978201003604704e-01
-2.423290488851791158e-02 -1.126290311325861965e-01 5.559343109353759305e-01
-1.125277087228041123e-01 -1.158038531006320010e-01 4.736922819890116432e-01
-3.057130556411041117e-02 -1.182551972353483444e-01 5.453540182001991310e-01
-4.508636877658420833e-02 -1.019436027836459202e-01 4.663486909440358041e-01
-4.136511230523422233e-02 -1.026790515397682235e-01 4.672950204508396488e-01
-9.305848158401239245e-02 -1.063764696656516323e-01 4.606354913249215421e-01
-1.062391122792839537e-01 -9.913288245166394785e-02 4.571884637935283990e-01
-3.803414772014756390e-02 -1.065028728484168213e-01 4.714263823858396707e-01
-6.011208043153487557e-02 -6.237580416233887148e-02 4.421619375255174678e-01
-9.903934105819196809e-02 -1.190870531510173219e-01 4.905033716540873057e-01
-5.423557419421891346e-02 -1.106841025364245779e-01 5.337953478718860945e-01
-9.452506566586580880e-03 -1.003962886643374047e-01 5.667063150925764070e-01
-2.698121982930317200e-02 -1.207695454484898484e-01 4.957624044366489291e-01
-5.893701690278715932e-02 -1.149949388755354129e-01 5.291521720864375000e-01
-9.983582916609465285e-02 -8.465730207510056837e-02 4.525985033725100637e-01
-5.999267711228264965e-02 -9.018922681949659292e-02 4.532441058879588813e-01
-9.539606885690249394e-02 -1.122080912529943297e-01 4.648924895188082940e-01
-8.554107781523823117e-02 -1.179931864191706148e-01 4.897986059910772183e-01
-1.088571049360537168e-01 -1.186991739911195526e-01 4.884542595016957423e-01
-1.056956867994287841e-01 -1.185696188736816009e-01 4.715047055044850333e-01
-5.880283015676247838e-02 -1.152245386591888437e-01 4.892573586208271985e-01
-5.935034154537378870e-02 -1.062187382976745725e-01 4.697077747330092312e-01
-7.937692478757989167e-02 -1.093019245831433062e-01 4.701905722424328249e-01
-1.819841239104707381e-02 -1.220321254369681474e-01 4.923235644795675992e-01
-8.059239977903842611e-02 -1.074759882487372614e-01 4.666151640556608915e-01
-8.829892903363253942e-02 -1.107257130967480574e-01 5.164818190254821806e-01
-4.017913226472494270e-02 -1.199126408247159353e-01 5.028554461652064989e-01
-4.815557148711269164e-02 -1.087358497768623755e-01 4.755482984934376045e-01
-1.989319854951859118e-02 -1.248517110422755483e-01 5.323448736594698083e-01
-5.439905029428129118e-02 -1.076885227386818328e-01 5.347720530333165412e-01
-4.327554640575353301e-02 -1.033378266531662787e-01 4.679770460480185412e-01
-1.576052959461844011e-02 -1.265229553259753226e-01 5.239370745991904776e-01
-9.665436134375325616e-02 -1.203805951087761061e-01 4.827205331519450748e-01
-9.026629418355019974e-02 -1.162190295969871001e-01 5.120695614792695194e-01
-5.101036630649955633e-02 -1.178605091435743629e-01 4.975727878176466334e-01
-6.757592836248751955e-02 -1.147751319940487208e-01 4.860483232787160546e-01
-5.272831879316875608e-02 -1.060784462227120639e-01 4.709676845250303501e-01
-1.092113407159379102e-01 -1.193600111220675802e-01 4.823268596883214521e-01
-1.078032709189173238e-01 -1.199440527706869958e-01 4.825086883893820455e-01
-1.419191153135809444e-02 -1.254671734626519042e-01 5.316193742420632917e-01
-4.435029005456472828e-02 -1.065122040798939101e-01 4.718446169501427367e-01
-9.003392344989569196e-02 -1.061707436546722727e-01 4.609908077833099194e-01
-2.946054367241399824e-02 -1.079873755826575576e-01 5.517660226347210761e-01
-1.535756519296849372e-02 -1.262860217672294172e-01 5.273510228003517319e-01
-5.516895241132173389e-02 -7.574864259309570247e-02 4.469430021840313794e-01
-3.441358612161627556e-02 -1.146804869508698255e-01 5.443185940850904236e-01
-2.012110872644198162e-02 -1.092084082085471308e-01 5.609344071027181355e-01
-1.048956018338807333e-01 -1.150365571591411562e-01 4.662226063551265232e-01
-8.260837892694147810e-02 -1.144230087069145890e-01 5.181051677211657713e-01
-9.764621538861512073e-03 -1.262220431055687542e-01 5.011936472611030480e-01
-7.537964781838525641e-02 -8.260231729456714300e-02 4.458803376079144010e-01
-7.627343647624033884e-02 -1.087164643790659996e-01 4.702142353186396506e-01
-3.535673919283750799e-02 -8.458882601883847829e-02 4.514769439485848967e-01
-3.103260025607405131e-02 -1.226085334718751974e-01 5.115266022574499472e-01
-8.162852755010549521e-02 -8.295442763656654672e-02 4.462430959924474916e-01
-9.052934475358097310e-02 -9.854881331112166909e-02 4.555433903004267315e-01
-3.028960874918927917e-02 -1.232795328347867647e-01 5.256006634632819363e-01
-6.162335215716992914e-02 -1.176951653875442094e-01 5.226830810875984223e-01
-1.042358368534489627e-01 -1.169075426428064918e-01 4.995628501938322863e-01
-1.663789704868406938e-02 -1.242823487855939796e-01 5.352674827350304421e-01
-3.871806755986112458e-03 -1.287862107712845205e-01 5.163771531915010149e-01
-1.159487098107942621e-02 -1.276398981885086825e-01 5.236153478033471753e-01
-1.361141739304461834e-02 -1.262194762697266548e-01 5.042746744020676353e-01
-8.256112670280847665e-02 -1.119858378059042647e-01 4.726924791020201688e-01
-6.917541239540478393e-02 -1.166321202209205238e-01 4.898430647522722392e-01
-1.173127727324747016e-01 -1.153657758586714571e-01 4.877787248867724856e-01
-1.878577952079539884e-02 -1.242225225977186265e-01 5.351864334284417435e-01
-5.873264580199048096e-02 -1.192517422244944031e-01 5.118659041841135959e-01
-4.713399532070682713e-02 -7.325713775954621754e-02 4.465430369974539571e-01
-2.461818600306422272e-02 -1.053528770064533632e-01 5.581502152969735064e-01
-2.429856175605404206e-02 -1.209180232727681548e-01 4.939942708812616323e-01
-2.556709313117573948e-02 -1.212384547400139762e-01 4.961485574890303618e-01
-7.951096465879221864e-02 -6.425071632017977097e-02 4.398989365835520027e-01
-3.031058057254000515e-02 -1.220198844590957288e-01 5.042953410283244065e-01
-6.981461809458083465e-03 -1.287531741992447021e-01 5.201699815691781525e-01
-1.350301396104331211e-02 -1.267988198675361611e-01 5.255089856243089219e-01
-4.581997501659653554e-02 -1.201344810333398877e-01 5.089208832084562983e-01
-5.613284536285296361e-02 -1.188944060010048431e-01 5.051440123179951058e-01
-7.945315032106446684e-02 -7.076800423577968291e-02 4.412876715706292030e-01
-1.194698124188538907e-01 -1.098925037579316782e-01 4.838657192175700450e-01
-9.681096562788131521e-02 -1.122552433933493576e-01 4.643345504476288910e-01
-8.731976494267969235e-03 -1.209605891074030937e-01 5.442656441050194305e-01
-4.518848828010290503e-02 -7.232570118420397765e-02 4.460570134804204834e-01
-6.065498569552067731e-02 -1.044952241926639658e-01 4.672061363154836333e-01
-2.860588427968595304e-02 -1.191438766174535008e-01 5.449889811599178957e-01
-4.188791177398792920e-02 -9.875086199962387901e-02 4.632098238380730204e-01
-5.264066095462679312e-02 -9.243746003438056691e-02 4.562333094677448186e-01
-4.740025395856560519e-02 -1.194015482671493406e-01 5.046898997202741155e-01
-2.704408389033878188e-02 -1.159062611662546594e-01 4.832786198904076014e-01
-8.533046820930272058e-02 -1.021449338502637555e-01 4.597348237296595141e-01
-1.962031246007108279e-02 -1.062033991689324969e-01 5.622975715555639242e-01
-8.252245205497008018e-02 -9.664629842785533997e-02 4.559355699156120711e-01
-5.784612420753214301e-02 -1.189834668158323283e-01 5.077340941080599190e-01
-1.067456223061311327e-01 -1.119691771332021607e-01 4.645461543175249397e-01
-7.105467304842322251e-02 -1.170273243853512668e-01 4.900456412445686194e-01
-3.579335368551714303e-02 -1.220831011440452335e-01 5.190385185207565533e-01
-6.608173109108017584e-02 -1.158321650331818470e-01 5.233619708288006489e-01
-2.524163796436758658e-02 -1.232557957121474534e-01 5.035575178329594337e-01
-5.349661139902232160e-02 -1.157840047405347961e-01 5.308035496228055150e-01
-5.595333896883885466e-02 -9.307381631722400073e-02 4.560933132172974025e-01
-4.256314605359468733e-02 -1.152587511941433607e-01 4.875514679742203317e-01
-4.311741409137757192e-02 -1.071012538748614129e-01 4.725613265041435085e-01
-4.569811428398096176e-02 -7.126300692889252220e-02 4.457129094756259735e-01
-5.925231076380068490e-02 -6.940247781854362585e-02 4.442303800707092520e-01
-1.362594816378606341e-02 -1.271798160269344835e-01 5.114883552261421107e-01
-5.489911804418159957e-02 -1.158992560177161679e-01 4.909422031596358260e-01
-6.871044219098561279e-02 -1.025754310771466310e-01 4.630961395632980926e-01
-2.002821347583809766e-02 -9.856425525022283196e-02 5.627838030733919306e-01
-3.589890907772350093e-02 -1.214616956926706376e-01 5.310524951259493198e-01
-4.716861772854564344e-02 -8.528754809230097711e-02 4.521808692264882579e-01
-8.620025503331170402e-02 -8.689256090850641656e-02 4.487129501158226841e-01
-2.801249511076196741e-02 -1.193609668878513191e-01 4.923440700342301413e-01
-1.859698377967460362e-02 -1.234968048212780889e-01 5.393589752638644486e-01
-4.515340532137544771e-02 -1.094000910758619466e-01 5.388371979941813938e-01
-3.433460492446557821e-02 -8.961307761282449880e-02 4.549813175395402420e-01
-1.174240913292238508e-01 -1.153283888350806474e-01 4.884552068636150990e-01
-5.693543746908599767e-02 -1.162887662208879624e-01 4.927274204268677904e-01
-1.699361611662690216e-02 -1.264420352098886147e-01 5.232747333371451370e-01
-1.110800630409036899e-01 -1.037197339387478517e-01 4.614034325892276134e-01
-8.075673778640535261e-02 -1.140201315543750010e-01 4.775800919175863246e-01
-3.148075315486357356e-02 -1.017428346025050501e-01 4.639738827453631642e-01
-9.151034521482476203e-02 -1.145672492495325850e-01 4.690561330493836500e-01
-8.438369041917793273e-03 -1.262543861459651806e-01 5.308647326186952675e-01
-6.911742313352546574e-02 -6.879312463725659188e-02 4.418228895189963978e-01
-2.678553234471615224e-02 -9.842983987574542570e-02 4.590070313507564892e-01
-1.364834889961190519e-02 -1.249512563576886254e-01 5.335582021433478150e-01
-8.042751285455423949e-02 -8.675011964670263642e-02 4.488066420489646435e-01
-5.704037751893269170e-02 -5.644695381345318785e-02 4.412921056684141474e-01
-5.015776061716814560e-02 -1.190483680762932511e-01 5.262459379517460123e-01
-8.679898349301443106e-02 -1.174037681974437891e-01 4.821522473582781632e-01
-5.650583921936946918e-02 -1.160089606872675150e-01 5.287046343441708096e-01
-7.031434853007537122e-02 -6.107784788172869461e-02 4.402155100036203583e-01
-6.399982560605776971e-02 -8.402672663877154557e-02 4.486848407460972687e-01
-4.449882185108881144e-02 -1.197805080461898236e-01 5.321795837781142513e-01
-9.907535484259205605e-02 -1.094501780520776291e-01 5.105441874554554893e-01
-8.043759730578874112e-02 -7.991765521571429776e-02 4.443563177847687506e-01
-6.581141505503161626e-02 -1.142209681945358102e-01 5.253049645704638282e-01
-2.962440673074613964e-02 -1.165383775688126622e-01 5.477225644225341972e-01
-1.350244537744381239e-02 -1.225875682554573992e-01 4.913696199034144896e-01
-6.928085505878697758e-02 -1.162905560175810926e-01 4.888371655986122888e-01
-6.538750078192270832e-02 -9.366951375431376015e-02 4.550968361292378472e-01
-1.101725041103084474e-01 -1.153320055051612475e-01 4.987249004058855184e-01
-7.286541970405220614e-02 -9.830821992956523259e-02 4.584696382846599749e-01
-6.373385701099808232e-02 -1.187547664303316153e-01 5.032224526873754211e-01
-9.135833709697427363e-02 -1.167711771580837443e-01 5.103477691543429895e-01
-4.920560897092136204e-02 -1.175263177968400158e-01 5.313634726951931286e-01
-8.918173849905866590e-02 -1.132407896847243550e-01 5.147800274535385689e-01
-2.284253785449379126e-02 -1.029848287361064124e-01 5.605727423496150719e-01
-6.138582062018945601e-02 -9.076543504812704943e-02 4.534355060217178379e-01
-5.236270364723065451e-02 -1.093077630784253101e-01 4.762775772939200070e-01
-3.306266636516763668e-02 -1.051110908000802008e-01 4.685282388014428978e-01
-8.634289776601072885e-02 -9.981580142354849750e-02 4.575787786630409193e-01
-5.876818580516336016e-02 -8.782524956615439526e-02 4.518024641670041475e-01
-2.057654082701696960e-02 -1.183083772738681427e-01 5.513174143997960908e-01
-9.556781625479122966e-02 -1.195486054383824992e-01 4.879363131283568911e-01
-9.994277936165389675e-02 -1.185624050615377845e-01 4.966583744492374941e-01
-7.872142009484284220e-02 -1.055711919505125385e-01 4.648072253733238068e-01
-5.577288136000330132e-02 -1.111350363213461090e-01 5.326958234348253551e-01
-2.360262533358030781e-02 -1.247809913656766218e-01 5.287100816882815968e-01
-9.258495168784312834e-02 -9.364232480474529718e-02 4.525765690746289538e-01
-1.134826572378898335e-01 -1.070063283240853119e-01 4.651559330294638417e-01
-5.214386008793363281e-02 -1.182422607441892953e-01 5.278226489569097790e-01
-8.097252237105426187e-02 -1.193210821736289950e-01 5.004086729356639340e-01
-6.297626993020218056e-02 -1.100096531754526930e-01 4.763785613916324824e-01
-4.077320394186205454e-02 -1.208239957489964100e-01 5.097768797416316611e-01
-2.339194927156161563e-02 -1.100886014164738080e-01 4.714963971092607231e-01
-3.289462877962735093e-02 -1.078779955691484410e-01 4.725286982130380009e-01
-1.021181568941466611e-01 -1.122249064244980749e-01 4.623030238665688518e-01
-7.928662734628381947e-02 -1.150533099842433044e-01 4.823668580107184356e-01
-4.659644242947962034e-02 -1.163831823776532576e-01 5.346341627409171293e-01
-1.073831536915698277e-02 -1.202805168817392273e-01 5.480676229529704013e-01
-8.194080310432079461e-02 -9.579054624103215676e-02 4.553819117560556906e-01
-9.518880319012511249e-02 -1.190828493551168848e-01 4.769979690171060605e-01
-4.227684344827935953e-02 -8.871418409567477514e-02 4.548133547189436299e-01
-1.828351615999781327e-02 -1.054238452782313429e-01 5.629375887230363418e-01
-1.977148619297748600e-02 -1.177657014608319702e-01 4.826896610496358986e-01
-9.803829793031096362e-02 -1.093853640575862124e-01 4.611569163366763258e-01
-5.080036552928107740e-02 -8.035106721350332437e-02 4.491927282860041504e-01
-1.065053089600660197e-01 -1.205199773315950851e-01 4.796694884420021343e-01
-2.092567635392383191e-02 -1.169340325328655644e-01 5.537160763093568194e-01
-4.690812490366292470e-02 -1.068186557480630544e-01 4.725671248450229456e-01
-1.184430169502100755e-01 -1.119810003452979541e-01 4.801963812228631223e-01
-5.038780161910139804e-02 -9.750337734220612673e-02 4.611225943078503531e-01
-5.775145465491296481e-02 -1.193279937753052994e-01 5.139396992728305635e-01
-1.890663851306572177e-02 -1.151820660724578033e-01 5.564909549635648212e-01
-1.113425059184598026e-01 -1.152137834571418107e-01 4.717115822272172077e-01
-7.835795726173493125e-02 -1.180772740457071979e-01 5.144021693669437179e-01
-4.611289170133192616e-02 -1.134057137893579453e-01 5.363848182670438725e-01
-6.650273327232660014e-02 -1.166999153714862320e-01 5.215451316868645604e-01
-6.162214611518529450e-02 -7.529195528302155827e-02 4.456780233637083755e-01
-3.141591040629417714e-02 -1.095839773211763624e-01 4.750799996331756536e-01
-8.362855853823961128e-02 -9.209679503823625657e-02 4.523279219676415996e-01
-8.623107965563490962e-02 -1.038829844838638078e-01 4.605736230935496556e-01
-8.577555603562347919e-02 -1.081667435663098836e-01 5.186528532596710317e-01
-8.480170984979146231e-02 -1.164198188964961633e-01 4.791622135983925057e-01
-3.896489354954814355e-02 -1.130970991330911141e-01 4.826927255660881100e-01
-9.718431215325164241e-02 -1.188727688220708317e-01 4.733064134134042367e-01
-1.140333954117217358e-01 -1.133938488934826821e-01 4.967857508847841053e-01
-3.207715923622050241e-02 -9.860056512827690411e-02 4.612282237044287858e-01
-1.118474252001061819e-01 -1.175503092275217293e-01 4.762777555590028133e-01
-2.497565159667815282e-02 -1.226191287443124250e-01 5.387101237307467816e-01
-3.509478511595209849e-02 -1.028687158183264061e-01 4.663490013878772711e-01
-7.091593710344119839e-02 -7.942281142188212240e-02 4.448906697625453210e-01
-4.768400658406515835e-03 -1.288145372289380419e-01 5.204020728209216573e-01
-3.137480018266819437e-02 -1.230126498977724553e-01 5.260569276357497381e-01
-2.012788067629693589e-02 -1.115536926513455429e-01 5.593389040232814580e-01
-8.497798039472378995e-02 -1.079744419042760611e-01 4.654849499774790789e-01
-1.384367826291842477e-02 -1.270932357772543708e-01 5.106260072907170544e-01
-5.758094984339828803e-02 -1.052008324016884822e-01 5.332973244705937477e-01
-2.657814630013030643e-02 -1.230436606699258917e-01 5.041943476085938292e-01
-2.815483765455799661e-02 -1.233420638934266816e-01 5.113516906303070542e-01
-9.933119024697316390e-02 -1.188621961543436523e-01 4.933382382334152716e-01
-7.375248016551189112e-02 -6.064140339839615979e-02 4.401492606284335696e-01
-7.524765366625955909e-02 -8.700748295895119333e-02 4.491011163399658557e-01
-2.585005620195219081e-02 -1.063083879263309189e-01 4.675054710033958449e-01
-6.621929704915528736e-02 -1.007708287107212247e-01 4.615089900463909545e-01
-9.649400189377198289e-02 -1.140886878632009910e-01 4.654541153832366662e-01
-5.228850133044800341e-02 -7.766508675077370139e-02 4.480459812452492474e-01
-8.785218247340823017e-02 -1.151951333429748203e-01 5.144394364196539504e-01
-9.487276812022399364e-02 -1.202295472669025755e-01 4.815733255652063782e-01
-1.010651487324496361e-01 -1.196993652726271451e-01 4.711967711596066755e-01
-1.903163364505038382e-02 -1.158960186470508885e-01 4.785049340280771446e-01
-5.726464864029331969e-02 -8.196884048390530586e-02 4.489546436134615459e-01
-5.923725194063442223e-02 -1.185977548766906781e-01 5.046961172169230903e-01
-4.233714054703828500e-02 -1.002553985407860226e-01 4.645902694588092685e-01
-4.005168066370630442e-02 -1.207768967561375917e-01 5.087923684459700890e-01
-7.777641030204301975e-02 -1.137231197881469619e-01 4.792649861594651117e-01
-1.020520060537952051e-01 -1.152922167487389626e-01 5.036991479052794762e-01
-9.337934613715796750e-02 -1.197209412711392473e-01 4.825321569534651855e-01
-7.923038746050931058e-02 -1.192734187485307989e-01 4.986478329496013551e-01
-7.379966310571939303e-02 -9.738550472873867825e-02 4.575791793144982078e-01
-2.445729008252648523e-02 -1.241151152628561238e-01 5.076899258718746699e-01
-1.291032644538859381e-02 -1.084695868899858279e-01 5.626308254527577768e-01
-3.222072880451704729e-02 -1.205918506102582194e-01 4.994220538744456039e-01
-5.627061001110576083e-02 -7.699875711957668289e-02 4.472103456574619273e-01
-1.060367270248306765e-01 -1.133991849440098287e-01 5.026816360290103924e-01
-4.096479175093557801e-02 -8.941412607863512274e-02 4.554328356864906224e-01
-8.616077039036353080e-02 -8.393972549789611992e-02 4.470285266752991871e-01
-8.428874444179991487e-02 -1.108958239103216836e-01 5.189405896809096141e-01
-1.056632056244742740e-01 -1.215970571035644432e-01 4.773520422759160442e-01
-2.388879220378330864e-02 -1.217323140694923089e-01 5.427695260040480418e-01
-6.808660788557202581e-02 -1.179504277382205646e-01 4.959539724523744919e-01
-3.310714125616046749e-02 -1.195364399664220617e-01 4.962009036336726964e-01
-3.745954325769706300e-02 -1.163930858037652005e-01 5.402102144290721331e-01
-9.807913893587623388e-02 -1.190993615622465002e-01 4.910679276678630023e-01
-5.642595831171671322e-02 -1.172105753117388544e-01 4.961669855527479633e-01
-1.458335090027034625e-02 -1.034508495600740124e-01 5.640936018269111507e-01
-9.883731369174490744e-02 -1.190071866157731695e-01 4.917143118178055050e-01
-2.789035791137606246e-02 -9.734448590641346655e-02 4.585361897499540262e-01
-8.896588854881871955e-02 -1.098903757154711808e-01 4.653711494456007625e-01
-3.269187738936341764e-02 -9.446370513513363543e-02 4.581278822680378005e-01
-3.682858037660619033e-02 -7.981612248578215385e-02 4.486427865772564805e-01
-6.766536500816476563e-02 -1.162549096349642791e-01 4.895103934834073578e-01
-3.167817947487119867e-02 -9.575672075447891340e-02 4.587092098089770587e-01
-5.160896602295979990e-02 -8.366906227444223521e-02 4.504684453001921440e-01
-9.839654054514980486e-02 -1.140764766501064648e-01 5.095686412864824932e-01
-5.078386789870386470e-02 -5.985990453123873900e-02 4.421727416724963167e-01
-5.484041968431913050e-02 -1.168692319831644427e-01 4.946763178082645429e-01
-8.281216118632780954e-02 -7.225001299693546708e-02 4.417528218670917495e-01
-1.366871149564791513e-02 -1.235080403191710779e-01 5.389156193161572794e-01
-3.860561442084287087e-02 -1.161876611448179192e-01 4.891268395978487504e-01
-3.630712974459347764e-02 -1.150056119684527978e-01 4.863810796708594730e-01
-2.724802897423264647e-02 -1.203694528435949318e-01 4.947734197729859451e-01
-8.686594909796202524e-02 -7.175242153941970014e-02 4.432776421505882358e-01
-9.797056195560865932e-02 -1.196719326722135435e-01 4.866812302626908338e-01
-5.241807056828024641e-02 -5.983897744464809071e-02 4.421193404628389056e-01
-3.913004966342147062e-02 -1.166011727968615935e-01 4.904196938475130496e-01
-8.967559435929488287e-02 -1.154787931895739916e-01 4.731112832311572536e-01
-7.372012806101491122e-02 -1.115971385442108138e-01 4.764322328843028642e-01
-6.316902647823054162e-02 -1.159869252476641716e-01 4.910022902224671082e-01
-9.669780183059518974e-02 -7.974151970402579281e-02 4.512144366099892223e-01
-7.403003797831994581e-02 -1.158719185367361598e-01 4.859477086875454988e-01
-1.127632408237350392e-01 -1.174295705112673727e-01 4.851048802871649190e-01
-9.095974887643741222e-03 -1.283462946117163994e-01 5.158415694612777935e-01
-5.249641785617845807e-02 -1.169387488498837002e-01 4.941652945261708618e-01
-7.378629674857745124e-02 -1.188649485284524465e-01 5.118220067219437786e-01
-6.397483896105755907e-02 -1.149192106621621107e-01 5.255764891852455767e-01
-4.388192971476418541e-02 -7.327256773912814436e-02 4.463545077989342080e-01
-8.349501790107902166e-02 -1.131021209371496500e-01 5.184197078092073196e-01
-7.864794093038510181e-02 -1.097430963394272485e-01 4.712585262023568644e-01
-5.243450995253726848e-02 -1.086116683285986567e-01 5.357585589538161885e-01
-2.213753735767182151e-02 -1.095192399859960530e-01 5.600827608530692947e-01
-5.409647245416274175e-02 -1.148716876676618009e-01 5.313712017857263881e-01
-9.971208642406734213e-02 -1.148927636888216613e-01 5.066255706819345894e-01
-2.755518523981104889e-02 -1.109816999238299878e-01 4.753103460906019095e-01
-4.639939854111829742e-02 -1.184085014255657070e-01 4.985949758552354338e-01
-1.227295478794461318e-02 -1.220652981421713884e-01 5.435714148703177928e-01
-3.880273435181851721e-02 -7.476699352242617558e-02 4.466243631505826817e-01
-4.415406076137335517e-02 -7.948819062546709502e-02 4.492618582091829627e-01
-7.762375087481317160e-02 -1.193466002916731689e-01 5.002019996489499576e-01
-1.081295203430472918e-01 -9.695251487372809340e-02 4.569959374655971351e-01
-1.755641639690602718e-02 -1.002557696915056806e-01 5.634169241775902615e-01
-4.416737294561513122e-02 -1.207969438415388702e-01 5.210867400747618561e-01
-9.782901787140460548e-02 -1.090833677298904680e-01 4.609403863555766589e-01
-7.084127227423325790e-02 -9.379528578864555766e-02 4.546377097040674720e-01
-1.002436727780643515e-02 -1.178696809820962144e-01 5.530455799662161720e-01
-3.468842231436812529e-02 -1.000613072801753156e-01 4.633513819211290130e-01
-2.300056722163772160e-02 -1.068942413569262673e-01 5.600686927959106498e-01
-7.226608859667223161e-02 -5.727899185018922590e-02 4.412064057049907562e-01
-1.080446782615005798e-02 -9.434408002583541397e-02 5.691597286343572648e-01
-5.095794725245406803e-02 -5.902644274405727948e-02 4.419701014195731026e-01
-6.889993923415903276e-02 -1.012830174780247339e-01 4.615567276823446252e-01
-9.157863768196411458e-02 -1.030955654534791988e-01 4.589753000000326155e-01
-2.992770562904563045e-02 -1.065410009135180497e-01 5.510354867672906387e-01
-3.226372636494411611e-02 -1.207447007889000251e-01 5.381647263981403917e-01
-4.623170224045683452e-02 -1.202910373469923827e-01 5.261995380471921058e-01
-7.323136264700091935e-02 -1.179907424224578283e-01 5.162277188551555041e-01
-5.666939067072707809e-02 -1.145071203003758253e-01 5.303322890420113511e-01
-1.199812295913966903e-01 -9.839075525810465905e-02 4.745906152246017196e-01
-8.147530618656706469e-02 -1.039834044951706976e-01 4.626095466522139321e-01
-1.060489113196368127e-01 -8.964763233946848597e-02 4.567025486234156384e-01
-1.062616072211288315e-01 -8.882113579639670797e-02 4.576539954553336953e-01
-2.353502041269450382e-02 -1.244865524802048068e-01 5.308829101821117558e-01
-4.475832622799251481e-02 -1.054856498936173614e-01 4.704053651575150763e-01
-5.705082970012703703e-02 -1.157037493244696957e-01 5.289811999968854206e-01
-4.614566389680724995e-02 -9.044750958954136943e-02 4.560174877913807379e-01
-1.008297082286345736e-01 -1.119545208425724858e-01 5.076353538222881934e-01
-7.466559250942242376e-02 -6.494278603025527286e-02 4.399658350464921153e-01
-8.233791419763121511e-02 -1.078795061071188555e-01 5.204220160833299413e-01
-1.124802384112606746e-01 -1.062375047949302570e-01 4.640203536027882603e-01
-6.647251675153816042e-02 -1.121793544537026122e-01 5.270508079262481438e-01
-1.613710593091922246e-02 -1.056567232548262653e-01 5.633166342829296624e-01
-1.667078149141503624e-02 -1.246024096055703134e-01 5.339047033571764356e-01
-4.829855152767566218e-02 -6.322805254018061538e-02 4.431980839064777467e-01
-7.137516802379534342e-02 -1.186319506794540207e-01 4.977475221290297291e-01
-3.637166283372637865e-02 -1.059544420882684440e-01 4.703487730793763366e-01
-1.634477479121388549e-02 -1.060476410252353952e-01 5.630691640555365307e-01
-2.804512358630736196e-02 -1.017875793500023635e-01 4.627451206934083960e-01
-3.079595146097542993e-02 -1.225586288686394132e-01 5.311125175331724568e-01
-7.922323757095692254e-02 -1.107413637748528995e-01 5.239413555640888287e-01
-1.454820000272922728e-02 -1.267493964530626849e-01 5.079847854840420229e-01
-1.159154712945835858e-01 -9.672072194481881602e-02 4.654283656571499561e-01
-1.124903881702079139e-01 -1.173396544630916638e-01 4.771827623861846779e-01
-6.534649946621816363e-02 -1.181745520504669522e-01 4.995730035368514677e-01
-8.460925042753029979e-02 -1.093784659584470242e-01 4.675765429951408980e-01
-4.447580111530050062e-02 -9.003143669217929246e-02 4.557627998759403720e-01
-3.280151222863979255e-02 -1.197790385281510411e-01 4.967476619454429532e-01
-5.736604853587732450e-02 -1.193985675197524049e-01 5.133020515410784412e-01
-9.923048244995601175e-02 -1.108462830462815102e-01 4.620986425470234860e-01
-4.560477290946937656e-02 -1.166781693502735306e-01 4.918433797574438548e-01
-1.566882672945589874e-02 -1.163264274998696279e-01 4.782909658663839769e-01
-2.415243030690230469e-02 -1.224556982888922868e-01 5.403020920815859718e-01
-7.371097815502095085e-02 -1.126765748684237928e-01 4.787149553372229138e-01
-5.278112648736497242e-02 -1.142363524836170485e-01 4.860543161443940940e-01
-2.974473940520181575e-02 -1.234132555442042645e-01 5.215698789336502550e-01
-9.556471018418784269e-02 -7.873079930825289952e-02 4.508175816099026512e-01
-3.176110937170348314e-02 -1.195368574036526493e-01 5.416691522427801164e-01
-1.299618929107634706e-02 -1.156369511785202975e-01 5.565448320405383953e-01
-2.030400208601002010e-02 -9.956116122080040098e-02 5.625057710601746308e-01
-9.541038784056467270e-02 -8.496132793383025239e-02 4.493678638817024673e-01
-3.499227937841559860e-02 -1.084827830746353250e-01 4.736966046096187100e-01
-6.601076565710214950e-02 -1.106944213718100423e-01 4.770617026797812632e-01
-9.892265015540135931e-02 -1.186311370590629327e-01 4.967649193566935351e-01
-9.140043168971299925e-02 -1.183070522520922180e-01 5.041379739854389141e-01
-6.672618679491240656e-02 -6.022390441836666941e-02 4.408281027513767936e-01
-5.742474498977719055e-02 -1.188534501302642432e-01 5.058835782495854083e-01
-9.027211154714907815e-02 -1.192272221456614489e-01 4.937826424767857159e-01
-2.251600655715848415e-02 -9.587210386352874869e-02 5.593535528182842498e-01
-5.700759550700647271e-02 -1.193845228880643788e-01 5.155575904268066001e-01
-9.291035515832966885e-02 -1.116868988899228782e-01 5.138252450231536317e-01
-3.049653612805322891e-02 -1.232370020691946066e-01 5.253058032248758558e-01
-6.286555289202654107e-02 -1.138118365618692174e-01 5.276782440803132745e-01
-8.012042445307665517e-02 -1.192777865585687436e-01 5.045047225248138201e-01
-8.294581301295114381e-03 -1.285703572323415589e-01 5.212825766768056646e-01
-8.184138500650403603e-02 -1.179125941279915712e-01 4.899039005604527430e-01
-2.926242219008066622e-02 -9.618078714693394093e-02 4.580976535396953375e-01
-1.118280650025594708e-01 -1.172243703658181341e-01 4.754339475969129869e-01
