-7.259198948925875416e-02 -1.000495643380062138e-01 4.604098818708416974e-01
-8.498816390910343688e-02 -9.296696432858168879e-02 4.532299234305820490e-01
-5.766271623328224349e-02 -1.175773407393301551e-01 5.250050404553896488e-01
-6.572315356408564568e-02 -8.639954408782087036e-02 4.501460719000430211e-01
-9.750539473675338964e-02 -1.159008055988974550e-01 5.095082487354107847e-01
-6.053758468808310284e-02 -1.179316175279229162e-01 5.225144299350342747e-01
-9.589231771542351679e-02 -9.353532266740123557e-02 4.531650030331296763e-01
-3.973335775727077079e-02 -1.158929713163353858e-01 4.888745286944714552e-01
-7.574871180448014552e-02 -1.178515473507742300e-01 5.160012783143020920e-01
-9.742161523137427004e-02 -1.135377623322654517e-01 5.109360773155467994e-01
-6.560041485766129887e-02 -1.058096612018957633e-01 4.681508943468886685e-01
-7.111056737601879896e-02 -1.130583688361226774e-01 4.817290561406517568e-01
-9.366195636624570497e-02 -1.200339332109787022e-01 4.838145840625648897e-01
-8.205792038142104006e-02 -1.179947434743017221e-01 5.142826219087729411e-01
-2.869118888472995191e-02 -1.073821036906811993e-01 5.527701517050562785e-01
-5.204875259996226411e-02 -1.014856191003234293e-01 4.654063363964427991e-01
-9.959783041297139150e-02 -1.112900465861169086e-01 5.102002317680182086e-01
-3.325843627768482191e-02 -8.769284020340828434e-02 4.532237965649379974e-01
-2.252433972117603295e-02 -1.247803270666459768e-01 5.101761028582363355e-01
-1.235243498124346737e-02 -1.255118041397198791e-01 5.004091665184426940e-01
-1.058596623489811289e-01 -1.020011567044395162e-01 4.588319265874881148e-01
-5.040197916419245083e-02 -1.108186439547573371e-01 5.359516667550184854e-01
-1.109200013145030250e-01 -1.058236143723483846e-01 4.635251228933181533e-01
-6.379281611899195736e-02 -1.181302458982310677e-01 5.002541641507272097e-01
-3.207555101654604307e-02 -1.224544106647892650e-01 5.134748945632338080e-01
-5.239152398277158174e-02 -1.164805968316993678e-01 4.925499873018051589e-01
-7.603255741488551545e-02 -9.657148002592157165e-02 4.571389581092668575e-01
-1.191232662560043204e-01 -1.092869293658349783e-01 4.769342445333169533e-01
-8.303499175524819975e-02 -1.111245527109742670e-01 5.199452946642297846e-01
-6.202667060596572801e-02 -6.520712898740214924e-02 4.426878083089003102e-01
-8.140807218490808683e-02 -1.145650772937281681e-01 5.188888193846846741e-01
-3.657968091675786043e-02 -8.693086967710889068e-02 4.537386455563749976e-01
-5.724739025337904907e-02 -1.191155263247695995e-01 5.094876835696595663e-01
-6.404414378904604854e-02 -7.273523494485882590e-02 4.445526266281958905e-01
-1.032994171777201070e-01 -1.171677789848761114e-01 4.693829762666695271e-01
-7.376252659239165843e-02 -9.814350995929517485e-02 4.586792043217309267e-01
-7.255316100833650306e-02 -9.437003477955048514e-02 4.554994470051657585e-01
-8.441314578038283667e-02 -8.856858753077909152e-02 4.502975290290693877e-01
-5.122900506604288057e-02 -1.107471107375726099e-01 5.355787966854304027e-01
-4.866716053764884309e-02 -1.163624073529999359e-01 4.915941937793308902e-01
-9.277881283508687682e-02 -9.976803147658645787e-02 4.566856448508022082e-01
-4.926608785745278940e-02 -9.294050392917578562e-02 4.576235590011197285e-01
-7.503602205785817048e-02 -5.731685663762489669e-02 4.417992603276677532e-01
-1.189476038577197275e-01 -1.089955488823669966e-01 4.749399485204870430e-01
-1.002909608027464927e-01 -9.994653692109022047e-02 4.569941765141268819e-01
-1.087553413444309475e-02 -1.010777625077618758e-01 5.663352352381240129e-01
-1.185450059135226275e-01 -1.003352538113966991e-01 4.689753018692637276e-01
-8.563487752089894711e-02 -1.166621581212971132e-01 4.795747016852300315e-01
-2.552345104807540038e-02 -1.219196956255104991e-01 5.410952441137331093e-01
-1.201735229668867005e-01 -1.068546718215872687e-01 4.770165663890787444e-01
-1.942166832398030743e-02 -1.258954800013500908e-01 5.173679759607017203e-01
-8.965038829935249864e-02 -1.194987648372920763e-01 4.892787286790139523e-01
-4.245644531146530731e-02 -1.108296452233219903e-01 4.788921776327123014e-01
-9.039473400299111172e-02 -1.184310485767715720e-01 5.034348538806096007e-01
-3.782078609471323932e-02 -9.466688582178919842e-02 4.598451815412998300e-01
-8.647158707421834234e-02 -7.982549302262052782e-02 4.456003265633336485e-01
-8.930697712301811919e-02 -7.165932144150234662e-02 4.471529971875334852e-01
-9.928270324422826254e-02 -1.192172597410395274e-01 4.896878042208887005e-01
-5.427756366747341771e-02 -6.913617752476844402e-02 4.448505621352674133e-01
-9.727738143040561003e-02 -1.178758331062585152e-01 5.020316113414899917e-01
-2.248319070620881030e-02 -1.213547184161234138e-01 4.940182879287890461e-01
-2.125879811267079866e-02 -1.170197935759835495e-01 4.819761939939093964e-01
-9.135711818942463674e-03 -1.264298932458681746e-01 5.019010537226523683e-01
-7.433793304261587798e-02 -1.012070857909046079e-01 4.614065523778375644e-01
-9.227363022517589067e-03 -1.283396493151972295e-01 5.200920722013395725e-01
-6.487584943683623318e-02 -6.403604685991395873e-02 4.419900801001106494e-01
-3.816607701986774598e-02 -1.094454561413991667e-01 4.757849958788115674e-01
-1.194048306069204202e-01 -1.068485639979622759e-01 4.733233010646133443e-01
-4.217451358082598134e-02 -8.353711444877463810e-02 4.515509008462342821e-01
-7.404019219918288319e-02 -1.083950986440902348e-01 4.709619654039242098e-01
-6.245922596837273633e-02 -1.185385236628820060e-01 5.172150200197727088e-01
-7.087410496453577791e-02 -5.518655465340611965e-02 4.420322521793607073e-01
-9.809144849626175167e-02 -1.173697052509941052e-01 4.683400307158528952e-01
-1.313632370938130900e-02 -1.243324460115691060e-01 4.968421448986383160e-01
-4.448982381478287784e-02 -1.105138094655693931e-01 5.388897954244105115e-01
-6.502979493142935219e-02 -1.072151277850292017e-01 5.293706659403795145e-01
-2.105481781452810119e-02 -1.196076823462655647e-01 5.487129121388870656e-01
-5.858447700934138469e-02 -7.592568931571284929e-02 4.467314069837524659e-01
-1.007714999461584854e-01 -1.191087384766487678e-01 4.906172274631798724e-01
-7.995836550230518702e-02 -8.433813444016632910e-02 4.473899344135973677e-01
-3.394876913070923180e-02 -1.216188523706933922e-01 5.327548028758963827e-01
-2.411582971725952790e-02 -1.248242378402645153e-01 5.218015305494523304e-01
-3.846844116874080510e-02 -1.021488943248972936e-01 4.665836191555424173e-01
-9.857040118151771946e-02 -1.177730634409725752e-01 5.019576625843558126e-01
-1.679266389128331385e-02 -9.936915876219319654e-02 5.641798835892000152e-01
-8.699615104261543275e-02 -1.131304393959226551e-01 4.713911213224681873e-01
-1.094968227977055758e-01 -1.151141797705236836e-01 4.706450729590822002e-01
-1.730507145886398326e-02 -1.154465615385508320e-01 4.771635510269017222e-01
-1.106517260463524277e-01 -9.543391590566591143e-02 4.590121173232724061e-01
-5.481090967264789365e-02 -7.297931115740857733e-02 4.462597583463227546e-01
-7.948565779789014060e-03 -1.251758429442896559e-01 4.972243690582395792e-01
-7.350674734424852974e-02 -1.178136103144245550e-01 4.917011236768094595e-01
-1.796256489784710947e-02 -1.262552786564034024e-01 5.170068815502283366e-01
-7.622208639925531770e-02 -7.160638722553087920e-02 4.418365188500344432e-01
-7.377399130851426678e-02 -1.103043289421747342e-01 5.259550626219525737e-01
-8.447672380822576765e-02 -9.544222208032794585e-02 4.552056064973474814e-01
-2.158242055001331761e-02 -1.166869868904318597e-01 5.540005015741797934e-01
-1.040748512802094211e-01 -1.079790860569301986e-01 5.066961917945048688e-01
-2.485008518411363845e-02 -1.149276881135050110e-01 5.537292035116175848e-01
-3.212159068679720092e-02 -1.094327852285536529e-01 4.750867158073260321e-01
-6.499855785468038050e-02 -9.865947856490411838e-02 4.600043657968609923e-01
-7.687085765396220460e-02 -6.036006454337254634e-02 4.407672228128062253e-01
-9.313357664027416272e-02 -1.195499372422848677e-01 4.831307258332796506e-01
-4.857795692197513365e-02 -1.101158465325484254e-01 5.369882036071181863e-01
-5.964463476752936144e-02 -1.091580286820730411e-01 4.750545604024480895e-01
-1.060157455220339523e-01 -1.185784149567711693e-01 4.921850538991384139e-01
-5.619219823215645254e-02 -8.579315646365978654e-02 4.513638761025124957e-01
-7.399639047255260338e-02 -7.618453388352335043e-02 4.434879163970040228e-01
-4.405626836935904594e-02 -1.161835631796904744e-01 5.364035784526832717e-01
-7.962341976223941131e-02 -1.157697002266487585e-01 4.850743705595686461e-01
-3.651956411983126038e-02 -1.214098127383181902e-01 5.298929045153374373e-01
-8.673413839402549508e-02 -8.757266925941002700e-02 4.496099170079978502e-01
-1.712395483898088849e-02 -1.160252076317354608e-01 4.783318910216268760e-01
-3.304270133916054758e-02 -8.315165760429535369e-02 4.499214306194643243e-01
-6.368599330780147505e-02 -1.108383476184250094e-01 4.784356879268482077e-01
-6.405733585718538514e-02 -6.363266674354348118e-02 4.420873233210844688e-01
-2.664810655745895873e-02 -1.124926420421493017e-01 4.773094578122906162e-01
-3.888856460266225390e-02 -1.119825472094833907e-01 4.807155106706247349e-01
-8.334692446876430794e-02 -8.957505594569159513e-02 4.509970882660490066e-01
-7.413698360688486533e-02 -1.123485532469781223e-01 5.248703156698674155e-01
-4.997759211054271511e-02 -8.244765015851983347e-02 4.503507388520234245e-01
-6.021452077420304944e-02 -1.189117821902618138e-01 5.145545417691733681e-01
-1.286920802500404401e-02 -1.244035927722551144e-01 4.969634022501637216e-01
-4.155332705042047436e-02 -1.171439403162515963e-01 5.371018609604761851e-01
-6.763410094501956515e-02 -7.076165944845268230e-02 4.429536362185204634e-01
-5.089915057364228362e-02 -1.103410598679653437e-01 5.359976755076227839e-01
-5.635394151504036220e-02 -1.191952702098418165e-01 5.094370631701417018e-01
-6.100566213860452586e-02 -5.986806940744587857e-02 4.418580562166673498e-01
-1.371001586248430174e-02 -1.179526256387997268e-01 5.531487707392874764e-01
-3.771300835788684441e-02 -1.054238217529224753e-01 4.700679440986773039e-01
-4.506471791968400323e-03 -1.286662312334383995e-01 5.144124736748358906e-01
-3.869199181940993770e-02 -1.175314809228533430e-01 4.932529006622178303e-01
-3.448861050693100699e-02 -1.152367309524890138e-01 5.440160223094164804e-01
-6.863506004740185795e-02 -1.093144939479451516e-01 4.739545180655900802e-01
-8.242831583065737822e-02 -1.156192963819367703e-01 5.172636560578370846e-01
-8.179277713967290919e-02 -1.160582465599571678e-01 5.171046609126841442e-01
-5.376751986884264339e-02 -1.197554344631579643e-01 5.122901821927334787e-01
-1.198196667271316657e-01 -1.068954085298091522e-01 4.905731373115267413e-01
-2.296355142435452246e-02 -1.222941558675113422e-01 4.974620788689047557e-01
-8.325633446410445060e-02 -1.136386440010880572e-01 5.186376443707017003e-01
-5.258714849725013019e-02 -1.198359909431490206e-01 5.164050080231065154e-01
-2.077764568466697673e-02 -1.116919965311444080e-01 4.726374856577375549e-01
-1.038669906880681643e-01 -1.148909539113061734e-01 4.653915341437440123e-01
-9.917652524859424390e-02 -8.345004740420369771e-02 4.527770797732339481e-01
-1.076349372003696514e-01 -1.174970562456454093e-01 4.948277823748140625e-01
-4.341474899506321539e-02 -8.642039152689694192e-02 4.532669794312236822e-01
-2.522332535167995382e-02 -1.013595280793872511e-01 5.561284495711845688e-01
-6.743460961262170983e-02 -1.038265302430453479e-01 4.651144638380207419e-01
-8.704268998065060881e-02 -1.180274813151545726e-01 5.094439170995287425e-01
-2.780205725334285519e-02 -1.237401398614431380e-01 5.184708536037604398e-01
-6.739029087764686343e-02 -1.103840945496998571e-01 5.274946352128484506e-01
-7.940208899981919533e-02 -7.262510092301764641e-02 4.420973186204357197e-01
-5.034803626547582067e-02 -6.168770987676779755e-02 4.428202738680366291e-01
-8.254371106669719863e-03 -9.935573149438732543e-02 5.673609402925181566e-01
-1.109685214335839887e-01 -1.143355754424927040e-01 4.708424578192817456e-01
-9.120537591811271605e-03 -1.270378570457122436e-01 5.288783345419673099e-01
-2.403653049578955911e-02 -1.198866210562100493e-01 4.909193798572775158e-01
-5.116815696894599225e-02 -1.121488519497028380e-01 4.815652033192050485e-01
-8.553974108494595552e-02 -1.138234040395521285e-01 4.739685561385974522e-01
-3.602851791963550959e-02 -8.658145686203123914e-02 4.533143429509727818e-01
-3.862694663038760551e-02 -1.107297943714308508e-01 5.414939967783580776e-01
-3.342047934218253524e-02 -1.138614366388821519e-01 5.457895123815978966e-01
-6.522050212968632903e-03 -1.284175304175592391e-01 5.112864162934742662e-01
-1.338788634760395245e-02 -1.220125832501437746e-01 5.447466050702153284e-01
-4.275339350671701621e-02 -1.104811638081061725e-01 5.401262330256182409e-01
-3.731631682097270170e-02 -1.197316029178543961e-01 5.365286423702481100e-01
-2.214539489910136161e-02 -1.104233962010582187e-01 4.714978674308533124e-01
-5.997438650539593102e-02 -1.003107903606551832e-01 4.622895982491719291e-01
-9.849510027851994531e-02 -8.542540536742743162e-02 4.516647280417279142e-01
-2.809907085006597277e-02 -9.520051040264600195e-02 4.571678929764925736e-01
-1.150669143635937169e-01 -1.121765606844040142e-01 4.968720295473543214e-01
-3.605769452624659616e-02 -1.197302700796846475e-01 5.001984137713688661e-01
-1.175251695103132210e-01 -1.099277424601009107e-01 4.731604366929812455e-01
-3.762648915070142264e-02 -9.729942987308051738e-02 4.619635644337919955e-01
-9.858093443595682126e-02 -9.355167978895619074e-02 4.533338999077486386e-01
-5.673581610023199079e-02 -1.188974342182620991e-01 5.212127732368326827e-01
-7.407585007737127469e-02 -1.192356681985134725e-01 4.996122051433238287e-01
-7.213259938096250323e-02 -9.030450482964030856e-02 4.520046922063720718e-01
-7.843009133373698982e-02 -1.158315080899973704e-01 5.191853039769681599e-01
-9.549263842953105430e-02 -1.162997196883424483e-01 4.692540207126367213e-01
-1.057179776918202030e-01 -1.187750899004665212e-01 4.915526438801874898e-01
-4.003436555320604578e-02 -1.211294434763920957e-01 5.257085063545990922e-01
-3.462047570406058539e-02 -1.139077435512284159e-01 4.841773009487129187e-01
-6.499622671121794981e-02 -5.915328377070365462e-02 4.411583187243678927e-01
-7.511607127750428992e-02 -9.653787876426957182e-02 4.571955445506962201e-01
-4.802224845834826561e-02 -1.165600600790933083e-01 4.920951617212667717e-01
-1.088870737648626602e-01 -1.177074325615129757e-01 4.736836783289265496e-01
-1.124398633962632801e-02 -1.266956558972740232e-01 5.050613155924089659e-01
-5.705279977808472291e-02 -1.176382540264482995e-01 4.983855676252375577e-01
-1.123261311428263437e-01 -1.169696624951813146e-01 4.910541718759821039e-01
-4.920797318953826216e-02 -1.196007036562843351e-01 5.073553912788397735e-01
-7.791899866570084487e-02 -1.123431530583602761e-01 4.757937601338796396e-01
-9.878789145434906105e-02 -9.692617068501310773e-02 4.553092662700313764e-01
-3.689003774361752225e-02 -1.033424212120470503e-01 4.675121698317035723e-01
-8.149519274069759456e-02 -8.210732498490505571e-02 4.460925992118758843e-01
-7.577894062986212376e-02 -9.291668328447860725e-02 4.542574743685126593e-01
-3.796472586003622057e-02 -1.202181154738079377e-01 5.038827301923808344e-01
-1.058898439440983386e-01 -1.120025690143143793e-01 5.040208563069070724e-01
-3.371834880912646937e-02 -1.223157515511761745e-01 5.168807649072292287e-01
-7.520184650776358393e-02 -1.107128200752769825e-01 4.741912276161034390e-01
-4.673075198356964333e-02 -1.181520044182909346e-01 4.979629447441463741e-01
-7.713256495702094928e-02 -9.050387132458570516e-02 4.521617761863274132e-01
-8.346911111584580378e-02 -6.475323142105328389e-02 4.429136281161076272e-01
-7.642653623402417828e-02 -8.375388847169849826e-02 4.470047022700053274e-01
-8.029905793476760367e-02 -1.066388595829307062e-01 4.660284520909808159e-01
-5.149071851627553403e-02 -1.177453944534746361e-01 4.977370960513868847e-01
-6.191607664861679267e-02 -1.177855721542871853e-01 5.220319299279474468e-01
-1.018445110571562368e-01 -1.183408995386513174e-01 4.967446335473437724e-01
-6.692330001082752444e-02 -1.189290873969145873e-01 5.141377734655731002e-01
-8.963113034691186365e-02 -1.065254646998311100e-01 4.618205584300241751e-01
-8.154349729205792596e-02 -1.109308414626308942e-01 4.722966737614216481e-01
-3.691784472749395918e-02 -1.023282961786412815e-01 4.664091131041282479e-01
-1.250687827948987821e-02 -1.224821285729324194e-01 4.909752473701999853e-01
-1.021017275387111137e-02 -9.506358423995360518e-02 5.690406991772214429e-01
-8.965382397996081443e-02 -1.142518128020783008e-01 5.144852712280145735e-01
-9.326413310164802239e-02 -1.094554803227305306e-01 4.638124664261143448e-01
-1.004922115562062873e-01 -1.196407625255638540e-01 4.717298017980082192e-01
-7.833357793154831217e-02 -1.107274904606893456e-01 4.731420012392701935e-01
-1.045840329314179917e-01 -8.628786543569470779e-02 4.582045138350111513e-01
-4.386439963734389824e-02 -1.100329323683864463e-01 5.395680790649757252e-01
-4.363508309458435930e-02 -1.193810861883021074e-01 5.024082200345769689e-01
-2.383862210090750486e-02 -1.233496431598221366e-01 5.026079885578762507e-01
-2.853998355016151151e-02 -1.236236796276958261e-01 5.205385706820736536e-01
-2.902792751280277792e-02 -1.232939817165574908e-01 5.280803883915775598e-01
-6.263550267328418797e-02 -1.071665582994905525e-01 4.707173312452500591e-01
-2.332652312095604905e-02 -1.134851202372264417e-01 4.767711259098885157e-01
-1.017070616826437068e-01 -1.184410307557936665e-01 4.961761037796607043e-01
-6.065624225565764693e-02 -1.065967272204542682e-01 5.315102317039761548e-01
-2.592269361275213388e-02 -1.220823075816915848e-01 5.399616256269685888e-01
-2.241733923227956157e-02 -1.244075489274865803e-01 5.056749154871822416e-01
-1.116665739152725156e-02 -1.276806285772144334e-01 5.124599748639435681e-01
-1.081034624719995341e-01 -1.183916983059716127e-01 4.739427143902699147e-01
-5.308808445885336569e-02 -9.483484838741858269e-02 4.585479760846444264e-01
-1.005132928019704941e-01 -1.012575864687952909e-01 4.576368296324168083e-01
-7.334721943262205446e-02 -7.253684688066310005e-02 4.424639896148387375e-01
-3.781688921442209056e-02 -1.133045461768980161e-01 5.418741413026239018e-01
-1.086099137656135888e-01 -1.194674416947711926e-01 4.760789999360213742e-01
-9.216103078182152908e-02 -8.493470088527206585e-02 4.490589880231138920e-01
-7.116040018342752183e-02 -7.874673894775736926e-02 4.449529494600609203e-01
-4.635937769463056857e-02 -1.202170351390605824e-01 5.124276958904391277e-01
-5.226567010415023029e-02 -1.179617689020460714e-01 5.287304063380835473e-01
-1.144426171701110190e-01 -1.118140836572795310e-01 4.715266833479244690e-01
-1.713980763969429749e-02 -1.213079841394488767e-01 5.467140172051958569e-01
-5.414436501619435127e-02 -1.075679721197095179e-01 4.738004828645949740e-01
-5.588316233745692363e-02 -1.072274962361020045e-01 4.726348154673875590e-01
-1.205720970104594003e-01 -1.055230133583267838e-01 4.835717689540763309e-01
-7.596172464790097723e-02 -6.727500631407461185e-02 4.404535730991332443e-01
-1.635557222560578630e-02 -1.234053450701948634e-01 4.957254323088087222e-01
-5.706833349687150808e-02 -1.120242042140074945e-01 4.815297922534311215e-01
-8.665515000509134425e-02 -1.186659882883362715e-01 5.045046414364074971e-01
-1.186567662221769959e-01 -1.050078547882901531e-01 4.709885766909398530e-01
-6.162424577500091177e-02 -7.338101026313693931e-02 4.453453562738246552e-01
-5.893171809649325882e-03 -1.285302922115887925e-01 5.117636736607479309e-01
-7.583393787165840227e-02 -9.431648197275058210e-02 4.553649212960083070e-01
-4.397150229360041740e-02 -1.121749383208711925e-01 5.384291801704493841e-01
-3.918236439292614726e-02 -1.178349518319819350e-01 5.380460303706642300e-01
-7.236710639268889925e-03 -1.285147081494356913e-01 5.143959929782243590e-01
-3.198380537262354717e-02 -1.197068991716904174e-01 5.412233944946553965e-01
-1.033992344958487714e-01 -1.107739211382865602e-01 5.058310917533750395e-01
-1.024083637648448009e-01 -1.206587738128549053e-01 4.737113070533412462e-01
-3.473905697283689864e-02 -1.108527543200215348e-01 4.781510290026473875e-01
-2.707752406516676646e-02 -1.211557180879391099e-01 4.972455880863329569e-01
-4.942743881880516665e-02 -1.191422167444070868e-01 5.268723718635045516e-01
-1.322183878196433147e-02 -1.222024648349618187e-01 5.438793364385123841e-01
-1.085763990536672552e-01 -1.151649024084798745e-01 4.700247767746775773e-01
-2.307512859743515374e-02 -1.142456838012539666e-01 4.777907167260543875e-01
-6.086264396395493076e-02 -7.583715013633191004e-02 4.463618009129912689e-01
-3.583242350755486832e-02 -1.084916707340779218e-01 5.436143527480923332e-01
-3.023039086481582594e-02 -1.196528411472543851e-01 5.427569791762697493e-01
-1.851954782168957481e-02 -1.205672264405893840e-01 5.477050156040570439e-01
-6.456668548516519834e-02 -1.156709378412338479e-01 4.896513026161281590e-01
-1.008419847082922399e-01 -8.716881341010472573e-02 4.537216550596943621e-01
-1.107555482912082889e-01 -1.119278920802262156e-01 4.681970544208298723e-01
-2.886113201448323173e-02 -1.203388874147901660e-01 4.960803979636541072e-01
-2.871623928971475670e-02 -1.125514679065709317e-01 4.785773209761840508e-01
-1.063055556200253049e-01 -9.422899625287571579e-02 4.562884198651896428e-01
-8.185763322287140098e-02 -1.189130175647251791e-01 5.082545000425899850e-01
-7.850531197525512095e-02 -1.106473643791018591e-01 4.729855790282350703e-01
-1.707386058991072764e-02 -1.265449868778208975e-01 5.185396334322192047e-01
-6.809839566763756236e-02 -1.095033558973429605e-01 5.274468691515601382e-01
-3.341310192356304609e-02 -9.243509142048808580e-02 4.570941285683541855e-01
-5.309585767678371565e-02 -1.185223516438300151e-01 5.022766898939557967e-01
-1.032036054064612712e-01 -1.207157111250103110e-01 4.812161961490341033e-01
-4.854134935789181093e-02 -6.956746416007721090e-02 4.453044814046997479e-01
-1.904348682411271046e-02 -1.130892202033875471e-01 4.738821732505810180e-01
-4.305491158587808342e-02 -1.157062804967749214e-01 4.890563696715676811e-01
-8.578307297042234159e-02 -1.152454412160398706e-01 4.766113171571065288e-01
-5.839087628205621994e-02 -7.421561447258247235e-02 4.461857812779604360e-01
-5.117617289763929517e-02 -1.173144886025222627e-01 4.956671106594160436e-01
-2.141987428821489486e-02 -1.255436232025761434e-01 5.232035884425034755e-01
-1.490058528672210704e-02 -1.074825718142185665e-01 5.627642581763172558e-01
-5.804139087683755222e-02 -1.021871043984601546e-01 4.652086873930714184e-01
-5.859106376660787319e-02 -1.163826439148444025e-01 5.272553612991226490e-01
-3.945417204684486395e-02 -1.069633879988496211e-01 4.724512390898110148e-01
-4.534601472262574789e-02 -1.205836367076731780e-01 5.213659797980890742e-01
-6.984604167718982959e-02 -1.160078365915556686e-01 5.213008363336409934e-01
-5.501638495622482306e-02 -1.159641716535144557e-01 5.296835926375871306e-01
-1.046969381648043818e-01 -1.196713337700475027e-01 4.729960891998693517e-01
-5.792726120920219796e-02 -1.166163439702732896e-01 4.945417926195471714e-01
-1.033346759260476422e-01 -1.121322798711248681e-01 5.052753100681102172e-01
-9.420227358941986318e-02 -1.166356108258288227e-01 5.096595113038493441e-01
-2.914102971617631155e-02 -1.224605985659326379e-01 5.055556620719886540e-01
-4.821764793329517962e-02 -1.147734564760345410e-01 4.869954021082293361e-01
-7.645176195460184551e-03 -1.271686671191913920e-01 5.291426220287561710e-01
-2.084113375792055051e-02 -1.207400169455461053e-01 5.464612880448563859e-01
-1.082149108456346154e-01 -1.159954185811431226e-01 4.986680411092623277e-01
-8.750763613233006333e-02 -1.179453842227460025e-01 4.880469267285663659e-01
-2.186338372838852670e-02 -1.171940520539932334e-01 5.529859486667562107e-01
-7.580666961802129400e-02 -1.175714734809941014e-01 5.169342063831078304e-01
-2.539346231510319907e-02 -1.013730188903776419e-01 5.558390185551830287e-01
-5.877495933013510837e-02 -9.507715672484093328e-02 4.576074093691365752e-01
-2.134694452989665397e-02 -1.059348683890209697e-01 5.614264211934125726e-01
-6.566101434133761461e-02 -1.087435879934370714e-01 4.734979370744715754e-01
-6.561713156823752169e-02 -1.091898154453058989e-01 4.744611552303559798e-01
-5.091756693867768163e-02 -1.177561255935306167e-01 4.975216660145281855e-01
-3.985113618886285125e-02 -1.160069981880725715e-01 4.892130746032602451e-01
-9.382364813394949987e-02 -7.732114187173129427e-02 4.505747894016180477e-01
-5.393118393488614826e-02 -1.197948445199050749e-01 5.142913753510748309e-01
-6.655062567154190756e-02 -1.115098315490914149e-01 4.789961225644884801e-01
-8.430305362066609076e-02 -1.182195252636431132e-01 5.114698850547597653e-01
-1.076590875306479567e-01 -1.085821845521053736e-01 4.642766650626165559e-01
-5.265751779588884185e-02 -9.530677607928998707e-02 4.590444570200611363e-01
-6.472340500813573982e-02 -9.751909383226642358e-02 4.589086238934513284e-01
-1.187435897316827388e-01 -1.013641019327747028e-01 4.690947126039541892e-01
-4.839403524268338919e-02 -9.059533598024997747e-02 4.559539419812206895e-01
-6.512101849824940281e-02 -8.876634589053650215e-02 4.516705019669691734e-01
-1.152744320239324771e-01 -1.157969905700283325e-01 4.917611405684189085e-01
-7.017030421788565675e-02 -1.051534021677408143e-01 4.668784822392935130e-01
-1.172637647839023939e-01 -1.127496437360932940e-01 4.769589959620154085e-01
-2.830513570914603219e-02 -1.027200829106846153e-01 5.514602599970769292e-01
-1.147115595071918417e-02 -1.255929645532011807e-01 5.316774038367233501e-01
-7.668481607295599134e-02 -1.061357128825354129e-01 4.665815809902819078e-01
-2.561934025330658143e-02 -1.229432230064376186e-01 5.361854930015349519e-01
-1.091293210827116306e-01 -1.074140575278995507e-01 4.640629661100620917e-01
-8.295917506487399118e-02 -9.197939141186357859e-02 4.527728968628144668e-01
-7.923755511757457626e-02 -7.613740768424133443e-02 4.430116908354725935e-01
-2.530787965068457407e-02 -1.138001572199601602e-01 5.543706433281719859e-01
-7.350590802181358741e-02 -1.157122077963158163e-01 5.208997996333009084e-01
-7.153714814643991060e-02 -1.145863827439973226e-01 5.229578540218563498e-01
-8.830182698140158493e-02 -1.177859830587959372e-01 4.860647401440459370e-01
-8.415934535311794806e-02 -7.457971860065323866e-02 4.429048241982812550e-01
-2.151562386478176117e-02 -1.251545602137980884e-01 5.122993056047838722e-01
-2.168477086446885665e-02 -1.178102327062935523e-01 4.838134374150586670e-01
-1.076961238660769926e-01 -1.068679582264458472e-01 4.627470252494926273e-01
-1.688367355980530463e-02 -1.234269861968382426e-01 4.961944210091525642e-01
-1.121250060715621444e-01 -1.109986917658329630e-01 5.008151466368941929e-01
-4.214826769632587511e-02 -1.207905440435375621e-01 5.264495037888730078e-01
-5.095570415755895644e-02 -1.190924826817106180e-01 5.049409025798098360e-01
-9.226994303895796889e-02 -1.185956663363634672e-01 5.005462028236480343e-01
-1.100288767701386797e-02 -1.268061456339565352e-01 5.054463790111178856e-01
-1.107280973866336948e-01 -1.190347937863715511e-01 4.798011734886991619e-01
-1.035675612328064571e-01 -1.164238291061918812e-01 5.012622976137823816e-01
-5.106141064088196013e-02 -1.044568655773524812e-01 4.693787957285560086e-01
-5.012910971970444690e-02 -9.886307670319452456e-02 4.625584569257888967e-01
-1.211331159723240958e-01 -1.055175063991121293e-01 4.798541167976416721e-01
-5.605991377700647593e-02 -7.825932986085001875e-02 4.480046567046076511e-01
-5.016395960805719589e-02 -1.194548254420924327e-01 5.068409068912543836e-01
-5.285629957053932654e-02 -1.075290432386130507e-01 4.739156812189820323e-01
-3.870202841870176713e-02 -1.214593169359590996e-01 5.178368235517010199e-01
-3.679636704238076206e-02 -1.214984220658426040e-01 5.126861304524149565e-01
-9.971884908081842663e-03 -1.229702302872840575e-01 5.390731185483800258e-01
-9.609761707052577595e-02 -1.193774478334977823e-01 4.892474160462439436e-01
-8.545763711395644446e-02 -1.122772428232194225e-01 4.714206214829225194e-01
-4.194580711183152483e-02 -1.067856117434489299e-01 4.723624711634455409e-01
-5.976507118649006939e-02 -9.928800188659149539e-02 4.612407225476557460e-01
-1.001084748050666412e-01 -1.188607279253503513e-01 4.925977065911196773e-01
-7.934437640281448434e-03 -1.285885010061347533e-01 5.192373210997930366e-01
-1.865850004047779967e-02 -1.222091891722735801e-01 4.935171730154922498e-01
-6.155299428140314361e-02 -5.692590284965647757e-02 4.412469794159063485e-01
-1.090880849674289998e-01 -1.046625789936429241e-01 4.617879364633348804e-01
-5.731108373972971376e-02 -9.362835748648998258e-02 4.566144141345798713e-01
-6.038805214892250389e-02 -1.173550414320313484e-01 5.244480538424036720e-01
-8.539273974390920730e-02 -1.187590782130591993e-01 5.056282961600423453e-01
-1.530996752237485069e-02 -1.254063157805013762e-01 5.020420431133720829e-01
-2.800122955369052993e-02 -1.224922534560327486e-01 5.039063139145828485e-01
-7.706274828162790191e-02 -7.546542858262847431e-02 4.429664840693411931e-01
-1.206847374718629379e-01 -1.058443325190386725e-01 4.775983101363329708e-01
-7.939494987426833073e-02 -1.159058580546840772e-01 4.854603566639378309e-01
-8.681951466781388793e-02 -1.188535585497638852e-01 5.013563701753690482e-01
-1.040999628478430084e-01 -1.165887921801077726e-01 5.006685979421283683e-01
-6.867298849364592006e-02 -1.187194485313874392e-01 5.020429924057581150e-01
-8.008081561407125182e-02 -9.477100677667704698e-02 4.552619474794529220e-01
-3.549241417283988120e-02 -1.090228534248185582e-01 5.438335908705801414e-01
-6.533864855614771039e-02 -7.087641753506516984e-02 4.437092814252153183e-01
-2.688879793041997618e-02 -1.100675324701426150e-01 4.736897948246062140e-01
-1.061292681995112674e-01 -1.182450364625175498e-01 4.935074589896460973e-01
-8.878220386471938341e-02 -6.924985646732351174e-02 4.471832289885457890e-01
-5.580518099032888424e-02 -1.039453036678178455e-01 4.680556110968705497e-01
-7.746901248082950497e-02 -1.122993640308290741e-01 4.759955913722963006e-01
-6.620437325102926374e-02 -9.892841257624589157e-02 4.600570024306442352e-01
-3.075009014478435887e-03 -1.284531122759740018e-01 5.124298011519162754e-01
-2.956140934511905516e-02 -1.114252715592135567e-01 5.510507492752504399e-01
-5.696769216425148080e-02 -1.193923677898778152e-01 5.138093652614109663e-01
-3.507541615159311815e-02 -1.140506040125154053e-01 5.439971375689982569e-01
-7.333188370908272358e-02 -1.095106691783308134e-01 4.731844438927063079e-01
-6.437282795650728362e-02 -5.998809488745580204e-02 4.414066039147724885e-01
-3.879659623183102923e-02 -1.194986444549317184e-01 5.362798068827571152e-01
-6.782649118471915928e-02 -1.171882839789996494e-01 4.931480672916086494e-01
-1.836241162063382074e-02 -1.207208648415751678e-01 5.474533382549411353e-01
-4.249798391536748626e-02 -7.506920559878164922e-02 4.473030987707158346e-01
-5.164114926580657544e-02 -1.197925501645214219e-01 5.195190672321381431e-01
-1.685226308088018723e-02 -1.211854214118610329e-01 4.892536662303573758e-01
-3.542784995826823990e-02 -1.153206552173275806e-01 4.871813456612053561e-01
-3.513160504000758383e-02 -1.140442427400250036e-01 4.845309709835086687e-01
-7.713425875915067009e-02 -1.040607469727556217e-01 4.641599819511845748e-01
-2.893808764453490931e-02 -1.144371970954724538e-01 4.824285057875418725e-01
-1.099395553594726960e-01 -1.095567383554666707e-01 4.661614696836057226e-01
-1.297902910787704020e-02 -1.226572633136781276e-01 5.417877291023495134e-01
-9.552840535099964281e-02 -1.163134428297676326e-01 4.692393786748046969e-01
-5.701228547455434309e-02 -7.316529514466557638e-02 4.460221966135699545e-01
-9.787424212933434897e-02 -1.101942792281764283e-01 4.627833804086651237e-01
-4.920477706125989115e-02 -1.176370159712917390e-01 4.964171113394834634e-01
-6.394916237189660069e-02 -1.157170367141797801e-01 4.900567987094944233e-01
-4.125173821393158385e-02 -8.157407653608832188e-02 4.504391298659723430e-01
-9.972613521416172355e-02 -1.142950028617224917e-01 5.079217079768488796e-01
-3.896900291060450411e-02 -1.214844411416353409e-01 5.232697283969590663e-01
-4.177291457085742510e-02 -1.164864139650731018e-01 5.375055530404881932e-01
-8.315569639347362985e-02 -8.438463986854757848e-02 4.475215840395157518e-01
-2.401547648792298068e-02 -1.113586056772765676e-01 5.570495000435000676e-01
-8.489549376798995184e-02 -6.952607754054887512e-02 4.428533266913923239e-01
-5.520043324473121460e-02 -1.051691162284085629e-01 4.697855913154442842e-01
-5.626312336324804098e-02 -1.146223196872867278e-01 4.876593830411112274e-01
-7.338139102936088072e-03 -1.234356272629144602e-01 5.364723060436410451e-01
-3.435746837446223417e-02 -1.196910460229291540e-01 4.981632532010529801e-01
-8.362437771937283881e-02 -1.121692160700534791e-01 4.729994877070533565e-01
-1.101147008799762822e-01 -1.090458345204041168e-01 4.658107152418116126e-01
-2.379205102923113296e-02 -1.173288898618849024e-01 5.516868886621623114e-01
-3.375782983920223163e-02 -1.211151329181760633e-01 5.041138951306984861e-01
-1.113199175733036589e-02 -1.279279624655846048e-01 5.178851629387657418e-01
-1.062071872323625404e-01 -1.158679529285679966e-01 4.691826596427414731e-01
-1.043313661856186056e-02 -1.276351315265883690e-01 5.104367594181913326e-01
-8.461684167051092276e-02 -1.054905989184663218e-01 4.629186138184891441e-01
-1.730329168459386960e-02 -1.209261539784793060e-01 4.888418752217866259e-01
-1.025756040830811955e-01 -1.068278528384184467e-01 4.606116106372975527e-01
-1.787565415901323784e-02 -1.260502620073178093e-01 5.269474792494179827e-01
-8.235012929966456507e-02 -6.415308650986686900e-02 4.421706206568114528e-01
-6.247148114989191370e-02 -1.189714568659031302e-01 5.122797172221235096e-01
-8.313350406576740237e-02 -8.348345195530526563e-02 4.469853161498135719e-01
-2.183604636912397923e-02 -1.236142648719830012e-01 5.015100319024268227e-01
-7.156953984514863309e-02 -1.190119564346734937e-01 5.010068387693529246e-01
-9.566693213493528136e-02 -9.970445512154518797e-02 4.568664990495278078e-01
-6.056004573359639181e-02 -9.704659451865284281e-02 4.589831480352563053e-01
-1.549770181084440465e-02 -1.213321732635254113e-01 5.472647165651038925e-01
-2.408648987207055725e-02 -1.220493859108811863e-01 5.420322539038718856e-01
-2.091029964018908949e-02 -1.234042685477876461e-01 4.995999833565067938e-01
-8.107425387845346165e-02 -1.080744741630200040e-01 4.678031798793020335e-01
-6.850922487996294330e-02 -1.112405364872273705e-01 5.268061220073146922e-01
-5.985983054619126165e-02 -9.270000258864623255e-02 4.554049396787622772e-01
-6.506405817411382853e-02 -8.944570662154310847e-02 4.521655338897722642e-01
-5.056685545430841811e-02 -1.198793706845198009e-01 5.122729305052147186e-01
-4.374999221065976190e-02 -8.947657292966493259e-02 4.555810937116895887e-01
-4.248582482160719737e-02 -1.117977785785472244e-01 5.396604804275573208e-01
-9.123482347113555380e-02 -1.120727117098459097e-01 5.148323127947339595e-01
-8.745408115744340849e-02 -7.787998849254088030e-02 4.454885341947345534e-01
-2.980482195753685060e-02 -1.226910467499248286e-01 5.314871547800760210e-01
-7.468151265032754726e-02 -1.126161591915100374e-01 5.246027170391823757e-01
-7.626187696213689027e-02 -1.048408748813502017e-01 4.651310193104990498e-01
-7.495712218051252262e-02 -9.586468183456840764e-02 4.566749881503465724e-01
-8.053960410747827703e-02 -9.415313613194037368e-02 4.547167379670558618e-01
-1.426882072157708778e-02 -1.257763434659970592e-01 5.305682384538512597e-01
-5.165019123766672465e-02 -1.125756586440486429e-01 4.825533174829589322e-01
-1.057860027271267517e-01 -1.185500710401466012e-01 4.722785699033546503e-01
-8.823844502786447330e-02 -9.417600068625303633e-02 4.537247731164203435e-01
-3.738462875345608533e-02 -1.091471486058970125e-01 5.426009873392092508e-01
-8.907888730021705503e-02 -7.264628072861457897e-02 4.466066153577490927e-01
-7.413476128180022939e-02 -1.017770471285905226e-01 4.621392899332757986e-01
-6.457782026887312621e-02 -1.131724558914219136e-01 4.827295436937759643e-01
-9.071050985182270432e-02 -1.180224013403703975e-01 4.795299339338387479e-01
-4.098365099203638007e-02 -8.944338996451213497e-02 4.556720543747214691e-01
-3.197759954253814874e-02 -1.004177119597201295e-01 4.629674089655828051e-01
-1.273710828972802502e-02 -1.114498434985468078e-01 5.607372489124907711e-01
-2.300294329252545317e-02 -1.191933434059903180e-01 5.488275659328036848e-01
-9.669787602560191153e-02 -1.136737914100994229e-01 5.113124063665914765e-01
-3.533951197753719409e-02 -1.200310043115112024e-01 5.007351690479313611e-01
-2.195122534538876402e-02 -1.252624195926906325e-01 5.276145033224189929e-01
-8.526956459853612252e-03 -1.284518101314691130e-01 5.220025557235593583e-01
-7.916133340211208014e-02 -1.161731579091243166e-01 5.183759795567643991e-01
-4.209441841679288643e-02 -8.997717043197736575e-02 4.560518339488853212e-01
-9.236040561830716200e-02 -1.151469811179014063e-01 4.704090460322410960e-01
-8.631493930987033103e-02 -1.042356773402959569e-01 4.612803456511205824e-01
-6.613046326209891246e-02 -1.052372066136682272e-01 4.672747842650160077e-01
-2.707081476186269653e-02 -1.131182258016544262e-01 4.786269020675177899e-01
-7.252574771839102874e-02 -7.001124628750338141e-02 4.418094363056575546e-01
-2.152890867971347238e-02 -1.245450266322055410e-01 5.324875329794955814e-01
-7.764180149053567792e-02 -1.021603846473546490e-01 4.621656562607635577e-01
-7.296464736366267689e-02 -1.185149100646548243e-01 4.961049891140936197e-01
-3.419336441564774232e-02 -1.223983481870525025e-01 5.238775071506299730e-01
-6.946605344935972981e-02 -1.018030784685625134e-01 4.625085117251570566e-01
-2.797618862363869183e-02 -1.015687223496471864e-01 4.626576000391430243e-01
-1.039681763304798473e-01 -1.194895948574234701e-01 4.724445088086172140e-01
-1.111711078032733557e-01 -1.107251239099003859e-01 5.015795930046768047e-01
-4.121410040569735422e-02 -1.176145333951647137e-01 4.942183393931548485e-01
-5.218890297361488545e-02 -1.197542559947862989e-01 5.193657910960676194e-01
-3.208123743659892224e-02 -1.183573964442341531e-01 4.921314132832216304e-01
-8.479412011811672534e-02 -6.801335272860128955e-02 4.430243886959734367e-01
-6.974289368006783563e-02 -1.187395580042117510e-01 5.006442021381339869e-01
-2.855063443417615518e-02 -1.230092988792865355e-01 5.311203850233707779e-01
-1.237445597656389520e-02 -1.259108918006101030e-01 5.020097315561160567e-01
-1.306395982169475042e-02 -1.256879562514036652e-01 5.014658946103419668e-01
-2.736333020815786762e-02 -1.217156020054301901e-01 4.993802359451418038e-01
