-1.002472756347977528e-01 -1.146214236126988084e-01 5.078734371055632080e-01
-9.941859224112148397e-02 -1.101774743880439417e-01 4.635420520854297566e-01
-3.832724320568784565e-02 -1.002041040351733386e-01 4.652904008862943086e-01
-6.304615030572009726e-02 -1.182382203165746326e-01 5.193465933128882384e-01
-5.184574566918236094e-02 -1.195228742002075878e-01 5.218892858888133368e-01
-6.708638550932211064e-02 -1.094609464462461129e-01 4.757394384307226387e-01
-3.809402788530413808e-02 -1.195911436204253747e-01 5.365157681531875777e-01
-7.879582796347316120e-02 -1.188421122374726663e-01 5.095894865826121611e-01
-1.029696648362945360e-01 -1.056922277928875609e-01 4.618337673542674549e-01
-3.329268356700565423e-02 -1.221283001145483382e-01 5.145592014452298191e-01
-3.667455990692320561e-02 -1.080488358626534862e-01 4.741399056827619862e-01
-5.191985391006874104e-03 -1.286454010731698516e-01 5.169644373222151978e-01
-5.262889277056784221e-02 -1.184864579326239259e-01 5.248191739294221225e-01
-3.827086907080376466e-02 -1.214128555069860504e-01 5.185204051198385455e-01
-7.259333617643126679e-02 -8.705856025625929862e-02 4.505429332766054396e-01
-1.160817257085833415e-01 -9.998254334116765674e-02 4.664709336358474068e-01
-4.190225268317008395e-02 -1.176329238738763050e-01 4.953029001966997025e-01
-2.182594332995959480e-02 -1.096661664494373994e-01 4.706261044301532359e-01
-5.118872932825280220e-02 -6.574222264351922695e-02 4.444974412121915353e-01
-4.006114071619124722e-02 -1.211558212851618910e-01 5.237878777013452725e-01
-5.049359823602782293e-02 -9.618295956950369263e-02 4.609154696838972942e-01
-2.681861763907820301e-02 -1.090856936888906642e-01 4.726013303373018393e-01
-5.705095117770653951e-02 -1.178779265630909984e-01 5.246242372966067880e-01
-5.801649432151438635e-02 -1.121195217879472905e-01 4.826543050223410236e-01
-6.853436263731135791e-02 -8.848563497435857350e-02 4.518538609527141814e-01
-2.457942242274543249e-02 -1.243437331227425779e-01 5.149733627899888422e-01
-3.142711476527158820e-02 -1.198756655358568374e-01 4.970912672193091297e-01
-4.981935911484519641e-02 -9.335445885950797995e-02 4.585300913337194140e-01
-8.848440980592574973e-03 -1.212947774553595343e-01 5.436186234456181765e-01
-1.906329906679694874e-02 -1.252383804836144643e-01 5.308818815632652122e-01
-1.182475671891526775e-01 -1.139686188690481466e-01 4.900026704993814541e-01
-1.043834565661351521e-01 -9.382551869163208158e-02 4.560808343297748646e-01
-7.014157784959175468e-02 -1.182184043878901497e-01 5.171490635117129697e-01
-2.852173444447747216e-02 -1.057013997796517613e-01 4.686926130214525421e-01
-5.206675886349106108e-02 -1.157004643449740938e-01 4.910135253477792561e-01
-8.263114035250479494e-02 -9.147505089640160791e-02 4.534699683028741157e-01
-4.769069464772152100e-02 -7.879279370041215869e-02 4.496986756729553503e-01
-2.637043490606727492e-02 -1.023732567931167903e-01 5.543368293006102343e-01
-1.178642094438905608e-01 -1.002223983054204848e-01 4.689189130916640580e-01
-7.546672645671392843e-02 -8.911888864077545380e-02 4.519496896480776349e-01
-2.117321850357284721e-02 -1.075321020083441909e-01 5.613546955434521868e-01
-2.813215307301659973e-02 -9.827624451427216523e-02 4.599888566915056320e-01
-1.064545282730235964e-01 -1.112069934643774571e-01 4.658609579480567087e-01
-6.143960562212293780e-02 -1.028225996586355079e-01 4.661477488146542614e-01
-7.347818289976582040e-02 -9.648090844820944589e-02 4.582654130866913311e-01
-4.510157939371695068e-02 -1.111541047515829661e-01 5.385706431301462427e-01
-5.534023332219946412e-02 -1.116848761835352033e-01 4.816203120730481180e-01
-1.051509558231103342e-01 -1.003847696844778759e-01 4.592601955687402593e-01
-7.369389205889938232e-02 -6.905305741474651593e-02 4.421981511012900157e-01
-6.081310445189072600e-02 -1.052997526029848113e-01 4.694498725580684706e-01
-4.266689839569286907e-02 -1.179009537863160012e-01 5.362813818604069693e-01
-8.716566388780327967e-02 -1.192336391171567589e-01 4.952355114316842610e-01
-6.885395645848135793e-02 -1.176821458955586153e-01 4.956000582567209878e-01
-9.340583089206307144e-02 -8.212646339776459581e-02 4.502650611919733481e-01
-2.212012907292187219e-02 -1.244358234439871674e-01 5.322627321080971585e-01
-6.888823489405787592e-02 -1.181598219699396823e-01 4.990855643614617310e-01
-6.373614909564438713e-02 -9.085187733044605696e-02 4.542339382080495258e-01
-2.096876396750728747e-02 -1.213837664123919441e-01 4.933683991732303875e-01
-1.680173394980788437e-02 -1.240870877949103307e-01 5.360573615657642232e-01
-9.413651067132172701e-02 -1.184093384571930918e-01 5.011068573420540684e-01
-4.326065878226176969e-02 -1.203049677673240225e-01 5.096793929068106355e-01
-1.145081225310739734e-02 -1.267359941672787926e-01 5.280409921099625814e-01
-3.464645915396396408e-02 -8.931683545964086424e-02 4.554463297536230915e-01
-1.013039697249493443e-01 -1.007969690198433077e-01 4.588511523971735562e-01
-5.811519082277684378e-02 -1.190708939861872540e-01 5.153866808168251490e-01
-4.296360200497383736e-02 -7.504905001982228874e-02 4.477912921620220699e-01
-3.532830264769878242e-02 -1.013342208534057515e-01 4.654973963431270900e-01
-4.959888660838728675e-02 -9.438561718277704848e-02 4.594787847795147595e-01
-1.064793422615577245e-01 -1.110959767390650305e-01 4.658994205275724942e-01
-1.118880301067387562e-01 -1.106577852893661229e-01 4.694335876526075091e-01
-7.464356300817887035e-02 -1.066952483326456674e-01 4.691010677787492145e-01
-1.905204159613973700e-02 -1.145555384361105072e-01 5.573926401798827701e-01
-8.045649446737747346e-02 -1.091948747881570370e-01 4.714048041297922431e-01
-1.741431600722296788e-02 -1.259894954225138641e-01 5.103923702712916954e-01
-8.415493157981436545e-02 -1.189296702994671606e-01 5.041677754519674481e-01
-1.089358321124468260e-01 -1.187682101770782678e-01 4.872206676374210010e-01
-7.417331785547690015e-02 -9.011359002070155888e-02 4.527515722627495909e-01
-3.051280071186758189e-02 -1.029877843069176707e-01 4.656002946409558141e-01
-2.311331762389124897e-02 -1.023591661873601150e-01 5.601332781538552741e-01
-2.025178238041454304e-02 -1.143494062938929384e-01 5.569305176947759728e-01
-1.194462285690388662e-02 -9.862948274334712440e-02 5.673248418609950772e-01
-2.907544288118608933e-02 -1.162458200678228581e-01 4.866121483443542894e-01
-5.019292854605285348e-02 -1.036064709607037587e-01 4.690728421631203404e-01
-5.892684704831625125e-02 -1.158326970038125181e-01 4.927871859477052086e-01
-3.906211214621510552e-02 -1.164958864672581973e-01 4.911521262559517265e-01
-1.163059932952349440e-01 -9.713253705629000534e-02 4.676933260953520799e-01
-1.051286074650856772e-01 -9.105487047774458997e-02 4.568493816745534120e-01
-8.017615041907195927e-02 -1.160387053881097863e-01 4.870195569297626204e-01
-7.528165117525756345e-02 -1.191793172437815157e-01 5.003069109663189629e-01
-2.149032490486964958e-02 -1.174228103064512835e-01 4.834319974715445278e-01
-4.041219049552707832e-02 -1.111541573820060691e-01 4.799152413809479878e-01
-9.905776501790521105e-02 -1.193675200477942733e-01 4.896404899222565610e-01
-4.036337410286209432e-02 -7.971214821580913101e-02 4.498941627486106043e-01
-8.854875754661473142e-02 -1.147363122540068503e-01 4.745514840105851118e-01
-6.330336155605600923e-02 -8.604794211422471528e-02 4.511342864245098117e-01
-1.007413923274389222e-01 -9.030029676434350727e-02 4.551984198943557769e-01
-3.155908651009852600e-02 -1.219465320879985076e-01 5.336562362227037504e-01
-8.019438916529805783e-02 -1.089898649887841992e-01 5.240712385482917401e-01
-9.977948352019493788e-03 -1.236321584078865082e-01 5.369763335688352290e-01
-1.105695833202078454e-01 -1.178759615723944665e-01 4.776367842317650325e-01
-8.690467768088395994e-02 -1.068310498585400559e-01 4.647452394234605211e-01
-1.202736086003255572e-01 -1.073946096059253674e-01 4.812808518397999613e-01
-5.561254083885277394e-02 -1.118293417329225686e-01 5.331205153640595773e-01
-8.933012800401254894e-02 -7.333647840788534711e-02 4.474269484892977045e-01
-5.761688103898555957e-02 -8.886402924555208971e-02 4.537137755179219134e-01
-1.879831507299972726e-02 -1.238434840104071094e-01 4.999969938157520777e-01
-2.115818995034541780e-02 -1.153351208375466702e-01 4.791278316707839324e-01
-9.676406084884110748e-02 -9.670089984030687258e-02 4.563370942799099272e-01
-8.522761382230240046e-02 -1.122268287949443610e-01 5.190170250985624012e-01
-9.571250156051847036e-02 -1.175802390977965656e-01 4.746919124087662367e-01
-1.443101919260046315e-02 -1.210542955443816293e-01 5.480003193196497646e-01
-2.083448665228065239e-02 -1.175917939621017733e-01 4.834820115906763860e-01
-6.123075749489313019e-02 -9.759132561815704598e-02 4.603164365705330052e-01
-3.124454169614838961e-02 -1.224594843495622337e-01 5.130360810685929973e-01
-4.905177593284635457e-02 -6.708411353002016742e-02 4.449962124911444605e-01
-3.832997796023650261e-02 -1.178614002483775458e-01 5.388984376748785499e-01
-7.578554083395598606e-02 -1.189752823052616093e-01 5.092234709961654948e-01
-7.482558414918595580e-02 -1.185692792908128457e-01 5.142008447852238762e-01
-6.860150347392451886e-02 -8.962494779189193739e-02 4.526415244884315903e-01
-7.299868428909178641e-02 -7.255140408420693299e-02 4.433775392214143740e-01
-5.747678460683906809e-02 -1.169190557325322372e-01 4.968062617168429451e-01
-5.829163114639960425e-02 -6.046620538346855755e-02 4.427562351248178762e-01
-1.012054885742471599e-01 -8.310763645279073408e-02 4.573647527687533243e-01
-7.929750126495210827e-02 -9.207010691563878579e-02 4.542033040762845642e-01
-9.711734283292836056e-02 -8.866471718066426533e-02 4.526963199781898206e-01
-7.011858254037345306e-02 -5.907528211233752796e-02 4.412850619446750944e-01
-8.272556930589818058e-02 -9.561773441458021328e-02 4.567087085715936801e-01
-8.170600957852056090e-02 -1.184754940990206118e-01 5.121922386242235836e-01
-1.026226222146222888e-01 -8.419879597924767589e-02 4.583864897497514357e-01
-3.882671762861748810e-02 -1.213439800379825517e-01 5.216949141709881221e-01
-1.207829123942630867e-01 -1.031873564448713282e-01 4.750382218891694985e-01
-8.502505193379483739e-02 -1.152871294710745981e-01 4.787344692668331625e-01
-2.080293642771958995e-02 -1.251511418059855218e-01 5.115584788757913115e-01
-8.994234384010814376e-02 -1.182189512736239040e-01 4.861670565346622452e-01
-4.683357535873233085e-02 -1.179764037154871076e-01 5.339686819781152005e-01
-6.979534288988270552e-02 -6.709889911467348256e-02 4.424149848298311594e-01
-1.911284525541488699e-02 -1.239773001383526474e-01 5.008491018741056955e-01
-2.774761548024554103e-02 -1.231326697001982051e-01 5.103728060009202760e-01
-6.213114634912030726e-02 -1.188169670595674854e-01 5.135173049006332979e-01
-9.519948973000966208e-02 -1.190087909735382532e-01 4.934419537330388961e-01
-8.468034754082418014e-02 -7.438760805062988313e-02 4.438423911848957681e-01
-6.082947532558747455e-02 -8.383726708853819765e-02 4.501756161011769564e-01
-9.808425867777507967e-02 -8.843469230339094656e-02 4.533015378674614126e-01
-1.015031137131599953e-01 -1.081076108960327409e-01 5.101602765203193668e-01
-1.121346544008848117e-01 -1.094073693834438088e-01 5.025699928741207412e-01
-9.664888119244627318e-02 -1.116638879631738634e-01 5.134085099424496867e-01
-1.150496391949919484e-01 -9.803865118059350292e-02 4.653541172723324459e-01
-3.585130453385278887e-02 -1.180595055126612142e-01 4.941824948619552571e-01
-3.567749246587584300e-02 -1.178637246809946110e-01 5.407493460591188406e-01
-8.351767749324644219e-02 -7.253060358743847191e-02 4.431751315030386107e-01
-2.486807705749135775e-02 -1.178484713656029886e-01 4.865544281761221557e-01
-5.548416271855007020e-02 -5.671967145230633056e-02 4.422000729437796651e-01
-3.931996121912544051e-02 -8.208557044745413978e-02 4.511868830230236216e-01
-6.267189172357737204e-02 -6.439007872106310149e-02 4.431307785481075068e-01
-1.015059766363674287e-01 -1.138033438989104196e-01 4.665627861975458757e-01
-1.102934360769494276e-01 -1.145734083549714566e-01 4.722808071924942674e-01
-2.630453303587714647e-02 -1.008123005421001361e-01 5.538583763324198550e-01
-5.085922458076674868e-02 -1.165817988010549033e-01 5.319355738553228630e-01
-1.281518520050287102e-02 -1.156135188228105543e-01 5.569314225117749650e-01
-1.060486472525026952e-01 -1.207494905560470150e-01 4.813789481027765382e-01
-1.162462898511139459e-01 -1.010199940671328150e-01 4.668722109631392447e-01
-6.661230048785812818e-02 -7.298665202703569221e-02 4.447873379668264571e-01
-6.614314737823722735e-03 -1.286571565907553560e-01 5.211383927646145997e-01
-4.859461451561317841e-02 -5.748610359861992813e-02 4.423380124521891221e-01
-8.068601286661859773e-02 -1.089973207873158878e-01 5.231461590831942843e-01
-1.008797354251450007e-01 -9.035540477461569131e-02 4.552251967334169369e-01
-7.337472363705778433e-02 -1.188882746944719265e-01 4.995712119193611023e-01
-1.176594396905923309e-02 -1.095613335891262724e-01 5.626431599270479422e-01
-1.886668693674082783e-02 -1.174138378251313730e-01 5.536560989522566478e-01
-4.196415817427279205e-02 -8.180374904058565488e-02 4.510635599964994413e-01
-8.716138224343786267e-02 -1.174412634325590066e-01 4.885728104249402737e-01
-4.818248890055052552e-02 -7.788464747359218066e-02 4.492708580510861305e-01
-1.222406914470424225e-02 -1.264985991716723879e-01 5.056774489658885097e-01
-1.421910300129639385e-02 -1.137592348133681097e-01 5.589333010400727719e-01
-6.918574016250381153e-02 -8.218004289023488063e-02 4.478410333912661301e-01
-3.356356399421188408e-02 -1.131491574164926739e-01 4.827930366007724960e-01
-3.716400446649518324e-02 -1.216227494138708287e-01 5.183621691796325148e-01
-5.786058540929542998e-02 -1.094742626401613156e-01 4.768087816267070900e-01
-1.014979284151594774e-01 -9.195903532087154608e-02 4.553006243153407961e-01
-1.159444275022329662e-01 -1.101039842836003951e-01 4.729428045368078148e-01
-6.134018352944416858e-02 -1.099091948966543358e-01 4.776758407727665912e-01
-4.622491374389652019e-02 -1.160821184663893418e-01 4.913625339285147553e-01
-9.748460719558435517e-02 -1.200246354739785692e-01 4.861294766410420576e-01
-4.419493231239132042e-02 -1.162203907747385440e-01 4.915255951947179458e-01
-8.432838266513510705e-02 -6.849139516505178826e-02 4.436387361577454058e-01
-8.360652610223209824e-02 -9.129798740046117522e-02 4.532421821184930422e-01
-4.822054696289980458e-02 -1.137417430527373347e-01 4.854983748913679897e-01
-2.113332109535714584e-02 -1.013278922766107232e-01 5.618981658624354614e-01
-3.781024765449526870e-02 -1.215239036206721135e-01 5.204926932703938247e-01
-4.740341669692862275e-02 -1.192937787796997939e-01 5.299403115890313209e-01
-8.534561083922929947e-02 -1.186120974053968408e-01 5.065134576886355378e-01
-2.983654853354648570e-02 -1.048301077845586460e-01 5.503726190998624590e-01
-1.574643641871882258e-02 -1.187263853724318946e-01 4.840543224481350659e-01
-1.179468558455794569e-01 -1.141806943867717389e-01 4.879077187297154450e-01
-2.009531586781327858e-02 -1.127877543760890111e-01 4.743371520372268169e-01
-3.229862796495017174e-02 -1.193730980722267354e-01 5.416914916196927665e-01
-9.715024197834939979e-02 -8.031110512336936402e-02 4.528300884699154039e-01
-1.604823922659860680e-02 -1.114146255425083609e-01 5.607445560848792754e-01
-7.009160351035917391e-02 -1.131475240872334559e-01 4.832257081138339183e-01
-1.614853717820433077e-02 -1.251652950276986587e-01 5.027792383054126013e-01
-1.580697672945457696e-02 -1.266484062519653009e-01 5.227897212308592056e-01
-4.742962422282501200e-02 -6.706666022398682925e-02 4.450646051232081124e-01
-1.852680214010007237e-02 -1.185524716187629224e-01 5.517064349101604703e-01
-9.721347041872706318e-02 -1.202672835743692908e-01 4.803077406846429920e-01
-7.334090812442863039e-02 -1.163854068618707105e-01 5.203812465225576833e-01
-3.736448063725238827e-02 -1.170553636749328830e-01 4.923091339602412297e-01
-9.801809028371152865e-02 -1.206831393632603472e-01 4.803837399858394974e-01
-7.439633675234844090e-02 -1.097613174304468142e-01 4.744605619409733577e-01
-2.687902749827764462e-02 -1.036561480697001936e-01 4.649555940352640970e-01
-8.210361472213011103e-02 -8.484275789329302764e-02 4.487387186368757552e-01
-1.786178681772153734e-02 -1.207269466740070324e-01 4.891215101131180520e-01
-6.205076010568658096e-02 -1.185745544537901430e-01 5.055491770335096557e-01
-5.778846245582716645e-02 -1.186742981725806556e-01 5.214084133089853523e-01
-3.315647397282157210e-02 -1.084605367457758401e-01 4.741716991139287574e-01
-6.992695022255766835e-02 -1.171052361269462744e-01 5.193382043980243612e-01
-7.736235119763915091e-02 -8.241875373866577870e-02 4.468647591052969381e-01
-7.122752072154510221e-03 -9.796480279109241740e-02 5.682500116452486871e-01
-4.907734811027153476e-02 -1.092668546878503011e-01 4.773928554000947955e-01
-7.415215276369874209e-02 -1.181794052780484189e-01 5.159097914599821699e-01
-1.474447711678425303e-02 -1.232674013443787187e-01 5.402351445866129254e-01
-2.295266943503489893e-02 -1.236085728646667548e-01 5.356272559848113124e-01
-6.259463903897474757e-02 -1.189328716517398521e-01 5.124387123198531624e-01
-5.020997922951765668e-02 -6.829837945844931257e-02 4.453072253643832190e-01
-5.971163255044167201e-02 -1.169613765887347473e-01 4.972423426624842380e-01
-9.779888206059086930e-03 -9.561231454348963210e-02 5.689956650816898609e-01
-1.673317638440713004e-02 -1.226818984866367979e-01 5.429928909495898015e-01
-1.009509290393605790e-01 -1.207663200221763267e-01 4.822634573911098732e-01
-1.505345761646707456e-02 -1.229518946710661670e-01 5.416017515058987319e-01
-6.915538138415955327e-02 -1.084246132195946927e-01 4.730605330740320080e-01
-4.295089506433557441e-02 -1.167280936507970601e-01 4.928845677788217250e-01
-5.981294367590003769e-02 -7.240647757735572954e-02 4.460594697707315759e-01
-1.193067308056747766e-01 -1.097147398051665224e-01 4.839056409056549102e-01
-2.203811334732045865e-02 -1.197238604557551156e-01 5.482032323605574575e-01
-9.034109151813815575e-02 -7.724310057958737319e-02 4.478422106457467522e-01
-7.296104116460161437e-02 -9.224415426755035174e-02 4.545968593335490970e-01
-1.184384180765282596e-01 -1.028307121277725888e-01 4.708067323515387481e-01
-6.589799797283722727e-02 -6.288105491597549557e-02 4.423403060937453057e-01
-1.214803654994314058e-01 -1.015302070333756329e-01 4.758544509178592730e-01
-3.554818575864477498e-02 -8.999373423494327895e-02 4.560940558542500023e-01
-1.627622706758471288e-02 -1.257544758711026112e-01 5.057699023337662858e-01
-3.688974797143135947e-02 -1.206603176249611553e-01 5.338012185278641075e-01
-5.537087254640100931e-02 -1.166219999560301757e-01 4.953398583860372240e-01
-5.269505910220643324e-02 -1.060227712792218557e-01 4.720373119776967719e-01
-6.176741993718703333e-02 -1.187513224014942470e-01 5.087003792459183771e-01
-7.319954042663112670e-03 -9.673328858386075202e-02 5.687074300199285171e-01
-9.065118330639550248e-02 -1.019338761159437473e-01 4.600021358861018927e-01
-1.042332704966773271e-01 -1.205528149165572549e-01 4.758205595630266016e-01
-3.903968539957218542e-02 -1.212782483598846966e-01 5.185679999227497117e-01
-2.831131675262451436e-02 -1.226855549597059558e-01 5.333663464616991146e-01
-5.155334006576284961e-02 -1.044290726870219510e-01 5.376849482960677218e-01
-3.076523709545113741e-02 -1.189468711110620858e-01 5.437041741173296305e-01
-1.056573804754073198e-01 -1.120678435913113197e-01 4.649473991169618126e-01
-1.996823649612551599e-02 -1.256801919894655062e-01 5.191046429547946373e-01
-7.639051048107711739e-02 -1.158491458332358282e-01 5.209311243228206267e-01
-1.005944986909240169e-01 -1.110666307623232874e-01 5.099491515643849171e-01
-9.071593249358776700e-02 -9.794112461163081984e-02 4.568688518589598124e-01
-3.307248936139069867e-02 -1.214206051945256604e-01 5.061403620572341167e-01
-2.389138198034046826e-02 -1.112576990936268440e-01 5.570416505248336758e-01
-5.235855376986872645e-02 -9.048965194603499074e-02 4.557283081204749897e-01
-6.473003141025564233e-02 -1.187641933829909069e-01 5.051092754454298284e-01
-9.232704477267567045e-02 -1.159391959690604518e-01 5.129848227293861695e-01
-4.782300664698570236e-02 -6.637790463426336551e-02 4.448405247319555111e-01
-3.198193291459032472e-02 -1.060365506105873101e-01 4.702568440384314874e-01
-3.838632644294460994e-02 -1.118796276997683914e-01 4.811105302207844270e-01
-1.175504431256947369e-01 -1.123107354630346888e-01 4.788987399537671386e-01
-1.372036567214771248e-02 -1.046379079151647795e-01 5.646544584474261219e-01
-1.866628854117080571e-02 -1.259767818209778789e-01 5.180964807596081245e-01
-1.068778949696064795e-01 -1.185278115176280761e-01 4.749274342766697798e-01
-2.805645501870508707e-02 -1.230379106358431424e-01 5.103242838950908800e-01
-6.096935625715931006e-02 -1.136643376222140900e-01 4.855837549799382757e-01
-4.703317550206895237e-02 -7.373962110225119881e-02 4.474775415049211946e-01
-6.600225179212068638e-02 -9.213033665421722918e-02 4.549832560024768546e-01
-8.624964967769763180e-02 -7.481068815607959388e-02 4.445677898592294564e-01
-8.002344445804432382e-02 -1.173423035305531797e-01 5.173497237111933655e-01
-4.011402938255743261e-02 -1.162614069084062923e-01 4.907548796235557953e-01
-1.161517396520148071e-01 -1.128682063800222068e-01 4.767593179321152341e-01
-1.069035551464716932e-01 -1.122144002215054032e-01 4.671309818794329716e-01
-2.067756749061206226e-02 -1.152085180053420699e-01 4.786798939339838577e-01
-1.031630888033331778e-01 -1.183833846215364416e-01 4.725256040586803263e-01
-4.685787899685535385e-02 -5.788317104307416638e-02 4.424774640035871731e-01
-4.306104024534373326e-02 -1.207247554019127284e-01 5.177396185347854507e-01
-5.125065016647489119e-02 -1.184463467672097065e-01 5.272294057103589227e-01
-8.224312810632825044e-02 -9.292717888686448380e-02 4.546099777857268154e-01
-9.759232993735997286e-02 -1.190395621198484383e-01 4.916395798236463111e-01
-7.630290275210836748e-02 -9.246164912424660598e-02 4.548232486753306936e-01
-3.571701352014799991e-02 -1.185192706008899588e-01 4.959159679981992586e-01
-6.344917359640708798e-02 -1.118192609881832611e-01 4.813442736085568052e-01
-1.960730715734928034e-02 -1.162988174802232350e-01 4.802419398914874460e-01
-1.623172370143438972e-02 -1.214240708908795041e-01 5.468865028735107048e-01
-6.595845127786022222e-02 -1.083381298874711296e-01 4.736048720062403516e-01
-5.878252492766543325e-02 -9.460173761013580818e-02 4.579779283945921708e-01
-4.733464388723637034e-02 -1.200725201641557466e-01 5.232653509903115729e-01
-4.428984308726966607e-02 -9.946314466539522836e-02 4.644626745240290622e-01
-4.040471815926546112e-02 -1.091231639969446054e-01 5.414798684642501136e-01
-1.158245850406432048e-01 -1.133430711928781337e-01 4.959435801579126779e-01
-7.963396028870448062e-02 -1.008473614134249574e-01 4.615662444972656320e-01
-1.294503697290148858e-02 -1.256198113531283855e-01 5.017957035967812729e-01
-1.598948816197429124e-02 -1.262527313747890678e-01 5.077816199986899814e-01
-9.217761528923440473e-02 -1.039817085890500370e-01 4.615190243334530984e-01
-7.014535033023773514e-02 -1.091032392642553583e-01 4.742279153481246401e-01
-2.943599779706692829e-02 -9.910859824528049644e-02 4.612448905525804443e-01
-7.585996344384662859e-02 -1.159411443222376631e-01 5.208923436811978558e-01
-1.131463074176971423e-01 -1.159637085625424557e-01 4.950377869006983844e-01
-2.310459168819889789e-02 -1.186691752099161418e-01 4.874311398264571937e-01
-8.580617285721393872e-02 -6.757426884603386086e-02 4.442744872746193785e-01
-1.142682691014033913e-01 -9.659587542759773271e-02 4.645462756888366074e-01
-4.730019305504472305e-02 -9.432646840536720867e-02 4.598305003679939995e-01
-8.003670811057468637e-02 -1.046084879183762778e-01 4.652328945457031018e-01
-8.280560617642848675e-02 -1.184647648616987403e-01 5.116038715677365678e-01
-5.597695189979588065e-02 -1.072657014749459764e-01 4.735588126355429472e-01
-4.335642204086256196e-02 -1.207080712227885516e-01 5.205803345168614760e-01
-3.777244151457164606e-02 -1.154848862669890369e-01 5.410846678628618012e-01
-1.101322579492791109e-01 -1.133768347815706651e-01 4.705325350907498261e-01
-6.112250325220571628e-02 -5.825597897775868644e-02 4.421277333956861733e-01
-3.411706213837226859e-02 -1.206569915234693841e-01 5.358604852862187684e-01
-4.902220623301384306e-02 -1.161410068451895899e-01 4.919048054157694194e-01
-6.927422488445227067e-02 -1.142659975726126320e-01 5.248547477649971871e-01
-4.979125040354578230e-02 -1.130207119908685359e-01 4.841765432621951692e-01
-7.252301037951536244e-02 -1.004830101553185195e-01 4.618078072805102963e-01
-1.270168769530148276e-02 -1.118352164105595459e-01 5.606502058968392266e-01
-5.544795064861987588e-02 -1.164835324046603476e-01 5.290554093249328904e-01
-4.589595069437722025e-02 -1.106635708430619147e-01 5.383621284729634970e-01
-2.502275767980180823e-02 -1.243041956790732622e-01 5.172484520979026001e-01
-2.372920651913089721e-02 -1.114675272400710154e-01 4.743702790610735964e-01
-4.321298261735377622e-02 -1.198085346759770603e-01 5.327730185859321788e-01
-4.276354793573147045e-02 -8.984665759249851891e-02 4.564695371413396985e-01
-1.126650039806278286e-01 -1.106279236696574020e-01 4.700783369051828031e-01
-1.114349860440079498e-02 -1.219609074272829108e-01 5.435180643384387444e-01
-4.476556372716603699e-02 -1.100360482560731740e-01 4.785743465303585187e-01
-6.236465957601385751e-02 -1.188932414469429377e-01 5.098092619586350738e-01
-9.258265180029950914e-03 -1.246050876882860980e-01 5.339827073178813333e-01
-2.129618104208077026e-02 -1.253475540566557911e-01 5.265271281105614598e-01
-4.433978332737253253e-02 -1.184764166227326443e-01 4.996945196963783475e-01
-1.071776003920385800e-01 -1.123532902304533038e-01 4.679670135247245288e-01
-6.081752009153078287e-02 -1.147992463889353498e-01 4.888735003015355352e-01
-4.057203368139881972e-02 -1.204529614004241217e-01 5.087184849540951070e-01
-4.510630286475969530e-02 -1.203207199097839214e-01 5.262969851057611725e-01
-1.384378729213815544e-02 -1.199883967234101345e-01 4.860714160862371624e-01
-5.438844637936095239e-02 -1.062375368079722937e-01 4.720923683438568719e-01
-1.092555402332399117e-01 -1.153515150132218836e-01 4.725201891781252717e-01
-8.270234920149160951e-02 -1.107960397775025890e-01 4.729473208732888900e-01
-7.225534194538990422e-03 -9.729398459862047266e-02 5.684820136236236054e-01
-8.167129227147697235e-02 -8.199412259565612426e-02 4.469465267207205494e-01
-1.159130538234436347e-01 -1.101332449302112604e-01 4.729428285535973719e-01
-4.438457173347313406e-02 -1.189276224784517194e-01 5.015923328391784786e-01
-9.013712729848324945e-02 -1.121643015426011109e-01 5.163833453138900742e-01
-3.149983399486843555e-02 -1.089634104031209361e-01 5.482886349316062891e-01
-8.065328456185778816e-02 -1.187652643038004940e-01 5.097556651588740495e-01
-4.758559154136929314e-02 -1.163245263783551364e-01 4.922473370247929525e-01
-8.311780174635302609e-02 -9.733005157889751402e-02 4.579676233734220059e-01
-2.624045427487586846e-02 -1.231359614924295853e-01 5.055475054148552694e-01
-2.262217225050540403e-02 -1.230648673333119419e-01 5.386296032969353220e-01
-2.203860667289731651e-02 -1.164039991905262833e-01 4.815583372304689247e-01
-9.900364522551961810e-03 -1.244297505324794550e-01 4.962799911420734955e-01
-1.064855365432455653e-01 -1.175930101225136637e-01 4.965704199264445728e-01
-7.899311329733639531e-02 -7.855645017525203500e-02 4.448234842769178132e-01
-2.746851884041889152e-02 -1.230168781974173703e-01 5.322140417585136118e-01
-3.456093310740120800e-02 -8.592238796665631340e-02 4.527530024697439259e-01
-8.154676594635909548e-03 -1.284216340225283193e-01 5.220424057826723585e-01
-1.047745833092477707e-01 -1.190079488057239482e-01 4.918782284780421343e-01
-2.568777928670999688e-02 -1.230487794667243645e-01 5.352784346014429762e-01
-2.423128873015509624e-02 -1.170787020427767056e-01 5.517560493367966723e-01
-3.742776785486327112e-02 -1.135098100705754648e-01 5.424471882671815237e-01
-4.725164641836032686e-02 -1.054027380140120651e-01 4.713519184422018116e-01
-8.515332239513334622e-02 -1.077395655311607497e-01 5.204880517477677992e-01
-2.578688858131508027e-02 -1.191439743440483728e-01 4.908122195253510345e-01
-3.297429692882226232e-02 -1.216229198321558402e-01 5.336194174303613424e-01
-3.540128697492472831e-02 -1.104879274249923327e-01 4.780813891434117502e-01
-1.635093003301875750e-02 -1.239130323941988049e-01 5.370286440267340033e-01
-6.090180832672344863e-02 -6.870738588243555101e-02 4.446892672477438246e-01
-1.186510863987577796e-01 -9.943190970739439194e-02 4.716907486769963409e-01
-5.658034807860522208e-02 -1.168201653215971692e-01 4.962878228840311157e-01
-5.583347003044761975e-02 -8.062669505610522980e-02 4.496626895518144873e-01
-9.661557943173573748e-02 -1.117587199983533647e-01 5.134089653307044587e-01
-1.206873663050591072e-01 -1.064875412557358680e-01 4.815091816431886218e-01
-6.005850997214463166e-02 -1.023368263794600663e-01 4.657936588766754538e-01
-6.088777332861641800e-02 -1.184544805111018978e-01 5.197916950845413719e-01
-8.333783551820841962e-02 -1.124789399053388594e-01 5.201533791482444435e-01
-4.471114059131225255e-02 -8.487790236398193300e-02 4.529017115319214359e-01
-6.890892305711499022e-02 -1.190331559822857682e-01 5.084636080416635728e-01
-4.069611928686543700e-02 -8.280569793163713999e-02 4.515993783429032571e-01
-1.368626414687190013e-02 -1.218661862867437135e-01 4.902598072148159902e-01
-8.418760579821560341e-02 -1.164943043292238495e-01 5.162021800525319337e-01
-1.076343327575629838e-01 -1.199136351896754882e-01 4.766766481370037223e-01
-1.742970018976702784e-02 -1.164720947923967159e-01 4.798646037474760817e-01
-1.105848864138057608e-01 -1.156181324772167091e-01 4.740662982619776589e-01
-1.062285931786357412e-01 -8.827143342093651812e-02 4.597078399664503157e-01
-2.861337153583558279e-02 -1.204232089734331573e-01 4.968656341769147611e-01
-3.392610318084002957e-02 -1.106805487002318483e-01 4.783205926235216121e-01
-4.950170438831026642e-02 -8.610731234063152828e-02 4.531570186509868980e-01
-2.561861317805890284e-02 -1.242576948803903736e-01 5.276985220551623224e-01
-1.978599989937852160e-02 -1.248636266231553382e-01 5.322121298276799584e-01
-8.391949592745853378e-03 -1.262846783326159739e-01 5.310007618967749199e-01
-2.468631903045843956e-02 -1.228924335509081894e-01 5.372490289675895259e-01
-3.166118492175003934e-02 -1.165537637124959003e-01 5.461220886675675068e-01
-8.769792035561417565e-02 -6.919044508826151241e-02 4.452826369775035875e-01
-1.510070379421158196e-02 -1.269445376035148176e-01 5.209619914455617673e-01
-3.656304910317572515e-02 -1.135259828932017045e-01 4.842427655116152696e-01
-2.415427554286414535e-02 -1.244494665286764029e-01 5.293713071995937991e-01
-1.206581559860436526e-01 -1.060778238529762607e-01 4.834024844770664076e-01
-2.727516307601197953e-02 -1.140051904345368849e-01 4.808544672744507475e-01
-6.688556898617151192e-02 -1.087878446213461497e-01 5.288924192699113735e-01
-1.198144726095364820e-01 -1.086581491351988615e-01 4.897532650164975743e-01
-5.439416148769758014e-02 -1.192238442496951628e-01 5.098270704458571778e-01
-4.938967788761803451e-02 -1.147047551783835079e-01 4.877805259087439338e-01
-4.417681095514821438e-02 -1.205085993570930575e-01 5.253866618019835677e-01
-2.177231214493950337e-02 -9.847911138958892474e-02 5.612947544459223614e-01
-4.093022566091388675e-02 -1.090400705332438824e-01 4.760373436057478425e-01
-9.295668907105537893e-02 -1.033704528548860246e-01 4.609281746382526967e-01
-4.943627278655636503e-02 -1.199332298889254217e-01 5.169515945833663695e-01
-5.122379687494486161e-02 -5.968449774176318862e-02 4.427980838601791036e-01
-5.642045933366741928e-02 -6.396775172516713792e-02 4.436093938308014462e-01
-7.758207173464164164e-02 -8.626104151900355899e-02 4.497936217929149327e-01
-5.216954263360679134e-02 -5.847698427888506356e-02 4.425254430332480893e-01
-3.777983912047899739e-02 -7.878262451344451855e-02 4.488896575751402107e-01
-4.419563709743687396e-02 -1.165292025957466726e-01 5.364864614438116242e-01
-6.855390505733996442e-02 -1.189213148868136227e-01 5.115750961761701410e-01
-5.508097320850802170e-02 -7.693834628807254272e-02 4.483404132394373520e-01
-6.843112670000572884e-02 -1.181437749112459606e-01 4.993648030277506589e-01
-1.215109323891749998e-01 -1.011239025182600337e-01 4.764809894471960794e-01
-4.772637312023098044e-02 -1.167649724914042869e-01 5.343377429600164596e-01
-3.212742039016017181e-02 -1.226525644735063925e-01 5.265560367956648724e-01
-5.205670975338969747e-02 -1.096446244245057322e-01 5.362639945471279201e-01
-1.133640225140934571e-01 -1.149328359867109461e-01 4.974239984991356556e-01
-1.302197194142879801e-02 -1.185895435436761652e-01 5.522796700717189644e-01
-7.786830198959773797e-02 -1.121810681949942240e-01 4.767813131722260511e-01
-3.342606372513774737e-02 -1.211782462468181110e-01 5.051258076181126544e-01
-1.740475184990744259e-02 -1.209442100557000105e-01 4.894373267798637350e-01
-1.182394028019004145e-01 -1.128439052528147635e-01 4.847425317363225350e-01
-6.849339931739870102e-02 -1.123266082236523133e-01 5.272057773564789995e-01
-9.790860005330551119e-02 -1.106985675118771772e-01 4.648226276169444282e-01
-6.675514032394982977e-02 -1.191950965067159751e-01 5.095830196871187212e-01
-1.084496681800120876e-01 -1.128166161690190572e-01 5.036238994444546258e-01
-5.711546838808660709e-02 -1.187665668738546593e-01 5.075163246743376044e-01
-1.151361933256968978e-01 -1.129971568615539823e-01 4.752997229609448593e-01
-1.095218544960421397e-01 -9.135520124108878481e-02 4.609462893377107018e-01
-6.284738981455724460e-02 -1.058742148416286361e-01 4.696183141921640991e-01
-4.591075845438523373e-02 -1.137175555174467362e-01 4.852451193048285538e-01
-5.441747416402817339e-02 -1.184143546910838146e-01 5.034876980361826515e-01
-6.954476628294292695e-02 -7.834733454622952453e-02 4.459906114572421143e-01
-9.404113995308223395e-02 -1.024748811919239944e-01 4.600671952488424865e-01
-7.338638893533608321e-02 -1.189521053504074694e-01 5.098592146090354937e-01
-1.138462579881555636e-01 -9.761476742135773155e-02 4.634988923068980027e-01
-5.927046653580671925e-02 -1.180824572509779624e-01 5.033946955252973643e-01
-9.536890911596573872e-02 -9.155225672100035517e-02 4.532732672649422145e-01
-1.071891699802655501e-01 -8.975415753967372345e-02 4.596616700052331694e-01
-2.480131566561781173e-02 -1.245233247962366507e-01 5.273099815398605283e-01
-7.741827210804397286e-02 -8.050413616138413220e-02 4.456757962412262186e-01
-1.722766098677951108e-02 -1.195611755558162737e-01 5.502613455250373597e-01
-8.799393814452316498e-02 -1.181264982760331372e-01 4.893705336098649328e-01
-3.331430490298441932e-02 -1.105447792423229075e-01 4.778904965724161680e-01
-8.641517416498867982e-03 -1.228187011707183723e-01 5.392215824449150263e-01
-1.147600871689284374e-01 -1.119779232543784697e-01 4.737211749168596664e-01
-9.092433397424522570e-03 -1.194972280778255902e-01 5.497573289112387407e-01
-5.299336509684233337e-02 -1.080152672162407040e-01 5.362548641870895638e-01
-7.953426581887775015e-02 -7.879443826749624180e-02 4.449552126794177331e-01
-8.121612475832430678e-02 -1.187819270373558639e-01 5.093185555926249553e-01
-6.675040823931131795e-02 -1.145465268975791734e-01 4.871602602378392599e-01
-1.602910860319343642e-02 -1.213316279137205550e-01 5.471474467101486994e-01
-4.854976810290785594e-02 -9.560603953821554535e-02 4.607431062892006768e-01
-8.383623887882775405e-02 -1.168282565582214327e-01 5.158756773446566690e-01
-2.875120508901745156e-02 -1.058291237462107015e-01 5.522888083910554302e-01
-2.853487164202994988e-02 -1.111029152266297254e-01 5.527178250711275442e-01
-7.536311022784840385e-02 -1.069383181924399434e-01 4.692388131783062355e-01
-1.780250694469883224e-02 -1.220940245985579625e-01 5.449067117103006952e-01
-9.057913955249444204e-02 -1.169473585103560226e-01 5.112557801337196395e-01
-4.857105588304329313e-02 -9.016708256491580420e-02 4.562382259573254384e-01
-1.477547098351808183e-02 -1.223740920487079997e-01 5.442401055373391472e-01
-1.100879122667787480e-01 -1.185617736586150467e-01 4.848549056965981707e-01
-1.169217624065316402e-01 -9.702317984896548231e-02 4.692000361368274808e-01
-3.287010193013778503e-02 -1.091223164914135180e-01 4.751311288782761322e-01
-8.187131970335148612e-02 -9.461569703296895950e-02 4.560218021569677482e-01
-5.435176180218943137e-02 -9.290897710712184288e-02 4.573261739771355416e-01
-2.942793262267136972e-02 -1.216385267438179485e-01 5.376004831994377620e-01
-1.193385370054182576e-01 -9.739243417632380273e-02 4.762039506265166589e-01
-7.338324674862070629e-02 -6.173729424272137584e-02 4.411640984485775685e-01
-6.852735471745068085e-02 -1.057105043324209209e-01 4.688247077861839585e-01
-6.799862632908337118e-03 -1.208780694886904122e-01 5.414753214885570376e-01
-4.573091780632446146e-02 -1.104018042982931602e-01 4.791308658287620759e-01
-7.546669525400574730e-02 -5.687396667312687865e-02 4.427609379623947405e-01
-1.173700347829260415e-01 -1.128035144244864674e-01 4.949689531455119806e-01
-8.599880412527288742e-02 -1.184818754748792335e-01 4.931796984306405784e-01
-5.612677007111550181e-02 -1.115134092868641791e-01 5.330385818205991555e-01
-5.854830730525677901e-02 -5.614139719445764704e-02 4.418800830826191683e-01
-7.738246620899019712e-02 -9.892762881871020042e-02 4.600990276569943971e-01
-5.316761601083319633e-02 -9.444977027962130067e-02 4.589139123314778246e-01
-1.040196920776712136e-01 -1.151278577876126002e-01 4.678176517433965120e-01
-8.655485186516420626e-02 -7.389585670393634953e-02 4.445797530934688102e-01
-1.181178565317034523e-01 -1.136225924720435099e-01 4.870221046330771020e-01
-1.099988192383263008e-01 -1.180400785950330017e-01 4.906674137664694957e-01
-6.418924845475827701e-02 -1.178995941706034445e-01 5.205709023400563185e-01
-3.721469341574334261e-02 -9.891370294185657108e-02 4.637242441122666481e-01
-8.669261750426930646e-02 -9.342857902986433094e-02 4.544706550393192157e-01
-7.284960382717195482e-02 -1.108333310347572043e-01 4.769439567119950207e-01
-6.809834213610876930e-02 -6.975729484707145212e-02 4.433023010780680062e-01
-9.673811328553946765e-02 -1.198937309104467358e-01 4.798153622885892866e-01
-2.633650436321362601e-02 -1.215794846265594170e-01 4.986806722855823826e-01
-2.732052831868502299e-02 -1.064821683123190477e-01 4.692262133498505960e-01
-2.943659644760588875e-02 -1.194884151124019217e-01 5.438049644443407882e-01
-8.362998943247354489e-02 -1.185406590089855272e-01 5.100408530030497989e-01
