-4.575773672597922836e-02 -8.556346647479283474e-02 4.537878340672290012e-01
-8.153134938619712585e-03 -9.517112126478792511e-02 5.696206871190808707e-01
-1.088927386270969189e-01 -1.182841014933159185e-01 4.781210637031710342e-01
-2.329036507551090693e-02 -1.051588679903752155e-01 5.596067610223605104e-01
-1.114807094820097627e-01 -1.175131576582057330e-01 4.894391063467085634e-01
-1.106806670314715996e-01 -9.544851153410796596e-02 4.616603915245893197e-01
-1.032599223674684902e-01 -1.134926556334287517e-01 5.072724281770326638e-01
-5.452735378143245409e-02 -1.083011335042113610e-01 4.765440665115014962e-01
-8.413744582230651969e-02 -1.077122988686110699e-01 5.218710276897940981e-01
-5.145699762653396792e-02 -6.518299154496372261e-02 4.447757935071198765e-01
-1.028631247974051699e-01 -9.449547676192050771e-02 4.571092747808540580e-01
-4.318182244798777353e-02 -8.372667344300177561e-02 4.526419341402970198e-01
-5.480928246765871814e-02 -1.189512850472211614e-01 5.091765601947143560e-01
-1.124998785255064138e-01 -1.076374514355710882e-01 5.037709650845029197e-01
-2.852442517351181858e-02 -1.183622843187045193e-01 5.467710662393409082e-01
-6.101760516938189993e-02 -1.080904652863106108e-01 4.744692467358681554e-01
-6.473084224969448408e-02 -9.487452294684770027e-02 4.581579230839182837e-01
-5.518306059571755767e-02 -8.686410569208129206e-02 4.533997122806031066e-01
-1.200150024205765276e-01 -1.053010636131982702e-01 4.913302300145975243e-01
-1.015961974486787461e-01 -1.192709180024002780e-01 4.748451184303745243e-01
-1.113501415275846701e-01 -9.826021075941052119e-02 4.622411917728030950e-01
-8.837391465529908022e-03 -1.255458002328225797e-01 4.999357338392952377e-01
-8.811171686837059036e-02 -1.101046845753189674e-01 4.695435916074328087e-01
-3.761276629710021829e-02 -8.668600961725334009e-02 4.544561568936876239e-01
-6.190230539018003186e-02 -1.101848828384808521e-01 4.791567671501941184e-01
-5.958520866903516816e-02 -7.781256992081031498e-02 4.485539894584879006e-01
-5.655328075420105322e-02 -1.096839280001707384e-01 4.784057443653974562e-01
-6.099496823276323587e-02 -1.144575064594625241e-01 4.886278914811286733e-01
-2.476304696359234170e-02 -1.226296625037824467e-01 5.021057175597022360e-01
-4.848426300854614956e-02 -1.103485307220947315e-01 4.797030461924063904e-01
-5.033238563329883036e-02 -1.190070944353078253e-01 5.066541483322105632e-01
-6.751987356916969163e-02 -6.925338046986440066e-02 4.440320150547713562e-01
-3.514102104819703115e-02 -1.210121046077685669e-01 5.077709143964577176e-01
-8.106749446213652732e-03 -1.193282008168950192e-01 5.497862359516284547e-01
-8.812697082152227968e-02 -1.190730572146730532e-01 4.964653325402210715e-01
-2.759813458948812484e-02 -1.196071201858008859e-01 4.942929787574702472e-01
-3.957245512766707773e-02 -7.524123202309906944e-02 4.479466619158566365e-01
-2.198948597580972775e-02 -1.246219447263500479e-01 5.094886371684562709e-01
-7.405243276340164882e-02 -1.188497740176596845e-01 5.001376333509901517e-01
-6.986353217724029785e-02 -1.182710447548259436e-01 5.174587183289317549e-01
-8.755670094632880818e-02 -9.148739824943012688e-02 4.542618825253494363e-01
-6.131723233281299867e-02 -1.125257698782471533e-01 5.307247331634058485e-01
-6.522858542142045968e-02 -1.185758562716181380e-01 5.174800546714511951e-01
-5.488294590343521795e-02 -1.047422515140367938e-01 4.707995768246809876e-01
-8.442904256580209543e-02 -1.184760467395285510e-01 4.956408688217308622e-01
-6.210460653931459268e-02 -1.186832274783328478e-01 5.093079597515323131e-01
-6.073622441360271990e-02 -1.145966289378147623e-01 5.295801947784449792e-01
-3.766277467367429993e-02 -9.620903051373130843e-02 4.621074243814365934e-01
-4.335423347044862347e-02 -1.094030557569906498e-01 5.408510765795896402e-01
-2.764215271524710776e-02 -1.235384855171856450e-01 5.254703989935548547e-01
-9.953073264130744835e-02 -1.171681765146473930e-01 4.714199651865317309e-01
-2.327197604829996797e-02 -1.179012343399445106e-01 4.859725074137771217e-01
-3.872662055702297268e-02 -1.212669309445559424e-01 5.247645511245806471e-01
-6.495043977952584535e-02 -1.179085944307119854e-01 5.015722527672895614e-01
-3.766985917906066211e-02 -1.115153011616626250e-01 4.808641622064568355e-01
-5.478106945688554497e-02 -1.191768056062805503e-01 5.114229138471433345e-01
-3.373496985827443423e-02 -1.205366384554822645e-01 5.366018821579677800e-01
-4.471004351561674861e-02 -9.811924392794256489e-02 4.636681873029829259e-01
-1.853361714580405162e-02 -1.259220095277456541e-01 5.249665337178403002e-01
-7.793441597189386394e-02 -7.274950790083078989e-02 4.437142574370825931e-01
-1.226749221628352718e-02 -1.236050403729483660e-01 4.950536294130339354e-01
-2.438715792051846659e-02 -1.103585911184402357e-01 4.734663647190700542e-01
-2.541585937218557995e-02 -1.050864031366839785e-01 5.565398611259885220e-01
-9.703675019153822773e-03 -1.241655460987852178e-01 5.355645685261843925e-01
-3.291553060748839132e-02 -1.036184718426943902e-01 4.677298557543774216e-01
-8.968107486134062334e-02 -1.142734531604214787e-01 4.738009763515969586e-01
-4.624571767906039688e-02 -1.022220953878003186e-01 4.681380620051433517e-01
-2.389686599972509068e-02 -1.117428891095925414e-01 5.567032593558761677e-01
-8.977947205532052499e-02 -1.079207891771590822e-01 4.658167049346420563e-01
-2.137623247641581847e-02 -1.219142180516284008e-01 4.960796767866373358e-01
-3.962553941556084397e-02 -1.188764222152066813e-01 5.375451562156730034e-01
-2.886254885081543028e-02 -1.193885309992861882e-01 4.945321909126945137e-01
-1.044693454286716033e-01 -1.140869502746825886e-01 4.673753415089116903e-01
-1.183083664083589281e-01 -1.076710837531370951e-01 4.748652746460913510e-01
-1.063357261482144878e-01 -9.582189611726979472e-02 4.588980437570334137e-01
-1.315950004735576620e-02 -1.224188005437213955e-01 5.433098645473094512e-01
-7.234866159347508319e-02 -8.502058626258419960e-02 4.499819917196661301e-01
-5.299730051684407861e-02 -1.052894451224378192e-01 4.717049907282907517e-01
-5.383085987371197950e-02 -1.194716894067498897e-01 5.133431165676275443e-01
-6.536099041615354988e-02 -1.159144222537687313e-01 4.925334922838630614e-01
-8.683415274884706547e-02 -1.172153813438343711e-01 4.894541269837212605e-01
-8.070598601933862137e-02 -8.875904737679456147e-02 4.524532339693975169e-01
-7.757504479184515467e-02 -1.186727201497109890e-01 5.114799954577911034e-01
-1.131652441335413012e-01 -1.123002644328848082e-01 4.737870658820793612e-01
-2.680912701449143440e-02 -1.235889840855775301e-01 5.149055985164653348e-01
-1.014186339129836689e-01 -1.208656456262308110e-01 4.813374633434621130e-01
-9.487407694980526385e-02 -8.219956033976613674e-02 4.519473469303333379e-01
-8.433526802496651986e-02 -1.169456743421437017e-01 4.899123822981807930e-01
-7.211053694826520533e-02 -1.190191311115931794e-01 5.062647965454958321e-01
-1.207788701468565512e-01 -1.041878604294393384e-01 4.770525052041212910e-01
-4.439034384849844389e-02 -8.879318294558137536e-02 4.560586212854039756e-01
-6.440589314534020393e-02 -1.007939519198387257e-01 4.639687971682265322e-01
-1.211744788394157890e-01 -1.041595658160605065e-01 4.859193860692636036e-01
-1.194390335748533594e-01 -1.075765884972001846e-01 4.951505084896650755e-01
-5.634895707020334821e-02 -1.153150341173390381e-01 4.915375545084467723e-01
-2.112397271898049100e-02 -1.226350622857336481e-01 5.417350476186473252e-01
-3.494496535934544373e-02 -1.194042464914663870e-01 4.992390944719728441e-01
-1.287083405759277370e-02 -1.244951220304419265e-01 4.984317730267148749e-01
-7.903000815105687415e-02 -1.103170349546227641e-01 4.747655152519165145e-01
-4.008521070629174343e-02 -1.210357096586975739e-01 5.201420546375743470e-01
-3.270507286986594486e-02 -1.017303540893539221e-01 4.655160375569046272e-01
-3.718153046901209735e-02 -9.180425938670765118e-02 4.582984388155452171e-01
-3.194406837437386432e-02 -1.162345710293530288e-01 4.892731341347821283e-01
-5.268329131218608269e-02 -1.034231843321926775e-01 4.692849785421862596e-01
-1.038409166951279224e-02 -9.761348632156457983e-02 5.681228871120109769e-01
-5.916654125873633402e-02 -1.139125234987185126e-01 4.873547849558530487e-01
-6.963838061506905097e-02 -8.519321914451070954e-02 4.504546455828346563e-01
-8.026696190398295572e-02 -1.164212548147674497e-01 4.891794401742833864e-01
-1.174355506652916409e-01 -1.059142831097976550e-01 4.716062509005634618e-01
-7.594741557074501104e-02 -1.179200510921610962e-01 5.165805386242603436e-01
-1.182383245882246137e-01 -1.132935710404062157e-01 4.890139311674680522e-01
-2.455568475085793956e-02 -1.055009879827734087e-01 5.576539158763599291e-01
-6.468907422823502729e-02 -9.818644651985940219e-02 4.612677691837848704e-01
-8.284843845411114793e-02 -1.154191288384301406e-01 5.189265553455278956e-01
-4.425189698254892307e-02 -1.012751368278880654e-01 4.670395465648264355e-01
-1.557319613183059254e-02 -1.156153333139999934e-01 5.571424764151390319e-01
-4.233306426159412494e-02 -1.021900197588727077e-01 4.681232062226241553e-01
-9.643731891785220500e-02 -1.147841345334265073e-01 5.131593111613456104e-01
-9.880511348622297851e-02 -9.613989447095797058e-02 4.572796567209090890e-01
-7.056763291647563663e-02 -1.080254376452309123e-01 4.733029403231623911e-01
-8.330484573562377260e-02 -1.187111068723789714e-01 5.076916041964458781e-01
-4.948293739945294756e-02 -1.175027045253564384e-01 4.979415134816917443e-01
-4.839384666757466646e-02 -8.720096157882990806e-02 4.545874131128395113e-01
-1.002866777138833043e-01 -1.156272267349051919e-01 4.699757569305437754e-01
-4.975179575767593038e-02 -6.112048327871244524e-02 4.436137002829517173e-01
-5.166803769977461325e-02 -1.099460556216688423e-01 4.790790919056673314e-01
-7.981780945323829757e-02 -1.136056575166218691e-01 5.222287050472271819e-01
-7.537051908177370974e-02 -6.719482058173298356e-02 4.420319789851063219e-01
-5.792849088202919883e-02 -1.120025400906660695e-01 4.832155227703460731e-01
-8.730449620646989206e-02 -9.425569889712519245e-02 4.560400470132282003e-01
-5.243190280078560694e-02 -1.191054111905788110e-01 5.084550070711487679e-01
-4.619107725939261555e-02 -1.100499467293107742e-01 4.792225385632165047e-01
-5.688364777882674167e-02 -8.493334769606011858e-02 4.521451690338396112e-01
-5.615185146708988329e-02 -1.183383492139782195e-01 5.238259012441245366e-01
-5.188660115254681987e-02 -1.168503960556215582e-01 4.960105510132640783e-01
-2.457129245245084914e-02 -1.241591572697894330e-01 5.300512693644520157e-01
-1.199257914224327315e-01 -1.060451460978314858e-01 4.907717521094686619e-01
-7.553357387718415139e-02 -9.271120839265289959e-02 4.558777671864755465e-01
-3.606559059555173447e-02 -1.162986140500030657e-01 5.420187058347802900e-01
-8.466815515926007230e-02 -8.768094031761217155e-02 4.515978156425172196e-01
-8.547006240645976805e-02 -1.153929651949009705e-01 4.799092334540363547e-01
-9.318269478386285998e-02 -1.191977646708270860e-01 4.928872958383223035e-01
-4.999647121491473944e-02 -9.632505963530497983e-02 4.617260600666887038e-01
-1.020737988324304374e-01 -9.959519614983161628e-02 4.595155103772359806e-01
-7.369129345764342809e-02 -1.152399248946527760e-01 4.875246910501334074e-01
-1.480795269837846193e-02 -1.165901181465710534e-01 5.559395218030286356e-01
-2.936677619601370942e-02 -1.215413756924762223e-01 5.029698246999301237e-01
-1.171918002469237580e-01 -1.130760789147202960e-01 4.807992436119036816e-01
-5.726489176706464623e-02 -1.062202455862573808e-01 4.723216975079503333e-01
-8.028932737364491423e-02 -7.515468311333327323e-02 4.444026352581060824e-01
-1.110749362060403922e-01 -1.177612659699297099e-01 4.864099604998050053e-01
-9.968908734218931422e-02 -1.190045104312408980e-01 4.922794734377861081e-01
-5.912068342351142064e-02 -1.054962931077426946e-01 4.709369032797344201e-01
-3.901781078792724428e-02 -1.019432876947468369e-01 4.675348918836628731e-01
-6.911659444661548413e-02 -1.047848710184142162e-01 4.683066373245149960e-01
-6.918502095026006493e-02 -1.097767430255388865e-01 4.768477860640537025e-01
-3.172030987654078649e-02 -1.161779459901575162e-01 4.890939301505273784e-01
-4.239176412430561980e-02 -1.119890343758887241e-01 5.402499636242411585e-01
-5.197088826453264560e-02 -9.580075986864171333e-02 4.609356137731069891e-01
-2.282161122749238810e-02 -1.209521807044639657e-01 4.942523169464180244e-01
-1.177806875633052863e-01 -1.130623380254158344e-01 4.839601018076851169e-01
-6.240717178614323818e-02 -8.665647604162141082e-02 4.523257993044166314e-01
-9.860772133684972407e-02 -9.028815931119661686e-02 4.548652980021688497e-01
-4.942036927514715551e-03 -1.284946409472594031e-01 5.142260953821485847e-01
-4.347052143316451622e-02 -1.118600552291573041e-01 4.821857305299114271e-01
-1.129579371710881658e-01 -9.571543626808978744e-02 4.631841284477417608e-01
-4.150221041232421415e-02 -1.169846808203225952e-01 4.939740066039435828e-01
-3.502464053029454016e-02 -8.300373123698777389e-02 4.510490296095367446e-01
-2.467076712554335319e-02 -1.213146605817245482e-01 4.971714224848777786e-01
-2.295819956585951407e-02 -1.230848243629191069e-01 5.019680496001609482e-01
-9.448249750730514096e-02 -1.172107800329010019e-01 5.085565620850733826e-01
-3.761228970750245953e-02 -8.741023346771892300e-02 4.550491518568673399e-01
-1.413369324530007118e-02 -1.134006006331623878e-01 5.595398367631724268e-01
-5.639718806833877301e-02 -6.295227289591608100e-02 4.438582840766422954e-01
-7.014206149133554724e-02 -1.168799767256158001e-01 4.930731176845911667e-01
-6.954285246658499509e-02 -1.112201094572972948e-01 5.280801971686431839e-01
-5.681364396349983942e-02 -1.189498577880686858e-01 5.208988484905920924e-01
-6.698739269128900498e-02 -9.644025887090020011e-02 4.592243759399409209e-01
-4.188283751295909102e-02 -1.205739272743627383e-01 5.136671261987761916e-01
-1.146112895581648250e-01 -1.114207156430008505e-01 4.744750197545922754e-01
-1.224657695927679722e-02 -1.260514527276488383e-01 5.305438202060090980e-01
-1.876298181041612112e-02 -1.258912326654277603e-01 5.198387779563903299e-01
-5.831645132975576268e-02 -1.167330007916321521e-01 4.972201328148626587e-01
-2.264106631267307976e-02 -1.209015739327073263e-01 4.939176707177760361e-01
-8.904403134380076135e-02 -1.176226165526479128e-01 4.833058959132024990e-01
-9.349687526255401337e-02 -7.553379438238834453e-02 4.521584855810371617e-01
-9.866041148538508276e-02 -9.054478394343379311e-02 4.549346784572880775e-01
-4.672722223626721294e-02 -1.111955447318341145e-01 5.380526034365166188e-01
-5.645926258049948493e-02 -9.296960542469151489e-02 4.576264735741848999e-01
-7.100062741022955537e-02 -9.600419633807827369e-02 4.586701866336166944e-01
-5.630961708783689679e-02 -1.032276502906245563e-01 4.685512476830108741e-01
-2.124472055361438169e-02 -1.177322282071114334e-01 5.524207397745000137e-01
-1.142316646577001688e-01 -9.578809609759737775e-02 4.657495012993752015e-01
-8.522126110381568476e-02 -1.100350800193523604e-01 4.711032266807901325e-01
-6.182647677656039759e-02 -9.971197969189388166e-02 4.631708246208608992e-01
-7.173153184887387512e-02 -1.128618834940625232e-01 4.833297616826001120e-01
-1.097737490130249252e-02 -1.239388231476190871e-01 5.366349055527797063e-01
-1.363999854170160064e-02 -1.268754130687775872e-01 5.110056028894743863e-01
-1.188994996117057334e-01 -1.103340729677065590e-01 4.823490469377901824e-01
-1.605799867391668675e-02 -1.201859856369621865e-01 4.876948274621550894e-01
-6.725562589959542537e-02 -1.099432745058254723e-01 4.776199229757119857e-01
-9.290250571466206198e-02 -1.110622441401990929e-01 4.684316244387056183e-01
-7.526023079140088667e-02 -1.157689079360190304e-01 4.883727399507848399e-01
-4.617782153643970600e-02 -1.088334733253491227e-01 4.773601589470014006e-01
-8.341905072556353440e-02 -1.186328607778314309e-01 5.084381816794494302e-01
-1.120752368629008705e-01 -1.074595105978266019e-01 5.040981257172031382e-01
-4.168960331848461237e-02 -1.130469816579599829e-01 4.844560552314459145e-01
-1.064943583805331856e-01 -1.126313908771917616e-01 5.059498658729689735e-01
-2.767062040174978962e-02 -1.190869610110441290e-01 5.458635111192445821e-01
-6.050891866868941815e-02 -5.867055152611716506e-02 4.427600741048950961e-01
-5.267614354453611231e-02 -8.933951576302492925e-02 4.554516778546831568e-01
-7.869601666165063070e-02 -1.154086710891634726e-01 4.869396816047860121e-01
-7.686230449500879025e-02 -1.043115334766694102e-01 4.666091339117838244e-01
-1.247998700235657989e-02 -1.084474302108587584e-01 5.632707483467345178e-01
-5.568578548183309579e-02 -1.080900089394946084e-01 4.758608390193602156e-01
-9.292382154112389936e-02 -8.838482545834715209e-02 4.527001427110577403e-01
-6.194342928103440532e-02 -1.152028765040886277e-01 4.908906145400816490e-01
-3.427046249734840011e-02 -1.134217269507156872e-01 5.452954119484947348e-01
-4.943958859433462277e-02 -7.160942663100630656e-02 4.470852187753667217e-01
-4.823848090770849889e-02 -1.098773358205559630e-01 4.789792051607106860e-01
-6.543012013003618454e-02 -1.034974445990956421e-01 4.668790889937635691e-01
-6.114441397647973203e-02 -9.901889729738115598e-02 4.624757918107882948e-01
-7.781278745293429555e-02 -6.352316324185942886e-02 4.416308690338379139e-01
-8.501057512397769411e-03 -1.280630731397182920e-01 5.141422569291810296e-01
-8.326404363261226405e-02 -1.187855645978554697e-01 4.990512083363869422e-01
-4.974475554088152174e-02 -1.029745536361092034e-01 4.688983014127893756e-01
-6.179335923075860576e-02 -1.186245794592251657e-01 5.152054073439331638e-01
-1.011599927035407021e-01 -1.113644789378246402e-01 4.654745607775409577e-01
-4.636776252269064758e-02 -1.195785035600544083e-01 5.298474873344007907e-01
-6.154952870297503154e-02 -1.165952967783784183e-01 5.259530594961121519e-01
-1.997180224201764234e-02 -1.254628219497979369e-01 5.163553964500607885e-01
-8.107364003896186389e-02 -9.013077051560423880e-02 4.534257249424328284e-01
-1.760917595540163749e-02 -1.221578589041383278e-01 5.447846048908153715e-01
-3.274930752640741599e-02 -1.101061263240430410e-01 5.469318304196605363e-01
-2.532871936085188264e-02 -1.242043013372338689e-01 5.248188445608875652e-01
-8.199517062493000275e-02 -1.136523710903471762e-01 5.211609187385363162e-01
-2.402855883389216213e-02 -1.245588438163215128e-01 5.206485319019770186e-01
-3.586168643069188172e-02 -1.168853682171152875e-01 5.416171898018993236e-01
-4.121214697604450722e-02 -1.127286884572291648e-01 5.406940000310566097e-01
-5.258263055020113985e-02 -9.209905414109796629e-02 4.575552146826507016e-01
-7.367653059203066457e-02 -9.073705621196750948e-02 4.540798262921383888e-01
-1.008612648695317721e-01 -1.174529081315331125e-01 4.719811781426188069e-01
-5.632289693002912739e-02 -1.190880420403621631e-01 5.120636035918227913e-01
-1.188432675316348497e-01 -1.093449482174165266e-01 4.785278936248215098e-01
-4.614441522535960710e-02 -1.116570605994052084e-01 5.381553453038261381e-01
-1.847526965219710438e-02 -1.055301861175842321e-01 5.634416233642991489e-01
-8.990892773935016402e-02 -7.520704980326951838e-02 4.482413570638881795e-01
-5.536173663320370641e-02 -1.170917249281895889e-01 4.981235099948214118e-01
-6.468309577200340166e-02 -1.131126481518236054e-01 4.845885965959875197e-01
-2.811885386735901715e-02 -1.179210280075317363e-01 4.899799102238696080e-01
-8.724960130904993449e-02 -1.138354428298150728e-01 4.751560531873931237e-01
-9.868312548448461563e-02 -1.204893078523365663e-01 4.843823454363263559e-01
-6.759911474653412453e-03 -1.283406289451883564e-01 5.138137679596899154e-01
-2.671219226595914278e-02 -1.238042539929400804e-01 5.245158664855026354e-01
-9.458895717041794493e-02 -9.472640395080340892e-02 4.560389722314482919e-01
-6.111060803454616830e-02 -1.139000478272111233e-01 4.870904191411603579e-01
-6.675144651738923463e-02 -1.108264549526168513e-01 4.795370340961076505e-01
-1.148287206097627078e-01 -1.028553204540878369e-01 4.665941765884324410e-01
-1.268374733267084789e-02 -1.117052422533906936e-01 5.609734027643191734e-01
-9.685010825749287844e-02 -1.109829904423521307e-01 5.144799172576441926e-01
-4.901295902483356753e-02 -9.366797782669931960e-02 4.595214444757568240e-01
-5.599576730574610389e-02 -1.134737907418852387e-01 4.864502789019212736e-01
-6.689843684677378166e-02 -1.173101951864844589e-01 4.965343324858920715e-01
-3.647445345684566936e-02 -1.116673426378752138e-01 5.436625811242217221e-01
-9.522973804211964932e-02 -1.161689151787888424e-01 4.727738848735842381e-01
-9.773102314265789958e-02 -1.151042230381272430e-01 5.110543549703017163e-01
-3.992952948717221062e-02 -1.163824945272627920e-01 4.917169267210840244e-01
-9.000384464951904917e-02 -6.985072055506479083e-02 4.498714760753063091e-01
-7.468217493662084039e-02 -1.131528130564475459e-01 5.259378107645282796e-01
-6.136939861867803797e-02 -8.532763505093990397e-02 4.516629259485121506e-01
-6.870195619013433341e-02 -1.104463493549322217e-01 5.285368192887717198e-01
-6.597309024197911542e-02 -1.017299359752037446e-01 4.647556034189505025e-01
-6.502191516471750310e-02 -7.078375164473076075e-02 4.452171026484377236e-01
-8.604962473737934325e-02 -9.589258961781153834e-02 4.574859711663234463e-01
-5.967165742399010986e-02 -8.586675482395222936e-02 4.522809361295622166e-01
-1.131423245306539954e-01 -1.148915897819766246e-01 4.769973561524728511e-01
-9.290031475237324476e-02 -1.192611395613538128e-01 4.859062256538393965e-01
-1.162122174915657252e-01 -1.145249827189485509e-01 4.959820295658297629e-01
-9.509158671271243646e-02 -7.935161084666171594e-02 4.527385303002160466e-01
-6.550480538386138640e-02 -1.187405048816334574e-01 5.065687850631533928e-01
-7.862843985429397720e-02 -8.235373518693946127e-02 4.475878325642970168e-01
-6.486068037812073306e-02 -1.189801167124292791e-01 5.128653187199162522e-01
-7.890058177966072228e-02 -6.556139314772765903e-02 4.414355510382587111e-01
-4.401800803497645659e-02 -1.200768847814671220e-01 5.098864171777479637e-01
-1.197683947474343091e-01 -1.065073934936848349e-01 4.888559493184975735e-01
-2.730900935806768182e-02 -1.149614549221741472e-01 5.517318107822951623e-01
-1.764756993597158680e-02 -1.153038844160727827e-01 4.778564245484043238e-01
-6.333593632647724347e-02 -6.614767278406699647e-02 4.440294170131048879e-01
-8.123431604470188194e-02 -9.168912414185939608e-02 4.546285507730274955e-01
-4.632551574262486205e-02 -1.165452234890588940e-01 4.935200778318003523e-01
-1.040920461883732967e-01 -1.051028597965004974e-01 4.630173283137105633e-01
-5.338057422290809484e-02 -6.997465033816387125e-02 4.463008260803609795e-01
-6.470947458725283263e-02 -8.495430892249494770e-02 4.509553538377069626e-01
-7.033272650393565528e-02 -8.898919021710713362e-02 4.527980898989421021e-01
-8.154871836055445355e-02 -9.466629083491075181e-02 4.570378027294064727e-01
-2.745439120401007779e-02 -1.131874930574620075e-01 5.527499880029990154e-01
-3.741647974008773664e-02 -1.208299824511487597e-01 5.101203783527280544e-01
-4.359804068521865028e-02 -1.205680073211467113e-01 5.223867790697037661e-01
-9.423713711385059422e-02 -1.189224881430026581e-01 4.947283875066396663e-01
-1.574570104864299325e-02 -1.219534614129505756e-01 5.459940329430890138e-01
-9.485165289058401783e-02 -1.190436124705554349e-01 4.817025785968765406e-01
-1.181274065455695937e-01 -9.752086430188955379e-02 4.731530805935226236e-01
-1.087019271696653272e-01 -1.188617973054375138e-01 4.883783370061347551e-01
-1.952820583548885852e-02 -1.200130858494513897e-01 4.888354603598150661e-01
-9.303997205444643204e-02 -1.182569138450074997e-01 4.811572584605379732e-01
-8.236958973798632830e-03 -1.226223697491268944e-01 5.398738666297332456e-01
-5.979687112561745538e-02 -8.579783385960819408e-02 4.522162371450097473e-01
-5.226716130388697062e-02 -1.196336409140555251e-01 5.136409120002531914e-01
-1.177575850449670419e-01 -1.146113511200946844e-01 4.942946803471421346e-01
-2.543063951167976594e-02 -1.081319172907441173e-01 4.707908180179539714e-01
-6.497605518194965457e-02 -1.161290165705920058e-01 4.934780448584356605e-01
-4.561673928931482547e-02 -1.127677267891891849e-01 4.838901529397807155e-01
-2.754027905217406105e-02 -1.169924729198835445e-01 5.496787990980640526e-01
-4.476476066388884734e-02 -1.202327653194985579e-01 5.270581152459595797e-01
-8.671511807766026092e-02 -1.073931215744350770e-01 4.669229380483809755e-01
-4.510194420572214563e-02 -1.134485191439745244e-01 5.379050812239671853e-01
-1.038218328810001229e-02 -1.027040715723786940e-01 5.662612805021666196e-01
-5.969451714555164268e-02 -1.186980775403598115e-01 5.165406808432463359e-01
-3.226271097898002899e-02 -9.902498751052211945e-02 4.626722921233673014e-01
-3.631361870219785432e-02 -9.836277692172200326e-02 4.634184663647122893e-01
-7.165379599563682922e-02 -1.189778628199281152e-01 5.054168654335551292e-01
-9.830329345312560640e-02 -8.178270059586172092e-02 4.543566668580322765e-01
-3.316946917806172512e-02 -1.089735538022043732e-01 5.465288433917813160e-01
-8.562209877256124479e-02 -1.039082349061366262e-01 4.637214097929668877e-01
-3.729757013590320053e-02 -1.032401116011908704e-01 4.685095849371547216e-01
-1.089732358807500752e-02 -1.069784856660945804e-01 5.643029334903858496e-01
-1.285536061888858592e-02 -1.137155257890223453e-01 5.592418665606223582e-01
-1.060968268777782997e-01 -9.121099554796725795e-02 4.589882922688249267e-01
-5.038131478488712400e-02 -7.849206404310642149e-02 4.498891766918398649e-01
-1.098586072392150614e-01 -1.159557784635408262e-01 4.992046169191678429e-01
-9.723002531573174401e-02 -1.198340398255447053e-01 4.879668913141645969e-01
-7.997246172251094853e-02 -8.511039657724342455e-02 4.497221279930533333e-01
-3.784354333070377718e-02 -1.200138148490846601e-01 5.353548205994052012e-01
-6.324536930604882090e-02 -6.178456021167387513e-02 4.431281861181038950e-01
-1.552723287817797324e-02 -1.174837588865785404e-01 4.817691136132642993e-01
-4.690152355848260790e-02 -1.188964638821612130e-01 5.039969739376145563e-01
-1.725480113573269608e-02 -1.261990547341999280e-01 5.175680474592119218e-01
-2.837418546049397597e-02 -1.100749743603285230e-01 5.528975488668965710e-01
-5.311214088752577028e-02 -6.839653864359988844e-02 4.456968865142548752e-01
-3.456703055462484464e-02 -1.214287339734351212e-01 5.318356587379532430e-01
-4.265583833484542370e-02 -1.088205219664058615e-01 4.765882220360930788e-01
-4.889044025182005815e-02 -8.276623031514603046e-02 4.518215180819356580e-01
-6.763358263078583787e-02 -1.184319866626682705e-01 5.033786121207267650e-01
-8.346748528910698239e-02 -1.164346114470669186e-01 4.884821022953566572e-01
-2.803745233214756036e-02 -1.188770002989297386e-01 5.460570572458397498e-01
-1.203286296150160722e-01 -1.041436632974376830e-01 4.896672551373585369e-01
-8.026556745655967495e-02 -1.075782572626723388e-01 4.697300862282373646e-01
-3.642979676167835967e-02 -1.205488336292554197e-01 5.067646221523705030e-01
-8.426736424116165747e-02 -1.149228214554011140e-01 4.799674203624860191e-01
-6.733751827040451721e-02 -7.425631257031949095e-02 4.456892662599954424e-01
-7.869759433055220632e-02 -7.558558787307445570e-02 4.445556831523002628e-01
-9.593824172606366107e-02 -1.017993368147010469e-01 4.608770279296198202e-01
-4.574335839085418021e-02 -1.202221104378165678e-01 5.182280319802492485e-01
-6.791189598677201122e-03 -1.235307542846896811e-01 5.364870599172487653e-01
-3.110234591013209815e-02 -1.036376296011932291e-01 4.672541518474642164e-01
-7.180837564269199058e-02 -1.139271178364207049e-01 5.252684180900850652e-01
-5.046222046720107157e-02 -6.291654619496635237e-02 4.441149321277054751e-01
-4.438957880135747242e-02 -8.358884702105297271e-02 4.525890817655777720e-01
-2.652209919035420846e-02 -1.119231984171292771e-01 4.772697338307466119e-01
-9.949672760763034196e-02 -1.204116502034071751e-01 4.786796463123280665e-01
-2.909614461371336919e-02 -9.998220851088764072e-02 4.622181026147491045e-01
-7.982454696378991910e-02 -6.934916579687874783e-02 4.425854530635635609e-01
-4.936969055072196882e-02 -1.195895236823828478e-01 5.118002526629310545e-01
-4.627608281681894198e-02 -1.190979530894851202e-01 5.327203000614865180e-01
-4.883940058902253023e-02 -1.193975002597638946e-01 5.084332134834138595e-01
-7.472522596773978343e-02 -1.019250740489176660e-01 4.642699884075058292e-01
-6.129969726464114255e-02 -1.184068846075946868e-01 5.180529571080245699e-01
-7.144761614369718461e-02 -1.155436471235107981e-01 5.227419675566186141e-01
-1.528997976101385478e-02 -1.063782676577713499e-01 5.636648660929615140e-01
-1.049028977166686638e-01 -1.163975331145073872e-01 5.022663649480018089e-01
-5.817407348363700520e-02 -1.131576802173307611e-01 4.856553073395820652e-01
-1.873158492011171503e-02 -1.258195184337524974e-01 5.259700346786254643e-01
-9.243979981502023491e-02 -1.054273381644489221e-01 4.634048281415877324e-01
-1.021979134315600668e-01 -1.166541582351854206e-01 4.711135244317781190e-01
-1.999965467756719545e-02 -1.234765724594289737e-01 5.004062877039112678e-01
-1.155727195568436588e-01 -9.979754975887993040e-02 4.669910633501599406e-01
-1.163323654995259832e-01 -1.052514015040104806e-01 4.695417485532246693e-01
-6.133360749370524861e-02 -1.161024824887565421e-01 4.949073326532372752e-01
-1.104122598634471736e-01 -1.142798170545144265e-01 4.734806638094891107e-01
-7.895488443034096027e-02 -1.034600948810587007e-01 4.653330268339334053e-01
-7.156549438186297907e-02 -8.727068702286309987e-02 4.516128056558283421e-01
-6.044311864016640307e-02 -7.333549357877937325e-02 4.468953114715707997e-01
-4.928907839216462028e-02 -1.197314238483388055e-01 5.211622127631954093e-01
-6.442694942242563338e-02 -9.048704196722778814e-02 4.545850361853444599e-01
-3.182107228463316312e-02 -1.124641910395701300e-01 5.478255696635878635e-01
-8.747965188491658994e-02 -8.409342734442253053e-02 4.496053666585121955e-01
-7.012240301571893986e-02 -1.161643014084689229e-01 5.216946713063452812e-01
-1.096613223667527171e-01 -1.175795145223384047e-01 4.777518709455697010e-01
-3.803220431651002653e-02 -1.085080668306119822e-01 5.427427370143563801e-01
-9.798958707063870621e-02 -8.290090298313412820e-02 4.537974127493156762e-01
-9.212440904476434933e-02 -8.681880557467420989e-02 4.519805452527658751e-01
-7.463319163586104588e-02 -5.681485715683658871e-02 4.433012974302402709e-01
-6.189870273616866064e-02 -9.994997583186458756e-02 4.634113363252710394e-01
-9.664224802402178460e-02 -1.188917173494223462e-01 4.937486458910730902e-01
-1.051486985835838883e-01 -1.164598091277306013e-01 5.018539702698925353e-01
-7.606976433397984183e-02 -6.640421264161268378e-02 4.417020176164020429e-01
-5.315001020987770997e-02 -8.764017849048046094e-02 4.541412993071894943e-01
-9.890332044928384914e-02 -9.972605244551156767e-02 4.593878430662553525e-01
-1.076247982329902181e-01 -1.113443818626666248e-01 5.059545309437095684e-01
-9.819693560448725100e-02 -1.201855363033902668e-01 4.862604931967776101e-01
-8.023684481202900121e-02 -1.080629788175040407e-01 5.248387514437533596e-01
-5.651118988906014828e-02 -1.176844114299266664e-01 5.010560765715316167e-01
-5.435361331353454062e-02 -1.154170003041267156e-01 5.316422658692693259e-01
-7.329450070062825708e-03 -1.284841243808835798e-01 5.196913332275977515e-01
-8.533986733913542788e-02 -1.170376901685681453e-01 4.845940660010079615e-01
-4.154617619124875011e-02 -8.366441250239606275e-02 4.525594459590917551e-01
-9.461697983068272089e-02 -1.190406657627726961e-01 4.820867575471720068e-01
-9.585989378363977964e-02 -1.200502510634617881e-01 4.835289915929473770e-01
-1.063005370466182098e-01 -1.016751541917199630e-01 4.614535667084608828e-01
-1.180139033028758111e-01 -9.822004414466010969e-02 4.719114711372843773e-01
-3.002204915677528924e-02 -1.213100187935312463e-01 5.382303635412249987e-01
-1.921302607985442973e-02 -1.241018543650409395e-01 5.023142146724512980e-01
-6.313560201949022788e-02 -8.666400711589306027e-02 4.522275606019058869e-01
-2.173127996378448543e-02 -1.115029938301381751e-01 5.586582932254245959e-01
-3.248410229858217368e-02 -1.203996669809019593e-01 5.009321138187010636e-01
-8.577928287149097497e-02 -1.067538466269511294e-01 4.662849614445686575e-01
-9.439824824669150460e-02 -1.069391847605670326e-01 4.641068039247546184e-01
-1.283044174832978675e-02 -1.038001969826736065e-01 5.651229070829899559e-01
-2.292453092601967266e-02 -1.224851402362416991e-01 5.407574171038528332e-01
-1.471389238271008162e-02 -1.167546330077994660e-01 5.556548750788680158e-01
-1.195557479875201529e-01 -1.075445673657796503e-01 4.774448441133364307e-01
-1.036318735338747909e-01 -1.187310311780510191e-01 4.944279977316058394e-01
-7.399687847570381172e-02 -1.153422463079950555e-01 5.228202387617635338e-01
-3.343823855199112849e-02 -1.132698048775420130e-01 5.461509287082596531e-01
-8.037571368865834009e-02 -1.189486472184503596e-01 5.005179681285111259e-01
-1.811127031196117093e-02 -1.257415389227572178e-01 5.118503672449757902e-01
-5.880922555277238312e-02 -1.183488965016380595e-01 5.062032431727411241e-01
-7.293058515508576978e-02 -9.479508848714025826e-02 4.576357122404277611e-01
-8.516753907900627418e-02 -1.168438840773551313e-01 4.892760474281537819e-01
-7.410291666412220646e-02 -1.156443609271554235e-01 4.883041196723777455e-01
-9.080904843813976043e-03 -1.255146998885486032e-01 5.322664571116042520e-01
-8.016370284601799512e-02 -1.123431409195431580e-01 5.230187887829410576e-01
-7.471087310924733049e-02 -7.179566876694634669e-02 4.435710320145838104e-01
-2.808803565091117643e-02 -1.178949549138806063e-01 4.898877040824191065e-01
-3.571015845052101512e-02 -9.445591313538796718e-02 4.602039196827301670e-01
-7.705342707023307702e-02 -6.477538627573603547e-02 4.416545691935246931e-01
-3.307695902401484866e-02 -9.785735755233562760e-02 4.620084375245604447e-01
-6.537186116372993572e-02 -9.824700545343231783e-02 4.612425891367904485e-01
-1.164708310895900545e-01 -1.051985901513708688e-01 4.696313668207791614e-01
-1.043102439892596746e-02 -9.513550234148629436e-02 5.693465944605625717e-01
-5.614498942654761598e-02 -5.697240521410391195e-02 4.426644307975979853e-01
-9.586647586125834897e-02 -9.052989403374304966e-02 4.537884521344160982e-01
-4.556371735557113861e-02 -1.198386449334516018e-01 5.300333902245658591e-01
-5.490830844618517503e-02 -7.757479262190289382e-02 4.491938027945299172e-01
-9.317794652181407566e-02 -9.545738345127446900e-02 4.563406303058382130e-01
-8.317705948268176719e-02 -8.017225887393929218e-02 4.468129456438389435e-01
-2.579938248968243267e-02 -1.225880068415414470e-01 5.370213835002134450e-01
-9.935830101880128995e-02 -1.189722079524619947e-01 4.747402559553486334e-01
-3.128255235943030316e-02 -1.187267002645959330e-01 5.436916492202635842e-01
-9.515350419578727514e-02 -1.158914867049384290e-01 4.714716402336100454e-01
-1.001498801466839533e-01 -1.182779105649832407e-01 4.985310701419953250e-01
-8.225582420857728561e-02 -1.177009251967995607e-01 4.926483206820273519e-01
-4.628654336699508653e-02 -1.031260291376819155e-01 4.691741005354535532e-01
-1.071470650134754288e-01 -1.119045500701972562e-01 5.059448562021108264e-01
-3.994455896832764530e-02 -7.710607241277889212e-02 4.489094460480990700e-01
-8.741862638636747895e-02 -1.180165398153851936e-01 5.100560719750877325e-01
-5.619762504979420453e-02 -1.048894087743698772e-01 4.707996981968508021e-01
-1.060435819573178617e-01 -1.197508269925042085e-01 4.870322059214882704e-01
-7.188932473879709739e-02 -1.038023932053979276e-01 4.667907287644901815e-01
-7.433980008777912873e-02 -1.020824763973843946e-01 4.644921574230187478e-01
-2.049543554991094252e-02 -1.161097701035848223e-01 4.806642737940002297e-01
-2.671219814606083653e-02 -1.026290083677985215e-01 4.640846918924456666e-01
-3.463783065723468474e-02 -1.214274489868271828e-01 5.097946997476058284e-01
-9.886965230580811725e-02 -1.088310295544937384e-01 5.136033878454280277e-01
-5.621857852556495089e-02 -6.281672249337373615e-02 4.438405173539637372e-01
-3.888462731916710914e-03 -1.284637544889616623e-01 5.140415651054436319e-01
-4.734686602883913902e-03 -1.286503530543026130e-01 5.226136107121338581e-01
-9.515397258371670330e-02 -1.191709869018132834e-01 4.922383898424091964e-01
-4.078283189691332689e-02 -1.205961464247670561e-01 5.113770264404940979e-01
-9.296799625947080314e-02 -1.185845422461324211e-01 5.003567828898419778e-01
-5.730301513953358489e-02 -1.157063871384315240e-01 4.930585751635296887e-01
-5.424830386545515665e-02 -1.170272710519037751e-01 4.976807568482334299e-01
-7.983282277117534353e-02 -1.181537594708243905e-01 4.952986507515829140e-01
-5.027369477072661519e-02 -1.181240289143154765e-01 5.011128887547110500e-01
-6.282453774681573400e-02 -1.015815662245691531e-01 4.651611448502850910e-01
-1.102659091147876469e-01 -1.192134604416612287e-01 4.826914577295436937e-01
-1.757800480146299443e-02 -1.253432616636854791e-01 5.306783042595303312e-01
-4.043840817206593996e-02 -8.477573849243862092e-02 4.532175251489444223e-01
-9.999122130020553223e-02 -1.126441697016357935e-01 5.110319740467061944e-01
-1.115886142179136620e-01 -1.143176189494254369e-01 4.746617458238493459e-01
-1.110509566580701324e-01 -1.176462103023467876e-01 4.878271787662186720e-01
-7.341294382989189959e-02 -1.189622717422299386e-01 5.093360763536172175e-01
-5.275452940074895625e-02 -1.141916466152182175e-01 5.336796286772356179e-01
-3.275960306160424773e-02 -1.220328847113766463e-01 5.128795037359062947e-01
-2.757024121887316839e-02 -9.863575727393543435e-02 4.604098984411563733e-01
-7.696187605518896302e-02 -1.009289126250757784e-01 4.629512354414221931e-01
-3.770054789032016573e-02 -1.126843915428987625e-01 5.425570439740228235e-01
-1.303807848257605879e-02 -9.789378079228824858e-02 5.671213347613641709e-01
-1.055999057902537730e-01 -9.616959255574039633e-02 4.587967522965333833e-01
-6.114242448790185858e-02 -1.060177459006323153e-01 4.710731645704916981e-01
-1.004916378132833521e-01 -1.125272002446674746e-01 4.669442462359803536e-01
-7.145120929974636825e-02 -1.186368119966297319e-01 5.132093607960184212e-01
-5.425845798263635722e-02 -1.046436425849637114e-01 4.707319106514206708e-01
-5.903021458272311728e-02 -1.175589005304376461e-01 5.250963136594419822e-01
-5.738968273694320527e-02 -6.108090836209744551e-02 4.434280275174688479e-01
-4.407957444378557410e-02 -1.201922307997368294e-01 5.118082077927208484e-01
-4.779839162100665145e-02 -8.127441538176466418e-02 4.512963449080909517e-01
-5.955474938511597788e-02 -1.156190978340512904e-01 4.930584015029229605e-01
-9.635774376287695175e-02 -1.126685299572830617e-01 5.142143988834538826e-01
-3.959019602195646553e-02 -1.193550448075329645e-01 5.363379089213883288e-01
