-1.021962230078887063e-01 -1.186011760695072081e-01 4.743571025788058670e-01
-7.015373369178727614e-02 -1.097485999135753010e-01 4.767943196462273714e-01
-2.346698378533461360e-02 -1.243806274594415479e-01 5.128534023296257294e-01
-1.169914764267811491e-01 -1.067118791491016572e-01 4.720103042963729734e-01
-8.548964787321602921e-02 -1.186513037821421840e-01 5.037436928115872625e-01
-5.756614971710172224e-02 -1.003048056876887500e-01 4.641658795937277371e-01
-1.112795117966574460e-01 -1.108289063741227792e-01 5.044541009530575382e-01
-5.821833375543710581e-02 -9.150796383989263927e-02 4.562813016171995417e-01
-9.677820143566545630e-02 -1.058430744702418130e-01 4.633958921124764485e-01
-4.191548914777225299e-02 -1.205500168294016683e-01 5.138460832649955901e-01
-4.298050276780111117e-02 -1.172025952985849551e-01 4.951949063159961639e-01
-3.216214259499541872e-02 -1.103065036175857466e-01 4.776738377394881274e-01
-1.106464823585873863e-02 -1.276989124096192529e-01 5.169058794245344757e-01
-2.620686041236978958e-02 -1.236210964954356367e-01 5.299792446933211387e-01
-7.612590186803046277e-02 -9.576474384974413556e-02 4.586003538589696338e-01
-1.122425072015052622e-01 -1.111515034343244640e-01 5.037045166139859642e-01
-2.425700055750314860e-02 -1.211022869923150808e-01 5.439585688936811048e-01
-6.442395691296187721e-02 -9.465409121429035899e-02 4.581773908142990348e-01
-7.241458169114338948e-03 -1.284973462949556278e-01 5.206084370474934886e-01
-7.151542099230932814e-02 -9.730207125236685350e-02 4.600364000105626183e-01
-2.388618542723827676e-02 -1.245893882456328844e-01 5.222609480599916809e-01
-5.170745551378182897e-02 -6.021639090503207170e-02 4.434417449997530292e-01
-3.718255839493515152e-02 -8.040005471703498552e-02 4.500522296980726256e-01
-3.311474692912543677e-02 -1.212259641414482059e-01 5.349265263065400289e-01
-8.147594154521726334e-03 -1.224771782686726179e-01 5.403681781752890378e-01
-7.646980028229506676e-02 -1.008555515689404242e-01 4.631154250288486152e-01
-6.909418662043077808e-02 -1.166702282255820816e-01 4.932330015533744061e-01
-8.139808221572403246e-02 -1.133615667209199873e-01 4.784845010161070666e-01
-5.987501954228817425e-02 -7.897998817480932077e-02 4.490938276952523567e-01
-2.037199623181377983e-02 -1.196730519257329511e-01 5.490314406019926041e-01
-2.859289569701399872e-02 -1.089099786311366058e-01 4.739163497548197213e-01
-1.094976861523579287e-01 -1.130433483471170314e-01 4.718110992389945579e-01
-6.179952605483744754e-02 -1.096146698097354572e-01 5.315845303144780543e-01
-6.770280251607686817e-02 -9.525768531949613260e-02 4.583364596058244755e-01
-4.410909370752025965e-02 -8.637819122960080365e-02 4.543705429801404017e-01
-5.549705648994297108e-02 -8.118935581897615550e-02 4.506863833421778653e-01
-8.524057109634738949e-02 -1.071236812367737795e-01 4.673748313074603811e-01
-1.154880826766706142e-01 -1.155878368836616987e-01 4.898215502021433521e-01
-5.482280950551723236e-02 -8.362680096799486595e-02 4.517633287346031756e-01
-4.806169050365510093e-02 -1.103996037028781574e-01 4.799257302590670959e-01
-7.535844161360741311e-02 -1.154620045445390875e-01 4.878378048330512806e-01
-1.122965484084335469e-01 -1.149621299911094269e-01 5.000132470182373501e-01
-9.428058410082368335e-02 -1.138206705801244750e-01 4.701560864875589107e-01
-6.144949152795353003e-02 -1.139668416448689214e-01 4.874355783152238275e-01
-6.579154875698155214e-02 -1.179847687796598960e-01 5.019097646091326137e-01
-7.040405971531042695e-02 -8.840487403497813979e-02 4.526117659319917608e-01
-8.802665843168291579e-03 -1.238092353975868420e-01 5.363101538531520607e-01
-2.143036197762415718e-02 -1.180728460202774416e-01 5.517607335859416873e-01
-8.799087814182147971e-02 -1.149848585476491436e-01 4.773542332149338652e-01
-9.749255003359491578e-02 -1.187614707718105539e-01 4.771928893878945588e-01
-3.643837925899590102e-02 -1.137835272853697788e-01 4.854547883669484976e-01
-1.107298614083595534e-01 -1.027703462999613737e-01 4.642179236173958889e-01
-2.383629536392556716e-02 -1.114412142019679391e-01 4.748844078314303774e-01
-3.163342646090407800e-02 -1.211635364441207563e-01 5.369469267485164066e-01
-7.654520438241560476e-02 -6.898004146003250403e-02 4.426129291735776405e-01
-9.412625466189350476e-02 -1.168178812309283027e-01 4.764658151860893254e-01
-2.887226417205839002e-02 -1.204763470708494488e-01 5.423004704658582753e-01
-6.195684992098642735e-02 -1.137169838539880268e-01 5.296775082626498099e-01
-5.754098995921247406e-02 -8.899684451572525967e-02 4.546148709460232640e-01
-7.837626859203928806e-03 -1.281173169745986606e-01 5.136294331778338274e-01
-7.886338657682284703e-02 -1.154255582145641695e-01 5.210050759226259043e-01
-6.985843623585881457e-02 -9.523678787994477313e-02 4.581688316348852541e-01
-9.397178518445939779e-03 -1.252886568359299346e-01 4.995020244011831867e-01
-6.413342563784564521e-02 -9.784536724211100045e-02 4.611643149318379598e-01
-1.578166995801880482e-02 -1.229663860710215051e-01 4.951045219067570224e-01
-1.138861527325445433e-01 -9.763835797181696918e-02 4.648831496592970014e-01
-8.067182032609823694e-02 -1.069295970134402918e-01 5.247132227403357163e-01
-3.882272294215823039e-02 -1.126626991336314998e-01 4.834207097865306779e-01
-8.438245903368277179e-02 -1.167222613317764335e-01 4.867035435428815893e-01
-1.015148576202022784e-01 -1.109339369777690293e-01 4.651717524991912378e-01
-4.028449098456548388e-02 -1.017885699614807793e-01 4.678003938026990549e-01
-8.153001901381050354e-02 -9.470038262423650932e-02 4.572821239630819323e-01
-1.374020480559455352e-02 -1.223346360651794695e-01 5.441670867888536156e-01
-9.059398091951409437e-02 -1.176162959606507352e-01 5.099693830048437349e-01
-3.135884868525916358e-02 -1.226947615771906003e-01 5.248125319548421208e-01
-4.173997504270125086e-02 -9.955693088734590690e-02 4.655015338873176867e-01
-6.640387836234316887e-02 -1.177136794827869093e-01 4.996245645919036860e-01
-1.179144411448026092e-01 -9.634228150214374509e-02 4.740346232456604247e-01
-1.052897048582084188e-01 -1.202367528827300303e-01 4.845027111485715188e-01
-6.813106696358467440e-02 -9.243354468790587752e-02 4.559319812514705528e-01
-1.131437853726098980e-01 -1.131352385038430913e-01 4.750756126298127935e-01
-6.027016510298403157e-02 -1.161650564968789018e-01 4.954676379280720244e-01
-1.059647395265630176e-01 -1.182804882547622005e-01 4.758011174069337601e-01
-9.004774987599195590e-02 -7.206988157083235591e-02 4.494206598483900805e-01
-6.807017419714557482e-02 -1.148418388502260579e-01 4.888623623929740925e-01
-1.155610714561749325e-01 -1.154649631885441008e-01 4.854778237086758708e-01
-1.001541369466281695e-01 -1.206406496479928703e-01 4.835030133262392948e-01
-1.171866829587691200e-01 -1.009007397001435713e-01 4.696365495745142837e-01
-6.226944930207606310e-02 -9.075907350074084723e-02 4.552763870665861301e-01
-1.044786182110976069e-01 -1.198296062083089447e-01 4.768894974475446080e-01
-1.140495489131757995e-01 -1.148977839870244377e-01 4.791614979784204476e-01
-3.585152443104317604e-02 -1.217173331942721787e-01 5.267001874476838763e-01
-1.008310161431895807e-01 -8.237000309969996770e-02 4.585567312715224664e-01
-9.815413953337317338e-03 -1.174399437276396063e-01 5.542534144302750931e-01
-1.080225963452263738e-01 -1.152784813319488871e-01 4.733484422661377589e-01
-2.674167551006576340e-02 -1.174991091336044097e-01 5.494498804472092157e-01
-5.822031554466342712e-02 -9.144167721972429330e-02 4.562332454194665821e-01
-4.004195394959494253e-02 -1.208925837681580073e-01 5.264314684217638041e-01
-5.538164536186061804e-02 -1.074339596714119910e-01 4.749904794169499955e-01
-7.712127182169539741e-02 -1.172200909893863913e-01 5.185949489836595427e-01
-6.438916878618071438e-02 -1.175853695184968239e-01 5.000098872400999817e-01
-6.149424402534921924e-02 -9.373482445900921389e-02 4.577054370961536334e-01
-1.029721413363396537e-01 -1.173544326532625914e-01 5.020336763578744366e-01
-9.631990106518650840e-02 -1.167751551255526987e-01 4.733458647019559984e-01
-6.095025580308872232e-02 -6.475896004727327293e-02 4.441033787934172694e-01
-2.778636100127309522e-02 -1.229212778296183417e-01 5.317204016439709413e-01
-5.039701968821666545e-02 -9.087431159749922993e-02 4.571261042015758447e-01
-7.076769181880368520e-03 -1.225251792571204063e-01 5.392330232720211614e-01
-5.360332171364965564e-02 -1.113604841878880342e-01 4.817150690510108024e-01
-6.367072922363746501e-02 -1.096213368457493870e-01 4.778835533473764774e-01
-7.486375971501606219e-02 -1.154691510650068947e-01 4.879303470056551850e-01
-3.690479858100194355e-02 -9.923170260322282388e-02 4.644770083791612825e-01
-1.222672364414404897e-02 -1.272868552704357892e-01 5.132920853848645937e-01
-3.607696572195439461e-02 -1.119800794831162100e-01 4.817457022773828923e-01
-6.102864865922363879e-02 -7.766830231948046448e-02 4.484793290974619651e-01
-2.825351830940063189e-02 -1.098469184518772596e-01 5.530788917359895640e-01
-1.139983643310619049e-01 -1.098461076128468827e-01 5.021762420516029390e-01
-6.473803483774000223e-02 -1.188022000993741029e-01 5.147623721843492817e-01
-4.187144680256981583e-02 -1.204882548614416987e-01 5.125118756464732694e-01
-4.808471921098988328e-02 -9.505932873408913519e-02 4.610352338792041982e-01
-3.337500412913976117e-02 -1.206257419975811929e-01 5.366962941012112243e-01
-8.040368945700661352e-02 -1.174143528558093119e-01 5.177096932221090242e-01
-9.737691226472765249e-02 -1.157044275406080569e-01 5.108610685454180178e-01
-3.715959595712048369e-02 -1.211504056432484294e-01 5.292875635625050590e-01
-5.442377761112963258e-02 -1.180830759295592308e-01 5.029225437704959445e-01
-1.445971608711235645e-02 -1.223374986268181419e-01 5.443423529404213257e-01
-2.782755974148686320e-02 -1.094436162132282481e-01 4.742636318149475172e-01
-7.453684188247991504e-02 -1.176979671907970038e-01 5.178762037997403089e-01
-9.858218865275582277e-02 -1.181001608286142007e-01 5.011550420354965452e-01
-6.080257045021284640e-02 -1.137466196586623263e-01 4.869284044889611862e-01
-8.043385426721275100e-02 -7.604755303813723333e-02 4.448198901698497409e-01
-9.336696100249743113e-02 -8.816204419381025448e-02 4.528356483825669021e-01
-2.786138242110571331e-02 -1.227456971425733706e-01 5.080226123172982833e-01
-8.048848132605963823e-02 -1.141042536268935259e-01 4.817089436329584085e-01
-4.568526525673108352e-02 -1.130106966828971909e-01 4.844882645594523196e-01
-3.004654094280928556e-02 -1.136780567357022070e-01 5.494665342958602317e-01
-8.132610885860526440e-02 -9.113308037379072579e-02 4.543964808932038912e-01
-5.680967071024791565e-02 -1.049587266457549933e-01 4.709351044735750058e-01
-8.181149106248257474e-02 -7.801715235060846521e-02 4.457331534158395780e-01
-8.129694926915145836e-02 -1.075492159183299712e-01 5.234042938497042163e-01
-2.895167938972408386e-02 -1.225816725635552606e-01 5.323924839122403663e-01
-8.373986260261116754e-02 -7.088287350226438188e-02 4.440297311466692154e-01
-9.503585604183537039e-02 -9.564585151788253248e-02 4.568970657363163324e-01
-5.497415058295663376e-02 -1.105287883832191259e-01 4.799462411177398691e-01
-2.746619990912736384e-02 -1.208663912048160149e-01 4.981241017734701626e-01
-3.002435146441742239e-02 -1.094526557890846824e-01 5.499477505434973157e-01
-2.356276043057143124e-02 -1.104214654251296918e-01 5.575388085649329861e-01
-5.679477005914797261e-02 -1.164773796646682152e-01 4.962175538719813539e-01
-5.784643251973912992e-02 -1.175778162457611908e-01 5.255802695626337062e-01
-2.615949421478326598e-02 -1.230166719941174908e-01 5.342615791190229446e-01
-2.002882169631923018e-02 -1.212721621826784030e-01 4.929068986547973652e-01
-1.128933123963907631e-01 -1.137597093878334742e-01 4.755572890511053363e-01
-5.240956015317634054e-02 -8.839390124559631801e-02 4.549449056358333965e-01
-5.561828560524439968e-02 -9.710323961125919001e-02 4.615619086713556585e-01
-3.284389992359072752e-02 -1.024820437075195656e-01 4.664087422085175794e-01
-7.744937969771603647e-02 -1.138770976347006220e-01 4.835629343701431382e-01
-3.851886166839770670e-02 -7.743932206533674090e-02 4.488027413992550230e-01
-6.870934190758559712e-02 -1.046173074225978938e-01 4.682723648127123939e-01
-2.806970553294289156e-02 -1.234154214069666800e-01 5.255559601254363722e-01
-8.712742223998802549e-02 -1.058275797451612710e-01 4.648634844433503499e-01
-1.531324008873333545e-02 -1.258553395264152552e-01 5.059681437459023767e-01
-7.206239807148490106e-02 -1.144442318931505331e-01 4.867213370578662990e-01
-5.963066618846411815e-02 -6.672931966601047815e-02 4.448701116156597579e-01
-3.712856446849810421e-02 -1.059212182216520692e-01 4.718634606994563385e-01
-1.135129961960609085e-01 -1.166305336615609811e-01 4.865178742691467217e-01
-5.730138823001325321e-02 -1.190929015123787238e-01 5.144214198602695687e-01
-2.298329549525648594e-02 -1.099917321680825288e-01 5.584961477735468360e-01
-9.750857131332635319e-02 -1.055876840441433290e-01 4.631363190163893528e-01
-6.278332290074356559e-02 -1.093446714709222778e-01 5.312464758457929870e-01
-5.413829571177249111e-02 -6.629575056495896901e-02 4.451196849664700861e-01
-3.496766177576358242e-02 -8.851252387002053745e-02 4.553531854837733484e-01
-3.627122279370066649e-02 -1.211918327672495826e-01 5.306398511282239827e-01
-2.128064121418234492e-02 -1.147284265591688307e-01 4.786085033306621273e-01
-6.094616254928669069e-02 -1.185782665939946467e-01 5.094225193336285873e-01
-2.493445433730281588e-02 -1.021512111118753618e-01 5.564447864640543751e-01
-7.179712351182220009e-02 -1.003269160874679239e-01 4.627787963733988597e-01
-1.087982161418395710e-01 -1.163716878147218470e-01 4.991494768183670216e-01
-4.943572574744262149e-02 -8.514408752294438942e-02 4.532783017754116184e-01
-8.018014773425337360e-02 -1.188388424133403204e-01 5.083366139443247222e-01
-4.514479885963981060e-02 -1.202886005688044990e-01 5.199238279145019792e-01
-1.071284596409476098e-01 -9.398896638968004535e-02 4.597756222279171801e-01
-4.550943883620371666e-02 -1.130601055030663327e-01 4.845969128651022584e-01
-5.098384485305155339e-02 -1.180655020884495698e-01 5.297279546816797691e-01
-1.047459668136833666e-01 -1.172931870967817425e-01 4.738512171913016879e-01
-3.454672397664865224e-03 -1.283738081714120016e-01 5.133705700878922196e-01
-7.468694428612973613e-02 -1.128464659418690064e-01 4.818148261643543928e-01
-1.081560585115581563e-01 -1.206345840675582259e-01 4.805193055759792164e-01
-6.757135938729830031e-03 -1.276011080983486812e-01 5.282365481943427366e-01
-8.195142544920008820e-02 -1.040624296950262012e-01 4.655918919467666450e-01
-7.208919195311185024e-02 -1.189942894012696872e-01 5.068754062424338791e-01
-7.551773747454823549e-02 -9.041338853849015256e-02 4.540243634046908228e-01
-9.000030584283708057e-02 -1.177662911164744225e-01 4.825367984609634231e-01
-1.053375469801138969e-01 -1.121598052662574618e-01 4.662640564413999544e-01
-6.586614989771384654e-02 -7.203746532610601216e-02 4.455413323712146267e-01
-6.148825562486151530e-02 -1.161186462412242687e-01 4.951840011967360566e-01
-8.795599902689170413e-02 -9.679361628568761144e-02 4.580481981242935374e-01
-3.299337671703439501e-02 -8.882522798406876363e-02 4.548772448856172046e-01
-8.746833443454386792e-02 -1.119511523974141276e-01 4.722644010636857792e-01
-3.985460892567593838e-02 -1.004268531800761172e-01 4.664301502025252621e-01
-8.465452565847075839e-02 -8.050580436597541689e-02 4.474849392507705970e-01
-2.653631020804564367e-02 -1.216519047971573453e-01 4.998564129147139989e-01
-9.632361341049981707e-02 -1.165553313687325010e-01 5.099258399861446023e-01
-5.192472510771949101e-02 -7.427729947210877370e-02 4.482089682766639549e-01
-9.604680395763648404e-02 -8.223506366820720892e-02 4.527862746466410626e-01
-9.055177790386934045e-02 -1.195864419096433068e-01 4.915949396755310841e-01
-8.284709204194012910e-02 -9.718320625126077028e-02 4.591087866352134284e-01
-1.173454537216166577e-01 -1.130345472213318131e-01 4.818891364525861309e-01
-1.094582414025864620e-01 -1.080786651316393288e-01 4.680029681373013006e-01
-1.134690944744346300e-02 -1.132560392276484446e-01 5.598204583027941439e-01
-9.131578604256790355e-02 -1.099802812333675744e-01 5.181326624359207100e-01
-1.175137012826192873e-01 -1.125150421881781215e-01 4.965369259007039737e-01
-8.915880012259834453e-02 -7.203688202949111441e-02 4.482773646269999634e-01
-9.952461216721716908e-02 -1.119946052611426324e-01 5.122860107299251897e-01
-6.662886805776002674e-02 -1.189099982649341886e-01 5.130618192518237031e-01
-9.166032554028678142e-03 -9.725616084817979845e-02 5.684627591248034850e-01
-2.168561759725356336e-02 -1.118706991864025224e-01 4.743147540222765191e-01
-8.483490373163568576e-02 -1.094438515110666421e-01 4.709706322089715069e-01
-4.762195159704118996e-02 -1.187874135634590100e-01 5.317535212468575967e-01
-5.990129090693140784e-02 -1.184659354592140224e-01 5.086793671480366319e-01
-2.162389354629029245e-02 -9.619073593235343000e-02 5.603296527837425822e-01
-1.208966446718791332e-01 -1.036016079233882808e-01 4.884010570875346180e-01
-1.479519193433960489e-02 -1.204414937504709876e-01 4.878934839109178023e-01
-3.216138626659192229e-02 -1.089057847620198832e-01 5.476526151557646882e-01
-9.639978537434748529e-02 -1.058224787004379414e-01 4.635413958662639167e-01
-5.798530153085923455e-02 -1.068675191870518959e-01 4.732822049180614998e-01
-1.043110772916936296e-01 -1.180993024473125791e-01 4.969382532931798102e-01
-5.922115952764712976e-02 -9.936151850157258492e-02 4.630056664060466232e-01
-6.735088901858415911e-02 -1.180217597133502994e-01 5.193585434072283125e-01
-3.245853622046251247e-02 -1.216673277772178513e-01 5.335972429748261359e-01
-7.669835353273336820e-02 -1.109256415091630366e-01 5.268116596439185173e-01
-7.426037375052318978e-02 -9.025060669543336078e-02 4.538438551484710870e-01
-6.944213247309054260e-02 -1.157670444851895547e-01 5.230659641916240998e-01
-9.886076823639974864e-02 -1.188352309853025340e-01 4.754641764736490250e-01
-9.755470885986479435e-02 -1.170415757261999146e-01 5.068671919105419699e-01
-2.007972733618245548e-02 -1.194814622498791973e-01 5.495239437946985994e-01
-6.999525825977297167e-02 -1.170624368566567930e-01 4.940626349062128830e-01
-7.244013786191595694e-02 -1.143713188481229187e-01 4.864477856183986870e-01
-1.113755898500745078e-01 -1.051506979274898779e-01 4.663916072446999128e-01
-1.146034718803163599e-01 -1.138899180971754826e-01 4.778436308815346423e-01
-3.569309476866732583e-02 -1.217870338601451663e-01 5.211482416556977304e-01
-9.902701230225957607e-02 -9.732892038277048130e-02 4.582918241259266723e-01
-3.407517197524513597e-02 -1.205006062472418621e-01 5.362969821625759304e-01
-4.605258373527704174e-02 -8.408901117775607892e-02 4.530260833780930807e-01
-1.506155334662239234e-02 -1.230625620609481913e-01 5.411662775228009981e-01
-7.112408073222117877e-02 -5.547277341641745907e-02 4.433669637586890033e-01
-3.177782317279023022e-02 -1.129778309080837206e-01 5.478829132452955886e-01
-6.426745971003568203e-02 -9.686651972082724327e-02 4.601411415526484028e-01
-7.079402987194137464e-02 -1.107643001566550323e-01 5.282125840299461972e-01
-6.526715469644236989e-02 -1.052816557817734672e-01 4.693939870758315758e-01
-6.770752260417202406e-02 -9.185064223485625567e-02 4.554935237368998302e-01
-2.354455463447975225e-02 -1.202307317910790013e-01 5.462511934165762417e-01
-8.453750568668000342e-02 -1.018534469604164688e-01 4.628714915067889679e-01
-8.224518744560117833e-02 -1.187476438954160607e-01 5.084654717569696558e-01
-8.528807916544144108e-02 -7.586788802057406467e-02 4.452949182680721041e-01
-5.008665098787128817e-02 -6.555883475540007221e-02 4.450426796176787936e-01
-4.173578945789225420e-02 -9.859352011689599682e-02 4.645669928410554594e-01
-3.798005704028316332e-02 -1.211331420928721536e-01 5.278074403888695088e-01
-5.253137485669665679e-02 -1.177926383170966457e-01 5.283502849275918400e-01
-5.797581878829657226e-02 -5.795187425462913072e-02 4.428685046154756111e-01
-5.551789089126045462e-02 -1.143943465453755998e-01 4.888861024552333956e-01
-3.683053600301747915e-02 -8.416324065390230758e-02 4.524772631029180814e-01
-5.552613323650656268e-02 -9.316098033073717810e-02 4.581223574360047124e-01
-2.732478366662209265e-02 -1.217361018285579577e-01 5.391832321597792577e-01
-2.548874649280605253e-02 -1.241248547969087679e-01 5.232968484056377267e-01
-6.478218772605164044e-02 -8.899424841935800468e-02 4.536131944310244912e-01
-6.561829286587873844e-02 -1.136104806276811846e-01 4.860145027708553944e-01
-4.984339488393488282e-02 -9.764002925721951276e-02 4.629793995863338840e-01
-5.463455017889805310e-02 -1.006516539871455257e-01 4.655611129538870796e-01
-8.273016453553991290e-02 -1.147831236058853288e-01 4.813654902806144276e-01
-3.819060522621443160e-02 -9.171440686748182081e-02 4.585430034549915490e-01
-1.858053756991178904e-02 -1.219450004939607313e-01 4.938744814309922737e-01
-1.202505055866211897e-02 -1.247357835938757292e-01 4.989904580145464452e-01
-1.111030003187385151e-01 -1.004123446337130132e-01 4.628939601212204158e-01
-1.877962128972164926e-02 -1.257476278393412916e-01 5.166289266073219588e-01
-1.174763245784158500e-01 -1.116532799164073608e-01 4.792841081524167324e-01
-6.851693821876223001e-02 -1.186438942827538340e-01 5.138972958991686601e-01
-9.578420459315539759e-02 -1.161628875917508491e-01 5.117537477814637636e-01
-7.649109719846192146e-02 -1.130312935438451266e-01 4.811028915191040145e-01
-4.221130128859799935e-02 -8.952490391010753390e-02 4.568112457987145714e-01
-5.793610667191860519e-02 -1.189783928621563208e-01 5.152017232510682776e-01
-9.876914640839171144e-02 -1.202709620653619194e-01 4.798107319680873784e-01
-1.200969646676303265e-01 -1.063682703515899802e-01 4.778727778347195421e-01
-6.633730058551808029e-02 -1.045442429409898233e-01 4.682502477808297425e-01
-4.459635844295874174e-02 -1.203661768546193944e-01 5.176689084402030794e-01
-6.944105041633213959e-02 -9.550937259119206268e-02 4.584209065351052548e-01
-1.156023474462764544e-01 -1.156690453716563843e-01 4.922946114562047337e-01
-6.227949451043128526e-02 -1.095067412253545869e-01 5.314135336752873195e-01
-1.578259142627608594e-02 -1.235145908197062409e-01 4.969695955450419422e-01
-5.911569498883439272e-02 -7.033609410057620193e-02 4.461666091873777162e-01
-4.980802753525529619e-02 -1.119593244811489252e-01 4.827448802295812857e-01
-1.127203790189782312e-01 -1.142464857183987242e-01 4.759947745933860719e-01
-1.532759185055008154e-02 -1.167344209785498438e-01 5.557736152536491003e-01
-1.144916910283478167e-01 -1.149032503108449038e-01 4.801714163728339479e-01
-1.192085652810218471e-01 -9.809293266776214493e-02 4.763404838137398900e-01
-1.640907553902535079e-02 -1.230186276791889743e-01 5.414683586191931797e-01
-3.102334113116390554e-02 -1.220380610010569078e-01 5.091374792727669796e-01
-6.713548489985077250e-02 -1.113303816364501347e-01 4.806891492649152386e-01
-5.983465742498636497e-02 -1.142504487013253217e-01 5.307170973948286408e-01
-1.018583809813534413e-01 -9.896834190683226340e-02 4.594582688953265937e-01
-4.945500505735829500e-02 -1.086147382555027602e-01 4.772091019514431154e-01
-3.858434538229292554e-02 -8.247894359319392354e-02 4.516501261028054715e-01
-4.891814343145221844e-02 -1.041558388645086736e-01 4.706780454358346910e-01
-7.996017477362932224e-02 -1.189641716668141391e-01 5.017740281028146843e-01
-6.945861736911053408e-02 -1.120906423972467952e-01 4.820183824301340070e-01
-6.029483736561526419e-02 -1.098606953187339919e-01 5.321454474631370779e-01
-4.930926702933308842e-02 -1.121542260419504111e-01 4.830959632261128678e-01
-4.448318853914298709e-02 -9.472786525112003586e-02 4.609349560237521737e-01
-8.882374029136584637e-02 -1.171929064709362756e-01 4.816711016415992641e-01
-3.818771726154421980e-02 -1.205906928012606821e-01 5.331278199415752095e-01
-1.773717534746572025e-02 -1.233264994354365818e-01 5.400595400442819161e-01
-9.674631058715706111e-02 -1.165692173483475758e-01 4.715731873097815385e-01
-8.630797091049732805e-02 -1.171419550477373200e-01 4.879397557867254376e-01
-7.559035167923584819e-02 -1.170529698751708036e-01 4.918915050098582875e-01
-9.825252336159752409e-02 -1.182071988603945745e-01 5.004817155075659274e-01
-2.733043927918304625e-02 -1.099691827736331284e-01 5.540548507497383701e-01
-2.001534855954668901e-02 -1.251405431678078439e-01 5.103896861149193054e-01
-1.189069121033105303e-01 -1.107282329474755800e-01 4.950834709893851548e-01
-2.200843751168324314e-02 -1.174583976944236080e-01 4.843018222260655481e-01
-6.992632548543165072e-02 -1.183794793237812198e-01 5.162428647362953260e-01
-4.119954307615866784e-02 -1.202171822765854409e-01 5.313559175382190913e-01
-3.767606349861897519e-02 -8.202943990425309861e-02 4.511471616360346326e-01
-6.844684803092197789e-02 -1.151751145341059768e-01 4.894059911424570308e-01
-1.178635082724407424e-01 -1.120817396646760916e-01 4.820854377573265404e-01
-6.409585589948503526e-02 -1.130902662299959754e-01 4.848142205044615460e-01
-6.036363709834441371e-02 -1.176548561475597166e-01 5.019251503148403071e-01
-8.446420365927956309e-02 -1.187542996650364779e-01 5.036925034356974917e-01
-1.178718092391208561e-01 -1.123085575126437780e-01 4.827623231524806324e-01
-7.819591458462465949e-02 -1.065161211534292190e-01 4.690797969793487066e-01
-4.721928633534443198e-02 -1.186990021618735958e-01 5.031220639169494691e-01
-7.056122017197033469e-02 -1.135565244045994709e-01 5.259875378617138164e-01
-1.210280682967161542e-01 -1.048702563523327275e-01 4.806257502492053968e-01
-8.853752048322265089e-02 -1.189110166805604496e-01 4.982130038196510013e-01
-1.133233569616927949e-01 -1.162319861846352331e-01 4.940524662742913353e-01
-1.108422300949985784e-01 -1.139176741536396809e-01 5.036401553613920612e-01
-1.158225173341972114e-01 -9.590780046187995234e-02 4.689494037499484791e-01
-1.180773208021706176e-02 -1.237547353036666242e-01 4.954737748944036402e-01
-7.009624527074395650e-02 -1.186973354111687529e-01 5.125849119984251523e-01
-6.627923132319815669e-02 -6.052357089985720834e-02 4.426232105048059084e-01
-6.120776751921495201e-02 -1.072640940234979856e-01 4.731287359056096098e-01
-9.539559348152722162e-02 -1.129740595750103882e-01 5.148474792554599277e-01
-4.923878237923273726e-02 -1.194298162642751238e-01 5.094294667763491491e-01
-2.723323591437593061e-02 -1.188273580007408736e-01 5.466810576946699030e-01
-1.994802136539531451e-02 -1.085233822646092111e-01 4.688225662304955077e-01
-7.826149350671159077e-02 -1.140607476619737715e-01 4.835510342517819748e-01
-1.148297433055930038e-02 -1.214291760776141371e-01 5.458228139021795711e-01
-9.448866638714085997e-02 -1.138562740522102990e-01 5.148303335444784912e-01
-1.516594003806858576e-02 -1.265291896356640633e-01 5.125715489503579469e-01
-1.169950118543188894e-01 -1.132084871334913811e-01 4.810048844448551186e-01
-1.620244489148226982e-02 -1.241825877350478252e-01 4.995799186963227334e-01
-3.302536834968967938e-02 -1.222943321230887254e-01 5.202870170550523143e-01
-1.125735077997378625e-01 -1.038476972639203744e-01 4.659906196249807286e-01
-1.101579615319255162e-01 -1.014485629009930223e-01 4.629999272938302157e-01
-8.232342962147827514e-02 -9.780283698137429149e-02 4.596496034678850262e-01
-2.224272605980673334e-02 -1.136282074763152045e-01 5.565551428430303149e-01
-8.149110342876821761e-03 -1.269221302522266226e-01 5.296513992238937041e-01
-5.360727916294097395e-02 -9.970208025316275313e-02 4.645393708568221203e-01
-6.089764339555416017e-02 -1.183798193856925307e-01 5.196361981816011166e-01
-7.310867791312178343e-02 -1.190154667924436388e-01 5.070721566205081965e-01
-6.615655780180071388e-02 -1.083402511162956522e-01 4.746920832415801872e-01
-5.593045247388538088e-02 -7.777525707633980989e-02 4.492424008659677281e-01
-6.215419693478659718e-02 -9.136456599961451097e-02 4.557333207214065429e-01
-7.778910666591877521e-02 -1.115985488297163430e-01 4.770147754076700664e-01
-7.624628307424065332e-02 -1.127089989154979738e-01 4.802290027820216300e-01
-7.322617987187378386e-02 -1.149846975700072466e-01 4.874171301048048632e-01
-7.348614212200041407e-02 -9.436105799763763735e-02 4.574592661434398466e-01
-1.033437205433518635e-01 -1.178738227235309743e-01 4.988692727780782987e-01
-1.015599419834208733e-01 -9.348620280893114864e-02 4.566924871696971810e-01
-1.164414748723774026e-02 -1.275695067243934611e-01 5.173491163029146911e-01
-7.634847500593799907e-02 -1.184330226505969919e-01 4.974563563474178607e-01
-6.860600782063749903e-02 -9.351811360460572653e-02 4.567804047585820593e-01
-5.368650092317716477e-02 -5.968807462456901525e-02 4.433429385413928947e-01
-8.439903436736330422e-02 -1.181265595388108353e-01 4.948922883586593380e-01
-7.202961929417689424e-02 -1.176259005533519530e-01 5.189480909399916131e-01
-6.785783656842091227e-02 -1.144170097840792738e-01 4.879820086372956278e-01
-3.389475584097974281e-02 -1.013214298045548023e-01 4.655801281447756734e-01
-1.222381962886576190e-02 -1.264306485702045291e-01 5.282122772050483750e-01
-5.321848760793444766e-02 -1.196229053369805700e-01 5.146082978376743666e-01
-9.932128925454945800e-02 -1.197284641997126281e-01 4.888176420766687236e-01
-1.018018764454556024e-01 -1.014227158870684986e-01 4.607125117775276446e-01
-1.005123171137087268e-01 -8.099439942428084127e-02 4.592585164677951970e-01
-9.486533682262941747e-02 -1.190976745147101640e-01 4.822399489270989825e-01
-4.606372995919696262e-02 -1.078876276626928726e-01 4.758010771262901062e-01
-2.581152012976029378e-02 -1.226980716952822403e-01 5.364042413340736060e-01
-9.246050674922332013e-02 -1.110070000461913092e-01 5.171448938055096534e-01
-7.850898362864699997e-02 -1.110948228986504416e-01 5.258249788144493397e-01
-7.236042152677782391e-02 -7.939219331175484395e-02 4.467707458450172475e-01
-7.392217502045998062e-03 -1.266340669266985131e-01 5.308214461286138164e-01
-7.832272836841579211e-02 -1.184154371822810081e-01 5.139914151469956449e-01
-4.760433664540237447e-02 -1.128935973236940421e-01 4.844270800239051655e-01
-5.251841307422744354e-02 -1.147417958277652944e-01 4.892773063040986026e-01
-9.163845621481658821e-02 -1.180231586284521128e-01 4.818837938655263220e-01
-6.434730893068739410e-02 -1.025323077216009487e-01 4.661459669747369250e-01
-4.364484454480218462e-02 -1.173589475924968484e-01 4.957564356194565369e-01
-2.898459959933012350e-02 -1.195803817402668195e-01 4.953255356726144476e-01
-7.189222025538484495e-02 -1.147528639777778969e-01 5.242399310319578731e-01
-1.135669111873610221e-01 -1.149802259946377109e-01 4.782909237422089954e-01
-5.260403556978884149e-02 -1.190283343017266016e-01 5.081472874293611053e-01
-9.434541555441566807e-02 -1.012554346248260850e-01 4.605830567563138911e-01
-3.489178278107563091e-02 -1.217923517514190174e-01 5.278826261522715502e-01
-5.992823039438234523e-02 -9.505805145983552140e-02 4.590373991234786288e-01
-2.858543341710294977e-02 -1.066433482403112559e-01 4.706311541061558579e-01
-9.029848619646031749e-02 -1.188904106667817706e-01 4.973598282049842001e-01
-3.852435433881640919e-02 -1.209688958504331058e-01 5.285080583113768160e-01
-5.841151604796953473e-02 -1.189058870138296198e-01 5.153953800539798902e-01
-1.897330065078138214e-02 -1.185201229146997381e-01 4.852574921979400657e-01
-5.497203787949121040e-02 -1.123844318395356007e-01 4.841230969140342122e-01
-8.470434252893349267e-03 -1.254181461660374974e-01 5.326498176953746722e-01
-8.243935261257119562e-02 -1.093304331844746069e-01 4.722670858757933021e-01
-5.431443614286201454e-02 -1.032903728669423288e-01 4.691062716355270945e-01
-4.680765621758233019e-02 -1.200638449981485945e-01 5.159020422282337703e-01
-6.464788730314681431e-02 -1.159576420292004750e-01 4.932914277249474955e-01
-3.853636217400365632e-02 -9.855252623688791347e-02 4.643359110069801843e-01
-1.152933845391879292e-01 -1.145298898075913507e-01 4.969972321607231680e-01
-8.836754901204134371e-03 -1.278817156033386360e-01 5.251949846128924904e-01
-3.580922038718663269e-02 -8.674118436516789488e-02 4.541859552915339382e-01
-3.938406956591818109e-02 -1.061262877731689036e-01 4.725667740520604343e-01
-3.573411685683221956e-02 -1.206752115652036106e-01 5.067480451499749572e-01
-7.433819145102113501e-02 -1.145064634940251153e-01 5.241677811995286707e-01
-4.927032498624554085e-02 -8.154811884814630596e-02 4.513425682975172881e-01
-4.486031114118543134e-02 -1.098531708965049397e-01 4.790378644435573929e-01
-3.178880381451551496e-02 -1.087656274514665622e-01 5.480717027102141037e-01
-1.216414033624539232e-01 -1.028973905411109252e-01 4.780506046431954870e-01
-1.469328237150973812e-02 -1.220626075876950073e-01 4.916717673906138564e-01
-5.047796628991711720e-02 -1.184840343391101586e-01 5.278523692244332377e-01
-1.139591194012648939e-01 -1.123929947669905921e-01 4.751037613369824553e-01
-9.686711008594600658e-02 -1.139097122387456723e-01 4.692358043892663755e-01
-2.926840797279217990e-02 -1.224776804243494638e-01 5.097076607154054084e-01
-7.524984117944250039e-02 -1.190545552932718021e-01 5.042295883692381464e-01
-7.538791823881192677e-02 -7.618788902862930201e-02 4.451152824402700436e-01
-8.911116403271029940e-02 -1.188370262493308321e-01 4.987725245731335910e-01
-1.101577880386346020e-01 -9.572220121388207159e-02 4.616498659706693708e-01
-9.256465845128836190e-02 -9.775882344351868869e-02 4.578755803469327645e-01
-7.592659149706415533e-02 -8.455566069689317288e-02 4.494370735665830230e-01
-9.989536791709396901e-02 -1.196541998258911776e-01 4.762852813516350592e-01
-6.367075978600250652e-02 -1.074354364914350546e-01 4.732306176895193506e-01
-2.320606643721635082e-02 -1.184520326614211805e-01 4.875140069255686215e-01
-1.058364908655898551e-01 -9.237536812083763094e-02 4.587559458458862482e-01
-7.518002240267310232e-02 -1.184941029004356050e-01 5.142063477778501257e-01
-9.460309054038402304e-03 -1.250807432155429111e-01 5.329447566336054098e-01
-1.054235035949375593e-01 -9.264294886529124418e-02 4.582328862610306475e-01
-1.370716029133848754e-02 -1.209308090167895422e-01 4.886147860038748125e-01
-8.851827836967218754e-02 -1.180028769907381647e-01 4.897625319255263232e-01
-9.083551121773400516e-02 -8.704845194587534918e-02 4.522172875579690277e-01
-3.040277449881705410e-02 -1.103614438281913940e-01 5.494604505668480021e-01
-2.463131112128601891e-02 -1.164347311368069821e-01 5.524970246428726472e-01
-1.490100820978770314e-02 -1.255409072589045161e-01 5.039505859900089701e-01
-9.230777962967250116e-02 -8.842168700239598500e-02 4.529347331936652288e-01
-6.040528888995422285e-02 -1.082570424859091024e-01 5.325309856849691492e-01
-1.084009030479824581e-01 -1.185816416253977768e-01 4.784634594787740003e-01
-5.215689427288587587e-02 -1.147414046426944445e-01 4.892169946723928797e-01
-3.905049194173921406e-02 -9.815717695096086437e-02 4.641122349906209310e-01
-5.218789056248063912e-02 -1.183784419825460454e-01 5.038065167191915217e-01
-3.928732891767087315e-02 -8.510131917471512597e-02 4.535249725395967824e-01
-2.965751871897621267e-02 -1.142336801913775707e-01 5.493745587038884048e-01
-2.742293620794857001e-02 -1.097911953745288050e-01 4.745644693311150131e-01
-1.649946870178445324e-02 -1.249128083132129974e-01 5.029116637023954839e-01
-1.667740317924860938e-02 -1.101544197650390633e-01 5.619357650175861307e-01
-8.969704490517446324e-03 -9.360249640704369767e-02 5.701211008294438942e-01
-7.994076806099126298e-02 -9.708120574263380542e-02 4.593547956764845730e-01
-4.646083851506297574e-02 -1.200823881040970487e-01 5.191991812907688075e-01
-9.689304963743541887e-02 -8.253662539690556632e-02 4.531708666879354919e-01
-1.062635869789268495e-01 -1.010749417743929957e-01 4.614297506733062160e-01
-7.909921445213852209e-03 -1.248029146424117219e-01 5.339106119844959641e-01
-6.856981719051392921e-03 -1.207041559359092048e-01 5.431114526421793043e-01
-7.707228443497944614e-02 -1.103542603556880303e-01 5.269928797264710196e-01
-6.154748636600818057e-02 -8.447452913091055282e-02 4.512697700943492651e-01
-7.440019717629098306e-02 -1.105876042002933712e-01 4.769633167321755129e-01
-1.055604393775184391e-01 -1.195965090237037232e-01 4.886027034515370571e-01
-7.871837849709167889e-02 -1.154802828976025791e-01 4.873666030221476264e-01
-5.490429627878450763e-02 -7.035059475111274385e-02 4.465167706966398642e-01
-5.915981470915159662e-02 -1.147674042204487876e-01 4.903978038747280332e-01
-1.748704657730209763e-02 -1.206244418766877491e-01 4.893110572006941217e-01
-2.423783892064287904e-02 -1.191248716175514616e-01 5.481661483501445442e-01
-3.780104614029501653e-02 -1.182568829955710499e-01 4.968927622492380625e-01
-7.566000753490811914e-02 -1.020449313073787806e-01 4.645843549262415051e-01
-6.484227957901460282e-02 -1.129267095018631067e-01 5.285638241495823619e-01
-3.222384107804833475e-02 -1.211281653451864448e-01 5.044933615846179942e-01
-9.578415949300943255e-02 -7.932912881813239392e-02 4.533409268649455925e-01
-2.094249674540416689e-02 -1.079308847965423229e-01 5.615641358912188963e-01
-5.949535372209747985e-02 -1.014490149310388750e-01 4.654872021171710395e-01
-1.550424881271964678e-02 -9.994856650839960277e-02 5.648237940826342784e-01
-6.969198343906601867e-02 -1.061100898579790952e-01 4.704882655568943250e-01
-6.054333120866545181e-02 -1.145023655256706824e-01 4.891223461218910940e-01
-8.806544340673634619e-02 -1.105373433949087270e-01 4.704209536246926615e-01
-8.864935437738909185e-02 -7.021712906791319209e-02 4.479562049997255491e-01
-2.577585439776941198e-02 -1.232839530230301073e-01 5.332490469907503750e-01
-3.990528045123326040e-02 -9.325993594030328182e-02 4.598318250163290766e-01
-1.009239461854262165e-01 -1.171943040137598396e-01 5.042670201969359223e-01
-1.124882748374802371e-01 -1.078053748442284188e-01 5.040574059050156874e-01
-4.498508039100346939e-02 -1.187356160392305932e-01 5.022406636154355120e-01
-7.068964050720084880e-02 -5.923263463594811984e-02 4.420541559767657835e-01
-7.620193061595634254e-02 -1.170498418323578094e-01 5.194521242660510296e-01
-1.468903525107646824e-02 -1.197821026982962278e-01 5.506162948590160866e-01
-1.629047967045965661e-02 -1.211369358054840278e-01 5.475261366314962963e-01
-4.745534445179055288e-02 -1.172764928836757120e-01 5.343373610780657312e-01
-3.413686320752704062e-02 -1.029949564850044519e-01 4.674700482014316205e-01
-1.047942795017816620e-01 -1.199721958699593166e-01 4.857317024573110653e-01
-1.494113476728862501e-02 -1.250624454759584059e-01 5.326186924828353320e-01
-2.063885806162641529e-02 -1.200783776539194186e-01 5.481034125521803135e-01
-7.745280216050243194e-02 -1.109535890998712832e-01 5.266220778849677320e-01
