-2.384426697718355220e-02 -1.083198594045397117e-01 4.705455061902457103e-01
-7.722711777063916150e-02 -9.957708702196300943e-02 4.628065789469497648e-01
-8.772063307352759298e-02 -8.178683705121547742e-02 4.496121402217986840e-01
-4.925048128846876844e-02 -7.960713264104751774e-02 4.509819311931554942e-01
-2.882680654644057330e-02 -1.175063803777943172e-01 4.903608938125365579e-01
-4.846324348389571129e-02 -9.809235701874256808e-02 4.640096711411471619e-01
-6.510844026877737889e-02 -1.125666668618838795e-01 4.844426390281104666e-01
-8.015902782430329998e-02 -1.066703832727194656e-01 5.261073679546321991e-01
-9.259922834146268322e-02 -1.129348790603933728e-01 5.170983599798322228e-01
-6.060981646996141392e-02 -1.119801520975398923e-01 4.840359863911060656e-01
-5.511766345776071552e-02 -1.191858641711289468e-01 5.176907844410065795e-01
-1.200969332814117996e-01 -9.788443408156739800e-02 4.799581045025617665e-01
-1.763639828370404047e-02 -1.157396660458237664e-01 5.567973951460247761e-01
-5.194577725696211679e-02 -9.188685412078366477e-02 4.582133475460791194e-01
-1.046634647151453851e-01 -1.171138818114066532e-01 4.750765620011329626e-01
-9.302260458962931244e-02 -1.166548153624728801e-01 4.785127920040130323e-01
-9.710558273377370431e-03 -1.259025188835839748e-01 5.021493820973683686e-01
-6.100967742961121293e-02 -8.098638307402779291e-02 4.503639321388257510e-01
-5.989189603263670586e-02 -8.758274708039687217e-02 4.540455610802683339e-01
-3.871870255127639326e-02 -1.103555493655462294e-01 4.794028331505097440e-01
-1.360905327242822871e-02 -1.260320989466987007e-01 5.294407358306869593e-01
-2.930595996523433638e-02 -1.058265390014083290e-01 4.701563187067669958e-01
-9.039613554472361590e-02 -8.391513390400404115e-02 4.512378953736335130e-01
-6.613496342395047689e-02 -8.064912541833162141e-02 4.492307725011442932e-01
-2.317452857526602211e-02 -1.133300895094678518e-01 4.777969289109033624e-01
-1.195150338863444073e-01 -1.089381162379542828e-01 4.898293048082105750e-01
-5.715097914465443879e-02 -1.135931598075644311e-01 5.326388246477520294e-01
-7.267244406477171847e-02 -1.160947748199652879e-01 4.913091335279654026e-01
-2.153694175803995414e-02 -1.223060154029264879e-01 5.425853678847498696e-01
-9.817050527964499285e-02 -8.180003646465471012e-02 4.552862031205679449e-01
-5.677600540301958043e-02 -8.979001428819606556e-02 4.558904104120125034e-01
-1.076908282695721031e-01 -1.091161073883227528e-01 4.692950710394466762e-01
-6.194168307624444564e-02 -1.186751835944033912e-01 5.143512353345379706e-01
-5.656326345680209172e-02 -7.527078969975646572e-02 4.487114803838473942e-01
-5.687527452910230708e-02 -1.083296025608000562e-01 4.768503372096882797e-01
-5.304954909938421753e-02 -1.144693935446167987e-01 4.895210238198772212e-01
-5.397801711668098051e-02 -1.164559873149605268e-01 5.308455437863937032e-01
-4.458911941938787510e-02 -1.193300212942054322e-01 5.340114345267540363e-01
-7.824886068225463120e-02 -1.151586351805052033e-01 4.878336558515982135e-01
-3.696331074277513923e-02 -9.549171225305358446e-02 4.619284763111368708e-01
-3.914152349422529015e-02 -1.083671983881316497e-01 4.760742767186605939e-01
-2.886074439349371745e-02 -1.230455232057736104e-01 5.183106982310276001e-01
-6.439201219098646123e-02 -8.136954825461026330e-02 4.500615269088855674e-01
-9.759540570579590402e-02 -8.141262679389608958e-02 4.548528519971091200e-01
-8.115540883782143555e-02 -1.178118293451894810e-01 5.161267128842786933e-01
-5.860148065497192138e-02 -1.099087428435668173e-01 4.795144802860449307e-01
-9.975817400363226617e-02 -1.179768971105387004e-01 5.014111493019286492e-01
-7.163658036533936124e-02 -1.106468304857372437e-01 5.288432884826489433e-01
-2.144726610464878919e-02 -1.227382809122569279e-01 4.997539608663939537e-01
-7.805185508860162935e-02 -1.166619146729228756e-01 4.916382059784569769e-01
-9.407610122253062812e-02 -1.040839739938942271e-01 4.640499899696864383e-01
-2.046334045919818642e-02 -1.235699452127827780e-01 5.021609097844745850e-01
-1.166759872968602674e-01 -1.149188306425181216e-01 4.929525766692832711e-01
-5.864463544525796990e-02 -7.681466280823588677e-02 4.490319733822056292e-01
-1.189875426163642946e-01 -1.055412486953659496e-01 4.764612917971537409e-01
-7.548560232652459789e-02 -1.187567571607125727e-01 5.107634406350428646e-01
-1.047297092346239217e-01 -1.142918070050880780e-01 4.696788237461824167e-01
-2.470584162965109090e-02 -1.238204110717461559e-01 5.116448522380645514e-01
-4.335020266918832021e-02 -1.203091393819139265e-01 5.152533225916841042e-01
-4.686312888556337652e-02 -1.192764253749968584e-01 5.080010403173660372e-01
-7.719867669287547307e-03 -1.279795010501611485e-01 5.258696102772811853e-01
-5.715459656167139191e-02 -1.178840034086195421e-01 5.040885168534255945e-01
-4.866931688662931577e-02 -1.184714223549519080e-01 5.311675652144424165e-01
-9.300507279328276700e-02 -1.054162602425200018e-01 4.648378108588376856e-01
-1.052054704798202622e-01 -1.160115895093126182e-01 4.739460050561123960e-01
-8.363985284783982677e-02 -6.682396223387250533e-02 4.449798181065888758e-01
-5.461772252171588626e-02 -1.035149696068310282e-01 4.700437346119448745e-01
-8.202231209877565432e-02 -1.175569096840149153e-01 4.937078634903768193e-01
-8.543693110975940364e-02 -1.098965861229790897e-01 5.219387749048960412e-01
-6.012417187777831240e-02 -1.084991937777817633e-01 4.763157472827418970e-01
-5.224910014550616932e-02 -1.193296439444974238e-01 5.225960522992770807e-01
-8.124535251667273916e-02 -1.085223044511517687e-01 4.721560437446937764e-01
-7.629716174309487953e-02 -9.291569885446508692e-02 4.570797182432471684e-01
-5.635268682384170225e-02 -1.103653059115075746e-01 5.343606238621986249e-01
-8.083726690039859386e-02 -9.437034542802986981e-02 4.579665915835871570e-01
-7.556988898256401799e-02 -7.747247679440201484e-02 4.462686321331896244e-01
-1.193973560111817045e-01 -1.105165464641166967e-01 4.905300605590494079e-01
-9.182657610124822511e-02 -7.789263981732587327e-02 4.509045516230231754e-01
-3.433328406212499823e-02 -1.182030479564951525e-01 4.953672259117612442e-01
-2.878218195780635896e-02 -1.228472060212251471e-01 5.301404202605740634e-01
-1.086871952223172032e-02 -1.237924837403130557e-01 4.956533973600035226e-01
-8.609294634060486728e-02 -1.057973622636305400e-01 4.663844021365111114e-01
-7.130907044734485778e-02 -1.146549555320806046e-01 5.251069208689603807e-01
-5.117545484264134775e-02 -1.174737888956840504e-01 5.312564025568399240e-01
-6.429705169147245658e-02 -1.178807346593291616e-01 5.210663621846877147e-01
-6.827156472560792777e-02 -1.170765066028377072e-01 5.213322945422038668e-01
-7.314792751800075488e-02 -1.090780556089018666e-01 4.758729678345365310e-01
-1.104902373295086615e-01 -1.111590592345388373e-01 5.061074515792985951e-01
-1.704509657204505285e-02 -1.259029506471378013e-01 5.271055883007492726e-01
-1.113230517786593654e-01 -1.150675034117870088e-01 5.013075047978187149e-01
-6.492975243520066053e-02 -1.076198917090438467e-01 4.742872810211841150e-01
-7.685079213898748929e-02 -7.318558006270160787e-02 4.447488362767499370e-01
-1.198474638171666551e-01 -1.074836170058472429e-01 4.815991472128460793e-01
-1.011145930577318774e-01 -1.071460974144815559e-01 5.131432099250016199e-01
-7.779096792681164385e-02 -9.468368412203136131e-02 4.584544840365729623e-01
-9.642854207931123023e-02 -1.125868175613030792e-01 5.154370971083290787e-01
-1.192573679371792122e-01 -1.002435822019832889e-01 4.746615356765975235e-01
-7.012677840110125016e-02 -9.497459220702014759e-02 4.587040332635101691e-01
-4.763025991902354594e-02 -1.191852341316702035e-01 5.285739879077642200e-01
-1.209418822473103811e-01 -1.055251494128113671e-01 4.841385965283295789e-01
-2.708909057634713291e-02 -1.066658040829809445e-01 5.546404472283452680e-01
-5.639939221037981038e-02 -8.985016986998489719e-02 4.559781870375061441e-01
-1.921406649718401805e-02 -1.238408929064606784e-01 5.019213311809986866e-01
-3.017353444392300785e-02 -1.145570933252209600e-01 5.489273567233221574e-01
-2.357283323903012345e-02 -1.004286811908578769e-01 5.579952441769225890e-01
-1.132678815043881432e-01 -1.142802907035275067e-01 5.007579584219703506e-01
-1.060430540782058839e-01 -9.028250906295368083e-02 4.602223560382170953e-01
-4.069470774819101966e-02 -7.512758085186979629e-02 4.484937338276122065e-01
-9.991186935828481885e-02 -1.196417547252672381e-01 4.900965992454132669e-01
-2.332995430709720180e-02 -1.030664999017640582e-01 5.594344362497526424e-01
-2.949647502440876090e-02 -1.066456508725140140e-01 4.714395364612741779e-01
-4.974115467693874387e-02 -1.085490783681160032e-01 5.389797841865671124e-01
-3.242944580152702649e-02 -1.019132952167709216e-01 4.661106373693881255e-01
-2.588550092206806999e-02 -1.187563609791037061e-01 4.909911894505822327e-01
-1.048574184740575094e-01 -1.133227674994490564e-01 5.079259983108331822e-01
-6.087792944904021203e-02 -1.086834017952996584e-01 4.766814327974067123e-01
-1.156736748796635544e-01 -1.152387587102675637e-01 4.876575311909280841e-01
-3.989272892760170781e-03 -1.204232525800838088e-01 5.390614735796537271e-01
-8.567786601739744989e-02 -1.187237153044421040e-01 5.010246365133932400e-01
-7.076452442286902678e-02 -1.187116436159986604e-01 5.118957745360880329e-01
-3.434132895798468893e-02 -1.158041793197609748e-01 5.445586906189657794e-01
-6.376748809294108256e-02 -8.286799279587855893e-02 4.508489817267622990e-01
-2.587008967363720741e-02 -1.204394088867542789e-01 5.443814378444759017e-01
-9.109125156360541736e-03 -1.280189054524530079e-01 5.219780273437667484e-01
-8.992370925418577410e-02 -7.246270267840573820e-02 4.498041373215364014e-01
-1.138064106025953592e-01 -1.005596902823940181e-01 4.664276874602438783e-01
-4.838890975395593319e-02 -7.322125544163829436e-02 4.482780559717072233e-01
-4.028023213383175039e-02 -1.204565409290432321e-01 5.296950382397641599e-01
-8.611377966118280436e-02 -1.084956620777183384e-01 4.701716496389803934e-01
-3.362864611214216176e-02 -1.209927459929795862e-01 5.065333429142194754e-01
-2.739556773325226360e-02 -1.213213619600788384e-01 5.001042871643018861e-01
-5.943094306622455358e-02 -8.661924886167171600e-02 4.535565488121449662e-01
-8.309121604550502582e-02 -6.463372391460209254e-02 4.446575025046509144e-01
-3.185708846539613004e-02 -1.221633009582736434e-01 5.149150988579083155e-01
-6.288067498650710963e-02 -7.855694137914678854e-02 4.490198583054392789e-01
-5.422076780342696689e-02 -8.000598129334193787e-02 4.509372334485192146e-01
-8.131595720527887150e-02 -1.174705094647395531e-01 4.933541875959275291e-01
-8.586621469625197248e-03 -1.271927996604580446e-01 5.078182835941553730e-01
-5.802241778717504017e-02 -5.810943430752694983e-02 4.433615171463325955e-01
-6.757505205131229820e-02 -9.526046109367765358e-02 4.591197215801843812e-01
-1.019305649481595522e-01 -1.042496081632202781e-01 4.632494116529983774e-01
-3.882283627288050931e-02 -8.761254044982592915e-02 4.557209716616971718e-01
-6.554331169201610408e-02 -7.212692885165195023e-02 4.462751361684337281e-01
-8.719691531585757605e-02 -8.844517849086509786e-02 4.533044851033000144e-01
-3.101572931263451779e-02 -1.154790585433950467e-01 4.876667788507115797e-01
-6.838141500972176601e-02 -1.089216911507741026e-01 5.300803293342669642e-01
-1.116183794591428524e-01 -1.077100305685601139e-01 4.699886402877975766e-01
-5.729301267255741681e-02 -1.188467386390807123e-01 5.185412695477775724e-01
-2.807435526057531355e-02 -1.188258789565004303e-01 5.462340680094613932e-01
-9.631030718732803975e-02 -1.186012902443920880e-01 4.973144778982768743e-01
-8.937399622977353075e-02 -1.086105372134184149e-01 4.683745791954641580e-01
-4.985006947658114640e-02 -7.220615805664565290e-02 4.478853085662576339e-01
-1.918597748222621718e-02 -1.254586288901982372e-01 5.145876444424132279e-01
-5.073476209272349824e-02 -9.875302663076968024e-02 4.644058943886645308e-01
-2.417961215575551229e-02 -1.045721308774385239e-01 5.582118713595789483e-01
-9.370436596764609299e-03 -1.206596931572694043e-01 5.468477682074315283e-01
-6.910119246123702652e-02 -8.184825942270829158e-02 4.492931413985375988e-01
-2.156499881165247628e-02 -1.118826669803743290e-01 5.584840782526679925e-01
-9.432108972077711539e-03 -1.140320846703370555e-01 5.591523177550993262e-01
-6.221551734207068224e-02 -6.422928176231784692e-02 4.444282963223012417e-01
-1.137252242594738033e-01 -1.145784344429385121e-01 4.791174744838798683e-01
-1.708571039343271744e-02 -1.221700674787027374e-01 5.449254617662085964e-01
-4.744618896362478438e-02 -1.147837718080812336e-01 4.893871735911846654e-01
-4.710892153178990877e-02 -1.192798673674087401e-01 5.081947206069066247e-01
-1.178521756769949913e-01 -9.697999749413407922e-02 4.740539109243382954e-01
-2.929373278080223825e-02 -1.209124618750377494e-01 5.005607126771169924e-01
-9.695969310556028231e-02 -1.166588852365930129e-01 5.092379507129692895e-01
-4.715198362862851877e-02 -7.025872054960588531e-02 4.470447581342819054e-01
-3.452001614526221257e-02 -1.082349970638445402e-01 5.453911830423159302e-01
-1.833732346531831425e-02 -9.927307934438957260e-02 5.641635621603307005e-01
-6.067700205182263024e-02 -1.177227586127056747e-01 5.235039458266582679e-01
-1.034714134877766367e-01 -1.164470797782535400e-01 5.045382206503107314e-01
-9.174757288864114624e-02 -8.033830033929470482e-02 4.506363965547282024e-01
-9.311312786686669341e-02 -8.701917884470666831e-02 4.532691094982074786e-01
-7.363938364675913506e-02 -6.050749360462947396e-02 4.426182812516769038e-01
-1.842113577553091200e-02 -1.197612743347421099e-01 4.881635307320569828e-01
-1.567010652971332144e-02 -1.198031912602838117e-01 5.504469305490518050e-01
-1.955762402418710286e-02 -1.057031661393773025e-01 5.629244747110206948e-01
-1.194325290635807474e-01 -1.094778539412576968e-01 4.889933239018074418e-01
-2.752794822743197256e-02 -1.144834013409058299e-01 4.829126666213309216e-01
-2.066453961206855122e-02 -1.208888987245860525e-01 5.465260511942962030e-01
-8.570845227605966565e-02 -7.490491702965308696e-02 4.459325473967865605e-01
-4.277326508648692655e-02 -1.190089301026449053e-01 5.031492836387094769e-01
-1.189859061044441502e-01 -1.088450651866416791e-01 4.794944485801834189e-01
-4.096677501770339819e-02 -9.671936895526120348e-02 4.633636320691257304e-01
-7.809956973971307614e-02 -1.124264111398864258e-01 4.796278815606647705e-01
-1.190262493690352197e-01 -9.853642441166178545e-02 4.764005981191599126e-01
-3.892178112244993465e-02 -1.154237362468109596e-01 4.898260834286914389e-01
-7.540385266162986933e-02 -1.108260824545757722e-01 4.778992638185891595e-01
-2.408692120545917817e-02 -1.242639135322852195e-01 5.296518117975027584e-01
-2.324308687797577849e-02 -1.042538864654214137e-01 5.595331835005828980e-01
-4.699542499231610521e-02 -7.227383689146618662e-02 4.477678176451851955e-01
-3.788050176044054085e-02 -8.659769880103350415e-02 4.548895862234457743e-01
-1.927623003764418474e-02 -1.238303163778401023e-01 5.368176910833616367e-01
-3.246291851797636352e-02 -1.215464512840599837e-01 5.083470241043011040e-01
-2.336820054990702833e-02 -1.225364146786106639e-01 5.398036198290752097e-01
-6.328326891076106742e-02 -1.181165968123023408e-01 5.043741772986024552e-01
-9.122236984486589706e-02 -1.188676138005142074e-01 4.967233247182499256e-01
-8.542066876034379308e-02 -7.868182759354010181e-02 4.474278282789879713e-01
-6.682395791798857732e-02 -5.894795134536472136e-02 4.427973678297474347e-01
-7.944242298516437928e-03 -1.181608754341703649e-01 5.530818901354430661e-01
-9.609852857118494907e-02 -1.182404585776769823e-01 5.012433241112677074e-01
-6.167489950999775761e-02 -9.020355540369343061e-02 4.556332310891533233e-01
-7.536454705847703273e-02 -6.104439089513934158e-02 4.426563702752962515e-01
-3.406095256529523274e-02 -1.190448710023787465e-01 4.979276214879476137e-01
-1.052780875891800305e-01 -1.101111908685979413e-01 4.676493222805030436e-01
-1.543511722914764177e-02 -1.194001864294461368e-01 4.863028297309028303e-01
-4.452497333748929587e-02 -1.151764076271879905e-01 4.900699421668982536e-01
-3.317378059999914058e-02 -1.182957666563890786e-01 4.947433572773701771e-01
-2.774799421102803337e-02 -1.116839398462099731e-01 5.533233158965085163e-01
-4.102630043903720408e-02 -1.158590142482227303e-01 4.913211831826772014e-01
-7.336722000997182580e-02 -1.151368524823095513e-01 4.887276122557973057e-01
-6.309176238467535669e-02 -1.029557602824088952e-01 4.677066548115375033e-01
-5.956363369383198270e-02 -1.023674609749476300e-01 4.676226042093424295e-01
-6.100745711453530590e-02 -1.141693520152666091e-01 4.889082644097314523e-01
-4.942227088920291000e-02 -1.196345409497288348e-01 5.204180382411568440e-01
-7.035685234431882096e-02 -1.034993367071153914e-01 4.674940751209437639e-01
-7.736762517848086440e-02 -1.128764275627677921e-01 4.809769132325338870e-01
-6.294836075012653909e-02 -1.155015359919353696e-01 5.273243353529547539e-01
-6.920504656367547358e-02 -1.157201181264842088e-01 4.914565722632085465e-01
-8.196286763233981421e-02 -9.199348875588035657e-02 4.559167234403151414e-01
-5.729406161953369547e-02 -1.189751124973267432e-01 5.151221343314779100e-01
-6.860823158330418836e-02 -1.068684102553209281e-01 4.726004835826417838e-01
-4.267240820663798645e-02 -1.166510054960853693e-01 4.941939478151258225e-01
-4.667866379059597975e-02 -1.196845754783190802e-01 5.115324719554645849e-01
-1.009777038223193604e-02 -1.278153551287403156e-01 5.201347788700030339e-01
-4.280741074784071010e-02 -1.159695458641891858e-01 4.921627560368000420e-01
-1.234714368428983106e-02 -1.265026541478542765e-01 5.273920189924437008e-01
-5.805033556788568444e-02 -1.099652635617524021e-01 4.796376344014999238e-01
-1.532245836934063160e-02 -1.213931169006324529e-01 5.474095973427290929e-01
-4.988122353997061914e-02 -9.960602334301123240e-02 4.655041850683090954e-01
-4.838802921291488618e-02 -9.583292910613674942e-02 4.621983625950846220e-01
-9.633098045419498379e-02 -1.103061690727799721e-01 4.680900182846107205e-01
-1.809049999117807658e-02 -1.227998243849024590e-01 4.968739608202718538e-01
-4.251156543664497134e-02 -9.738144549948601902e-02 4.638303209581740583e-01
-8.155808497130140333e-02 -1.085234932377615452e-01 4.720509255777736168e-01
-6.188383579601319795e-02 -6.894391219561113449e-02 4.459201196814613910e-01
-2.440580811956798851e-02 -1.182150176036391720e-01 4.883191602562822475e-01
-4.668744694473098145e-02 -1.199049353548876512e-01 5.152765897911132376e-01
-6.526121893787632799e-02 -9.355270323980731384e-02 4.578856974258251333e-01
-6.832805804434664843e-02 -8.484759205300036744e-02 4.512496095686037156e-01
-1.192040390699989350e-01 -1.084974453564348518e-01 4.965828087128409396e-01
-1.096786874790441069e-01 -1.193148037615716500e-01 4.851239028981176871e-01
-1.191850311565600257e-01 -1.093946701428770568e-01 4.829497121280532101e-01
-5.514320082936373379e-02 -8.561376934741937728e-02 4.534332857718437748e-01
-1.109115303661798238e-02 -1.171464716810980272e-01 5.550024578520582619e-01
-3.726421914124861817e-02 -1.190470218682197628e-01 5.005653376165973834e-01
-8.371683176508668001e-02 -1.172717210874432842e-01 4.924027685237656327e-01
-7.191177707152870968e-03 -1.266707468647715606e-01 5.307916009042644712e-01
-1.096016486043307203e-01 -1.191253807259726183e-01 4.825266952526107156e-01
-3.983616689224904472e-02 -1.209246910624287852e-01 5.257518134112088015e-01
-1.132753758639755137e-01 -1.033844395421877616e-01 4.672840802254356607e-01
-3.195274133523816340e-02 -1.218750822021439362e-01 5.322565046089980934e-01
-1.175556395834879281e-01 -9.683559484880556456e-02 4.733069954274974900e-01
-6.477071135575480920e-02 -1.068199569075159866e-01 5.316916414957585379e-01
-9.075033725023720632e-02 -1.194648176742651724e-01 4.928956898297582878e-01
-5.235644143374101889e-02 -9.789154285220988405e-02 4.634963044906557084e-01
-9.991392934260448500e-02 -1.107474705463728643e-01 4.670726455893277618e-01
-7.023539384585540668e-02 -1.094359819845341225e-01 5.295729394332696627e-01
-3.814564867472702153e-02 -1.028883319004035429e-01 4.688777781920613896e-01
-5.301697264626575867e-02 -1.166884442392346205e-01 4.970369085442733481e-01
-5.542082663611084398e-02 -1.032325904433287062e-01 4.695984043638282701e-01
-6.292821099723201750e-02 -9.415556504743674560e-02 4.586093970571533118e-01
-8.933532694033584354e-02 -9.196019133965600834e-02 4.557641731596229762e-01
-9.567851527220382069e-02 -1.130087018274423399e-01 5.156643452117581905e-01
-1.401686883868483169e-02 -1.155057178592921591e-01 5.575677318289761208e-01
-9.672626874724726820e-03 -9.972806074045718894e-02 5.676914124519896188e-01
-6.991081790875545987e-02 -1.167794488116501023e-01 4.942391546130032731e-01
-1.163998975621037268e-01 -9.744684966489602918e-02 4.700564125258758219e-01
-6.053273208342948436e-02 -1.184810948557224602e-01 5.103643912880068134e-01
-1.071546442303811762e-02 -9.837913355918601055e-02 5.680494218931925188e-01
-7.342938613835946204e-02 -6.526786659839826921e-02 4.428138338891065562e-01
-2.812304333848078194e-02 -9.720378654175015898e-02 4.598129330842516405e-01
-8.020021553975796580e-02 -9.759556317868793573e-02 4.606556227423765915e-01
-3.021891142179572443e-02 -1.206995247147569644e-01 5.400861558057687972e-01
-7.118432002009493498e-02 -6.251977071116296414e-02 4.427638172938375138e-01
-1.183337980817865537e-01 -1.114824204995045198e-01 4.846666937958851173e-01
-5.776241339353727078e-02 -1.166006928047939456e-01 4.978466992975323913e-01
-3.899072077284013171e-02 -9.842619194177755493e-02 4.647892443787240979e-01
-8.545148909830727058e-02 -1.131146420917353984e-01 4.770984716034245010e-01
-8.303131149861890659e-02 -6.832902553126866951e-02 4.444652886247112966e-01
-2.987817430981281816e-02 -9.978251958263435750e-02 4.628040367278872247e-01
-8.102185546795065418e-02 -6.643665535583807846e-02 4.429648781528605084e-01
-2.249563470442881435e-02 -1.152129146761457223e-01 4.804653733719575492e-01
-1.034304778200441921e-01 -9.212486325429547485e-02 4.581599326124791149e-01
-5.900439653367720028e-02 -1.175717914069829839e-01 5.254158544026079625e-01
-4.153543345743702236e-02 -1.093574930910822807e-01 4.779912049966044130e-01
-1.818973141719202463e-02 -1.204672045075297626e-01 5.482724844920209284e-01
-4.570120065503992940e-02 -1.104847417132070186e-01 5.393625458303609177e-01
-8.152115067519298541e-02 -9.850282893383040250e-02 4.612392534152778278e-01
-1.031244821511468346e-01 -1.037342094739042431e-01 4.635023237895083970e-01
-1.120697315083808987e-01 -1.113448584485302595e-01 5.049985221377351063e-01
-1.185054505534443720e-01 -1.013803707029001661e-01 4.729013681155895821e-01
-3.925646737952018239e-02 -1.169476666670041382e-01 5.395970196049104661e-01
-7.912059306053570440e-02 -1.182866197302464978e-01 5.144102090781582648e-01
-3.400333955946356623e-02 -1.121971212551906849e-01 4.822821685091730481e-01
-4.225650034979520908e-02 -1.159264356289428782e-01 4.919293008045422244e-01
-4.217238056996724244e-02 -1.120176538321154408e-01 4.831420741024790577e-01
-9.137773473728419416e-02 -1.144174203749768609e-01 5.168981963130051538e-01
-3.359311948253500268e-02 -8.237467366323740492e-02 4.506183189027618829e-01
-6.408700412939785651e-02 -7.696505267549494378e-02 4.481848504421108714e-01
-5.459593176694445965e-02 -5.686836842102109546e-02 4.431814443023421868e-01
-9.020566918413806812e-02 -1.158531019692298769e-01 5.154465802475642899e-01
-3.429414824127771655e-02 -1.217242065071531820e-01 5.160562807643617189e-01
-8.192676855268882230e-02 -9.055751430758574028e-02 4.547857975167656219e-01
-1.059735403864225795e-01 -1.085604726352292076e-01 5.093680581977034771e-01
-1.082074017659852561e-01 -1.169807491450536308e-01 4.984262953063522406e-01
-6.231643876367530532e-02 -7.961103852264633796e-02 4.495354557476196611e-01
-8.025027960597931609e-02 -1.002779042764107564e-01 4.630709346111847036e-01
-4.064608100569674920e-02 -1.104106910476462394e-01 4.798112367126638467e-01
-7.206584299563922880e-02 -5.739757173551744002e-02 4.434710537298108823e-01
-1.197186227491582877e-01 -1.081431257500081178e-01 4.829516222078112930e-01
-1.033749799223871238e-02 -1.118342234831827819e-01 5.613153575891330904e-01
-1.060057476781203073e-02 -1.260753713476744642e-01 5.309609044976374426e-01
-5.743764120010150243e-02 -1.176148374071537273e-01 5.025212380899631848e-01
-7.015442161219731521e-02 -7.670779351126146006e-02 4.468762512162731682e-01
-7.596837295150543623e-02 -1.019795328722910704e-01 4.653963691600387365e-01
-5.786922635249194813e-02 -1.095383915406089731e-01 5.337836410900899109e-01
-7.353044174032224989e-02 -1.185407511134543290e-01 5.133918128316685703e-01
-5.374365159569928496e-02 -1.083667187927092046e-01 5.366027907696691024e-01
-2.036803758710854090e-02 -1.207655461079871345e-01 4.922288196597884302e-01
-9.901648144855984546e-02 -1.121961757843082802e-01 5.138269104613447658e-01
-1.072439429603464223e-01 -1.154235271492232845e-01 5.034914062554008973e-01
-1.184199110754811657e-01 -1.070273941777685339e-01 4.760492248869978016e-01
-7.979187367594302305e-02 -1.099876162158643506e-01 5.251042247777492067e-01
-1.062509239115407983e-01 -1.177370127815955958e-01 4.978307105761060058e-01
-9.047623779320812173e-03 -1.280392324071611410e-01 5.191490306469641602e-01
-1.597153964140166429e-02 -1.248477226013571528e-01 5.329869531377703362e-01
-3.347650488315680184e-02 -1.219568249632324713e-01 5.175362284384057432e-01
-5.800596424923162159e-02 -5.689067379887460807e-02 4.431047798997291842e-01
-1.179120331631600682e-01 -1.035122509751036368e-01 4.728128369027657651e-01
-1.096116414438497860e-01 -1.186410194719642874e-01 4.816385574764850963e-01
-1.068972398765300619e-01 -1.166767853577761471e-01 4.758702758874931438e-01
-5.680167356594953421e-02 -1.021334307312453810e-01 4.678452428311128397e-01
-1.227081871418273309e-02 -1.109233299971597725e-01 5.618984311199195503e-01
-3.353084747873427696e-02 -1.217326951982269090e-01 5.128302651869218742e-01
-5.003748407564027889e-02 -8.728901471497212128e-02 4.550668354017859407e-01
-3.872552982158257440e-02 -1.150808356375389307e-01 5.413827164468839603e-01
-7.654000340480153486e-02 -1.115768155840762832e-01 4.787845672915472806e-01
-6.510291263777402693e-02 -1.140657582869550324e-01 4.882232531285343180e-01
-1.037725449258732474e-01 -1.208529368610993110e-01 4.845719304282261608e-01
-6.172845411775725218e-03 -1.282913769712142882e-01 5.133282925088205051e-01
-1.123833204547426412e-01 -1.169384584953901407e-01 4.896089995778162285e-01
-5.387345025358946521e-02 -8.561734357862939293e-02 4.535327380811359221e-01
-8.541229070901161513e-02 -1.181006685854276012e-01 5.108325781671996246e-01
-3.914720462911346066e-02 -9.555171937288192696e-02 4.622586753413628347e-01
-5.039751087778022998e-02 -1.127255047122267817e-01 4.852011394439676994e-01
-9.126858631129292077e-02 -1.187520015580722649e-01 4.888806370052385386e-01
-8.159637567698904692e-02 -1.135125480270837706e-01 5.223701298334563203e-01
-1.328748392304165624e-02 -1.219052006733906818e-01 5.459097834386335002e-01
-4.653763517593511451e-02 -1.020990018147174966e-01 4.686802540424502284e-01
-4.912457248860829795e-02 -7.140225059974546207e-02 4.475609311520470368e-01
-7.598146085989164467e-02 -8.331789731513819519e-02 4.492921858480384834e-01
-3.575596377697110029e-03 -1.286025794456161220e-01 5.233451204089378805e-01
-4.698305814034948319e-02 -1.176087187831323932e-01 5.345099299363974543e-01
-9.329117062654314341e-02 -7.913653033880306553e-02 4.523875496174638022e-01
-3.676101495915719969e-02 -1.208307409592309645e-01 5.105116177920270282e-01
-6.663430594061872658e-02 -1.177395207162778290e-01 5.010205833594807423e-01
-5.755070186896524276e-02 -8.399268687090613583e-02 4.522715072719769025e-01
-1.020875254309510233e-01 -1.092868051336704088e-01 4.654835501556015553e-01
-3.097654134628429964e-02 -1.056737387634007347e-01 4.705147534446232349e-01
-6.477368816277945252e-03 -1.204950515492967250e-01 5.438819953970667198e-01
-1.199194830857952948e-01 -1.052237539523699916e-01 4.934667927376417129e-01
-1.649983737436653761e-02 -1.231388232971748348e-01 5.410089377767596241e-01
-2.079897013394210389e-02 -1.252858835882803834e-01 5.244388360310549002e-01
-1.179826360831611048e-01 -1.025862706442117467e-01 4.725096006630586376e-01
-8.050900185563057698e-02 -1.131999143420157200e-01 4.798225615318028603e-01
-9.992644820681040319e-02 -9.383534818526721721e-02 4.574347645228882264e-01
-1.076280957833943425e-01 -1.193637804872244440e-01 4.796411307985005146e-01
-6.817852215010000369e-03 -1.244007943189852361e-01 5.350425000553677979e-01
-3.885896755475486825e-02 -1.183403771588587422e-01 4.982846174168933384e-01
-9.555509880822400659e-02 -8.551235908947833753e-02 4.531503697971704936e-01
-4.633429068873577521e-03 -1.285302161482832217e-01 5.185078358994408276e-01
-1.000205640952773894e-01 -1.080070711654165239e-01 5.142258087863499361e-01
-1.986493723669615838e-02 -1.216854771668980095e-01 4.946191979690540697e-01
-6.220772515712562345e-02 -1.175946867463001227e-01 5.232062887738108126e-01
-4.089508044344493387e-02 -9.010821403092711401e-02 4.577604606540319754e-01
-1.556818927386731735e-02 -1.256446401749104214e-01 5.304943968469088000e-01
-3.033884127119093263e-02 -1.044909619046586607e-01 4.686591333713976404e-01
-8.836504665283964610e-02 -1.179572365594445116e-01 5.079086586951655491e-01
-3.543292097499037979e-02 -1.215919994152990374e-01 5.174416364169751592e-01
-7.307714370275075755e-02 -1.189101195782244630e-01 5.083485919839865197e-01
-9.902136425818004739e-03 -1.266760474466680775e-01 5.061812134988923351e-01
-9.618660929974338913e-02 -1.120288781142975837e-01 5.158303768400638312e-01
-6.184128414847338967e-02 -1.180095559367470015e-01 5.046079682287182289e-01
-7.217983192746221799e-02 -1.185311558165418611e-01 5.016707320426493366e-01
-8.072814977804557146e-02 -7.193870655071926690e-02 4.444712478997515648e-01
-4.407257637679507650e-02 -1.131405926908417292e-01 4.854093274187032403e-01
-1.001537038973704385e-01 -1.117395212242545122e-01 5.123006529108079521e-01
-4.147967067482481035e-02 -1.194595203389912930e-01 5.047925400621758873e-01
-8.718415492024599034e-02 -7.620706311183411685e-02 4.471026323788402923e-01
-9.180755141266319641e-02 -1.179676285532853530e-01 4.845028983274098366e-01
-1.008663416040374294e-01 -1.124354479374203991e-01 4.685284371025412176e-01
-1.116666931449841575e-02 -9.715427322815022027e-02 5.684375269164345656e-01
-9.676260897042095188e-02 -8.637399384801652813e-02 4.538260584264778297e-01
-2.079565559556440305e-02 -1.163617719138473339e-01 5.551880505737003535e-01
-1.001859752382818491e-01 -1.153524701491326770e-01 4.714162045310928972e-01
-8.898273623992139503e-02 -1.160052738157370117e-01 5.155603551806067220e-01
-8.822875057155166179e-02 -1.173774482826111104e-01 4.887281009986762514e-01
-4.360091453781635151e-02 -9.877395552543755120e-02 4.650684150641312131e-01
-7.782700311979698360e-02 -1.142958159121653106e-01 5.234426304393183793e-01
-2.621590732665837753e-02 -1.142664858186634297e-01 5.533954277458483784e-01
-1.032920545002675022e-01 -9.494628957747630604e-02 4.587890374170931485e-01
-2.490583366069704443e-02 -1.013014047066972956e-01 4.619764270595698719e-01
-6.925173743459975273e-02 -1.102258823238693036e-01 4.788854515101662046e-01
-4.292229859457322855e-02 -1.198601590243931203e-01 5.089119499694128024e-01
-1.088156999017720200e-01 -1.097965314849418395e-01 5.075059227723687227e-01
-9.970569783995759244e-03 -1.277134399957956801e-01 5.148125862159600441e-01
-7.669688976616424736e-02 -1.176607530670956553e-01 4.944180407228016549e-01
-7.175467263324557254e-02 -7.642644999449239862e-02 4.464945338145038245e-01
-7.858319078564008492e-03 -1.255399332272956470e-01 5.000384195648988062e-01
-5.806083407515382627e-02 -6.520100579482129843e-02 4.449969018565931855e-01
-5.160368212521593279e-02 -9.830849987984463523e-02 4.639665525127687484e-01
-1.188087570688970696e-01 -1.120297185516856697e-01 4.919518246432746933e-01
-1.034663679744695503e-02 -1.272653540782723025e-01 5.101416894899445387e-01
-1.028776880514302439e-01 -1.173483782412316490e-01 5.025692706632436391e-01
-7.171623573826883813e-02 -1.185271802661096718e-01 5.137759281901447261e-01
-8.874131016075474665e-02 -1.155064919620787528e-01 5.167338411262699660e-01
-8.271128327334095753e-02 -1.093926940934904224e-01 4.734366101159226958e-01
-1.199763017800975912e-01 -9.857085671126984694e-02 4.787256973831080509e-01
-8.619297509973532223e-02 -1.109463614926651659e-01 4.730944786776848376e-01
-2.875342399078153338e-02 -1.081432679802851737e-01 5.521953906616041685e-01
-1.009482641738139036e-01 -9.247803992319432453e-02 4.576783188774274924e-01
-8.600835127666073276e-02 -1.170458863551680495e-01 4.885240197052283517e-01
-7.489827721724366671e-02 -1.124873273354585757e-01 5.272025370135969835e-01
-2.218118684626660744e-02 -1.202440218049894705e-01 5.471673992315957413e-01
-3.159855122347370038e-02 -1.180922223790892567e-01 5.446946078002954383e-01
-3.757675040644584130e-02 -1.152119998543225665e-01 4.891639153289055741e-01
-5.814948473134078782e-02 -9.213813366257296578e-02 4.573892997042915409e-01
-9.948758772182616714e-03 -1.278477977913871355e-01 5.202698225646670283e-01
-6.007175221136699245e-02 -8.498681169976286809e-02 4.524586736350806881e-01
-3.915316322118148756e-02 -9.997993361151095992e-02 4.662984406586239694e-01
-8.918596172207834960e-02 -7.303395790543874833e-02 4.485659701474655203e-01
-1.850681229601060587e-02 -1.257035833980195139e-01 5.165583742133160738e-01
-3.118609343564932371e-02 -1.225660787143338371e-01 5.223482968069527166e-01
-3.366107570322851572e-02 -9.611524013090139151e-02 4.612195322161829480e-01
-2.168135481438906650e-02 -1.222266097780987243e-01 4.981292883522179249e-01
-9.047863999884819819e-02 -1.176658500415897202e-01 5.089268177447890951e-01
-1.930768533570623516e-02 -1.227463202924280600e-01 4.978173436042541700e-01
-4.929591733586891067e-02 -1.106244888223368167e-01 4.809323327900407175e-01
-5.398180376988101492e-02 -5.715426973313921660e-02 4.432206104608730213e-01
-8.965372427522941279e-02 -9.874694202026441936e-02 4.601705974861844406e-01
-4.029825197907289935e-02 -8.205040574878298687e-02 4.521003817015080695e-01
-6.818846332334448090e-02 -1.043544638000663688e-01 4.687350455279420958e-01
-8.362637204442664729e-02 -1.180860215840229543e-01 4.963341828464586936e-01
-1.731266569187747684e-02 -1.202911014425330771e-01 5.489363115857862629e-01
-3.062663080692423073e-02 -1.120977174692715794e-01 5.491740638857877110e-01
-7.146881138312057014e-02 -1.122735913634748950e-01 4.826603095089915252e-01
-3.097107298050073843e-02 -1.222931172878026773e-01 5.138247806769685733e-01
-1.898634115421722612e-02 -1.226509967898426895e-01 4.971666467578132464e-01
-5.408050367734427988e-02 -1.189163270537486466e-01 5.231837714700670050e-01
-7.483539086359060344e-02 -1.101251099921120441e-01 4.770305320305968655e-01
-8.962096944668083986e-02 -8.999676607803339112e-02 4.545334976333567090e-01
-2.978917626002863805e-02 -1.187127487931528697e-01 4.937816253405512557e-01
-7.186661546415540336e-02 -1.068502972223210612e-01 4.724421051100132218e-01
-6.981563683560024214e-02 -7.624349441983989395e-02 4.467589585362455873e-01
-3.719044209348276037e-02 -1.213797923452199640e-01 5.210173934015389641e-01
-4.532456220377688305e-02 -1.105430253051533224e-01 5.395323241741128983e-01
-4.959257101689091424e-02 -1.197084446345297593e-01 5.179859967077211635e-01
-2.705003278507998182e-02 -1.136813048087482458e-01 5.528177443474546759e-01
-4.513221882544377062e-02 -1.174218356736761171e-01 4.970493390467045081e-01
-1.144701423396780882e-01 -9.990267955319956372e-02 4.670128612583830940e-01
-4.913064341018849590e-02 -9.343086846679901636e-02 4.599906274818418850e-01
-6.158945646519654177e-02 -1.182836667842079026e-01 5.185580706020251895e-01
-4.541672270427107860e-03 -1.285501061305169002e-01 5.201922648031818142e-01
-4.769344272477325092e-02 -1.194485013538830881e-01 5.266387508450934840e-01
-9.672323419793547178e-03 -1.244462495789277479e-01 4.973655996230507692e-01
-4.035597991534489726e-02 -1.185972193738075303e-01 4.997660464138649061e-01
-3.025607449459138953e-02 -9.261289761957965105e-02 4.572894302286791279e-01
-4.934960889461965927e-02 -1.013251279564327673e-01 4.675893295862519339e-01
-2.428799548946981163e-02 -1.022135988335521051e-01 5.573745621343775269e-01
-5.012021169848453889e-02 -7.610263618304624611e-02 4.495172450866878333e-01
-6.202641287678469645e-02 -1.075139920785140174e-01 4.742529573282075472e-01
-5.961763605162986868e-02 -1.182108813598964081e-01 5.067730114825450549e-01
-5.458490938204470927e-02 -9.338215937837163194e-02 4.591155999753847028e-01
-8.784453616958724786e-03 -1.241578453626013823e-01 4.959279064131107972e-01
-1.078088585458013282e-01 -1.160902677798729271e-01 5.016208921565323831e-01
-1.404696080811457075e-02 -9.971163855642639628e-02 5.658166396389744390e-01
-1.792360052114283162e-02 -1.170561537178090722e-01 4.822009444085403329e-01
-5.970105089722914371e-02 -1.180782611894427431e-01 5.226805979144074632e-01
-5.340935390941058125e-02 -1.187683948262693995e-01 5.239768551540756603e-01
-7.192197438475624038e-02 -8.177038343404427478e-02 4.487081871255709786e-01
-2.905318691793430663e-02 -1.184410712014363071e-01 4.925720546671626399e-01
-1.145727123756840327e-01 -1.085991015472193705e-01 4.729669886686369562e-01
-4.422637545309614227e-02 -1.046479455422838906e-01 4.715558657948273336e-01
-5.840093795178378372e-02 -1.135178316462748249e-01 4.874334217387084056e-01
-1.804594454121568464e-02 -1.198826969423344851e-01 5.494989899453687210e-01
-8.808282659719438024e-02 -7.864897559177615183e-02 4.484805902349942031e-01
-6.485568114202934498e-02 -1.168064709168744331e-01 4.971866539338804514e-01
-7.925664667513671047e-02 -1.070040738166564698e-01 4.704841411089237257e-01
-5.597025653981339138e-02 -1.137666349125164428e-01 4.881153464845743861e-01
-7.393235154192247249e-02 -8.346263958422807383e-02 4.496368529258757407e-01
-5.332623803976874882e-02 -6.578523893757234897e-02 4.454529021061336969e-01
-5.170628665825037495e-03 -1.284244518573842697e-01 5.148660649521784594e-01
-3.752517599018055650e-02 -1.115911392845934796e-01 5.431280322542696437e-01
-4.540860355453854580e-02 -1.198902399841647315e-01 5.124422762844224044e-01
-7.519802600423687589e-02 -1.146533018615453481e-01 4.872619739592725097e-01
-6.076456889775558312e-02 -7.662581646519531220e-02 4.487417370323724675e-01
-3.937020254041289496e-02 -1.046663407402642354e-01 4.711047951412414281e-01
-9.175649911692279614e-02 -8.943695432159015635e-02 4.543505960950601774e-01
