-1.047361122779362913e-01 -8.761690712622262345e-02 4.608231779918066651e-01
-1.124606001201500227e-01 -9.832220027858148970e-02 4.647530046983069374e-01
-8.828138977173921598e-02 -1.089836161152587801e-01 5.210165587099828688e-01
-6.664171285653375243e-02 -9.843452866323143535e-02 4.624389415516029223e-01
-8.673077760094301258e-02 -8.084268058622534614e-02 4.491239230409145855e-01
-4.268886427449476717e-02 -1.175654371026458173e-01 4.971559309552045502e-01
-2.731472055949844477e-02 -1.155827535456336597e-01 4.848220331049971632e-01
-2.869609277327767050e-02 -1.209103587311227412e-01 5.000209927210005345e-01
-9.284917621403657173e-02 -1.182160956810153207e-01 5.037366450093844206e-01
-1.822148960080738692e-02 -1.176315179831140534e-01 4.836481109149553537e-01
-8.545815535569359356e-02 -9.305006746318192357e-02 4.567729894357735465e-01
-1.074092340998460959e-01 -8.922070654958209890e-02 4.629558228422778199e-01
-6.672628166161466423e-02 -9.513049149577636199e-02 4.593073140428172718e-01
-2.625831971003804791e-02 -1.237281640316768155e-01 5.270181072565726099e-01
-2.552156249945774710e-02 -1.227788395998226506e-01 5.360575308243008541e-01
-7.710147906606944213e-02 -1.188972281903856454e-01 5.074210679891130171e-01
-1.132427860490208826e-01 -1.049597472882036475e-01 4.689475572043003138e-01
-1.428805075192330666e-02 -1.071136437723839846e-01 5.638828016537557053e-01
-3.663142674802432469e-02 -1.118993386205298507e-01 4.823177295190071989e-01
-5.726652523551751389e-02 -1.094315891584087957e-01 4.789115448438447387e-01
-8.165573302151175883e-02 -8.134819867564936635e-02 4.484746637275796033e-01
-5.979985746314139816e-02 -1.169950281931534802e-01 5.269142383661093998e-01
-8.038237518479542099e-02 -1.177893769028270504e-01 5.165832040178428564e-01
-4.003071365310102714e-02 -7.981776188871368694e-02 4.509546389174515224e-01
-4.296190673889706269e-02 -1.149341372413110740e-01 4.895002270063515404e-01
-2.297548318992988226e-02 -1.246730271731626843e-01 5.272447762135812344e-01
-3.874447558671611364e-02 -1.205454702639997544e-01 5.315613498728124497e-01
-1.519784749232436227e-02 -1.006120302296457797e-01 5.649812545239475403e-01
-7.202028115669248387e-02 -1.182472053883299595e-01 5.004583861731520811e-01
-5.284044889031712378e-02 -9.519271085661433485e-02 4.611666693664998040e-01
-7.951624319289281317e-02 -9.043787333545358353e-02 4.550254194335264235e-01
-5.491727026445162446e-02 -1.024671175895887770e-01 4.688216029454484457e-01
-4.326346219355658995e-02 -1.052181449514228290e-01 4.723188015208404367e-01
-6.206016606746359715e-02 -8.625246779367580496e-02 4.531272028010338571e-01
-4.956807626039236303e-02 -1.194487222060545417e-01 5.131355873723705274e-01
-1.804676529711705946e-02 -1.258024821783307046e-01 5.170326997488730036e-01
-2.783983418642939356e-02 -1.113542018547091783e-01 4.778319815963295025e-01
-6.797744222073116849e-02 -1.083983428609366362e-01 4.755729578911944144e-01
-7.465173009163915407e-02 -1.181026256816998937e-01 5.170376636024067718e-01
-8.647229673796288929e-02 -1.176764635088624750e-01 4.938601379789709922e-01
-9.033449819558161953e-02 -1.019168746728579822e-01 4.628325040401551904e-01
-4.042283442091652162e-02 -1.200535599061231529e-01 5.085781845072107066e-01
-5.158293382354961487e-02 -1.047301594855837431e-01 5.387034068262241959e-01
-5.791606970843725388e-02 -1.180474554137808108e-01 5.242866628228682879e-01
-1.167126851257341974e-02 -1.243815222047200408e-01 5.359247585963260452e-01
-2.363287300538953473e-02 -1.123463842078397529e-01 4.766659511893228118e-01
-6.811883308016794536e-02 -1.187240984893780937e-01 5.099078535911077958e-01
-4.272748333480900357e-02 -1.151604502974831468e-01 5.389397589981715919e-01
-4.622442159851931215e-02 -1.189603832399589861e-01 5.056990358599161572e-01
-1.165803662108634287e-01 -1.109670206805224435e-01 4.783367325382378854e-01
-5.364418795279787822e-02 -1.177786083225502572e-01 5.270624217250202692e-01
-4.939195197039408791e-02 -7.948499819198408256e-02 4.510665132194171534e-01
-2.333618126701445319e-02 -1.233465120713321678e-01 5.360534884395593558e-01
-2.023339384079761438e-02 -9.719867428764411565e-02 5.624023227005752190e-01
-8.749813151890398211e-02 -1.128959228437719231e-01 4.752672574967712893e-01
-5.906068177704894978e-02 -6.060106684112708669e-02 4.439796161213931391e-01
-6.004482935166218643e-02 -8.128723690369830945e-02 4.508094722777983288e-01
-2.022166665683182429e-02 -1.215954596699461709e-01 4.947881442403611607e-01
-1.068165788804323751e-01 -9.996720832573836868e-02 4.627116336732415847e-01
-1.136545788410302099e-01 -1.161209691493435975e-01 4.947086948170387188e-01
-1.078583609994667875e-01 -1.146126451670318180e-01 5.051880187844033365e-01
-5.192898056545939417e-02 -6.348005553080095231e-02 4.448906143115363698e-01
-3.724749497821710359e-02 -9.983095016528392707e-02 4.657349268011529153e-01
-1.477403407374464420e-02 -1.222882374263387917e-01 5.446033328830280906e-01
-9.347976141718981891e-02 -1.178262296354222333e-01 5.053072580368248579e-01
-4.968514997558135665e-02 -1.177161476431403953e-01 5.004541408502090061e-01
-6.324763008837280820e-02 -1.122813827841310924e-01 4.844418782962117143e-01
-5.912634606385018532e-02 -1.094518702757900225e-01 4.787007197121959656e-01
-7.425635221301497835e-02 -1.181650486976916076e-01 5.169644072149880420e-01
-5.891129448982454497e-02 -7.928551879423967330e-02 4.501422895112617284e-01
-6.195643680242315932e-02 -6.015311295192031504e-02 4.437569041805622394e-01
-9.048387268711202691e-02 -9.492080952063035315e-02 4.577389975844502468e-01
-2.989010087424208081e-02 -1.003628931873978836e-01 4.634470050404901897e-01
-8.473260685543172743e-02 -1.155480030936471558e-01 5.187490074725594758e-01
-3.599165828511224213e-02 -1.134251331987309597e-01 4.853086105054199018e-01
-2.018633365478098365e-02 -1.253653723874312842e-01 5.207147496295647660e-01
-3.267946352130771809e-02 -1.207434588773010353e-01 5.041463627657962743e-01
-1.816245866589196595e-02 -1.000578887867026034e-01 5.642432367398454440e-01
-6.196658189244041298e-02 -1.096456296115859846e-01 5.322653727179060823e-01
-6.569415644364648421e-02 -1.184412296464218556e-01 5.183192171378164792e-01
-5.964836915248152016e-02 -9.813307668424911534e-02 4.626200400347816322e-01
-1.603835333226432194e-02 -1.176601863480981752e-01 4.829347109348945399e-01
-1.384624623944587241e-02 -1.220055522535271608e-01 5.458334516340153098e-01
-8.094189134943153771e-03 -1.278311845439470684e-01 5.124208735338608989e-01
-1.115565032375805468e-02 -1.204419897406436152e-01 5.491358135752485436e-01
-2.661525588305391557e-02 -9.820963087559933524e-02 4.601136732447987376e-01
-1.142136079510803620e-01 -1.151220587591466893e-01 4.981692689392394624e-01
-2.481911590188161376e-02 -1.013108901961880248e-01 5.560948870050329562e-01
-1.028622729840606292e-01 -1.055983916285750390e-01 4.648100746881649314e-01
-7.626669634287863708e-02 -6.038116370851411008e-02 4.431932787365123749e-01
-7.576129361825403863e-02 -1.186234472753762148e-01 5.119736239463685834e-01
-1.897414532387953559e-02 -9.761304573776154181e-02 5.638136607366451836e-01
-2.755249575997119338e-02 -1.212379209386012235e-01 5.001174195379348708e-01
-1.189976313881387360e-01 -1.117802050361339505e-01 4.941483445544706532e-01
-1.013580450264939675e-01 -1.085831334304815654e-01 4.650792574988569239e-01
-8.403659337464519652e-02 -7.217870127392662927e-02 4.450888549020979301e-01
-1.145714405386074608e-01 -1.096140812386128260e-01 5.030256156934598266e-01
-8.253865978029914507e-02 -1.131615109915484613e-01 4.789698508519169007e-01
-4.146919352123229485e-02 -1.058495433660339158e-01 4.730878848162571870e-01
-8.170217883405803128e-02 -1.159599469221574697e-01 4.887518081844933748e-01
-4.989881545570688803e-02 -1.071255833714132438e-01 4.757502047871192130e-01
-5.210411487261377983e-02 -1.144828716985373945e-01 4.895840052448993673e-01
-2.057636970565147189e-02 -1.203770508271396478e-01 5.476280145496235097e-01
-7.095330009116430914e-02 -1.151525193159845251e-01 4.898281330903241915e-01
-7.376762078603586736e-02 -1.182327245616017347e-01 5.165410351074550821e-01
-9.333683818716789760e-02 -1.182489161428995905e-01 5.030553379760859256e-01
-9.708713920472407388e-03 -1.273830820693013510e-01 5.262102863577490242e-01
-1.221283125530733399e-01 -1.021088021327502260e-01 4.811348987699267110e-01
-5.479731082691777222e-02 -1.157736867486686833e-01 5.314308527255613424e-01
-7.040419992796911886e-02 -6.225863430523703723e-02 4.430381562298940090e-01
-4.558079822630689559e-02 -1.152908799636331583e-01 4.907870295768066993e-01
-7.801049382380054187e-02 -1.033714071498251647e-01 4.669092840158108326e-01
-1.165569790442950171e-01 -1.146012206943602674e-01 4.968896450691283051e-01
-1.893156412327789972e-02 -1.210680016882363930e-01 4.920973004879201085e-01
-1.118945288496733109e-02 -1.254420086195580375e-01 5.327659776777589062e-01
-2.477846985132698202e-02 -1.156952640459586734e-01 4.827886559197694383e-01
-4.528969873930673018e-02 -1.139887019779235594e-01 5.381282702240549609e-01
-1.038553920256850005e-01 -1.032870520405137771e-01 4.637431622736741810e-01
-2.340204766069926140e-02 -1.181974842214464083e-01 5.506366567652319910e-01
-2.174089372912728010e-02 -1.248641482231277050e-01 5.289115036374364420e-01
-1.530979578469212656e-02 -1.194121705357440721e-01 5.513543152361796151e-01
-2.326714254348535155e-02 -1.231501042396700579e-01 5.370657787758483792e-01
-9.635876855043512546e-02 -1.201643646859139741e-01 4.872209648652333080e-01
-7.930986406202152061e-02 -1.122546367731981076e-01 4.788966467406137739e-01
-3.555951136456973055e-02 -8.269168591294664972e-02 4.514303910152883126e-01
-8.620345763769191039e-02 -1.183190116154582694e-01 5.065558065775215280e-01
-3.469548307033664541e-02 -8.762497339900916782e-02 4.549274767029397037e-01
-1.025469507524872231e-01 -8.531759387128863559e-02 4.596392756129819013e-01
-9.173744363945550429e-02 -1.114653278030891398e-01 5.184331129983744679e-01
-7.653694078817982471e-02 -7.559511817112871124e-02 4.457948228955294634e-01
-5.714151403995136602e-02 -1.158189346796724833e-01 4.948913728901280229e-01
-3.058701068024265168e-02 -1.217794503046438770e-01 5.071637871765786176e-01
-3.122258267697327130e-02 -9.492746729527157257e-02 4.594087226480950137e-01
-4.394584371095162229e-02 -8.909259644995737304e-02 4.570257834621351267e-01
-4.696235264651735242e-02 -1.196779008291421892e-01 5.125624687454850559e-01
-1.058220337940006806e-01 -9.035762320393135594e-02 4.602187404170020590e-01
-9.002879304787782255e-02 -9.493320369843197271e-02 4.577676101482280879e-01
-5.500848836029330335e-02 -9.906721488564243505e-02 4.642059380800735435e-01
-1.018349637767210075e-01 -8.534702134973684573e-02 4.585621594387410682e-01
-1.438956347991294377e-02 -1.265614455037267772e-01 5.116717390990911385e-01
-8.355832148113134794e-02 -1.186438728642740248e-01 5.034295160222799215e-01
-3.369331989349920453e-02 -1.140683255690718156e-01 5.457734084309858735e-01
-2.940034218455372939e-02 -1.208074309437553312e-01 5.003643338787203687e-01
-3.786071605297752773e-02 -1.187929807948152616e-01 4.997839582147311499e-01
-7.665430094151345908e-02 -1.123254924471654842e-01 4.805644895728053423e-01
-4.189833473933092522e-02 -1.189332250659988349e-01 5.024868859223580175e-01
-5.830481037240180936e-02 -1.177525409765597941e-01 5.252119709246308998e-01
-1.267908862561630164e-02 -1.216696175440280109e-01 4.905562048987143209e-01
-3.658523018749897104e-02 -1.101986575601000412e-01 4.789501970506206963e-01
-2.477789874265620695e-02 -1.146909760429903335e-01 4.811146646587106668e-01
-7.137321516083687534e-02 -1.165879188016473167e-01 5.217263886243487248e-01
-1.147115196356569486e-02 -1.239306423099174048e-01 4.965726177857042178e-01
-1.033689692724736875e-01 -1.185258080277434845e-01 4.964926661403610830e-01
-1.443377608654419948e-02 -1.233519032455674680e-01 4.960423134704738946e-01
-4.716539695510869185e-02 -1.190999265441150118e-01 5.301009222043358005e-01
-3.705254120670000567e-02 -1.008357296608429626e-01 4.666722820079822198e-01
-8.882821496733710187e-02 -1.175458352647796995e-01 5.119873617694681300e-01
-1.087452452808362058e-01 -1.154774942864731507e-01 5.027052129010679549e-01
-5.926576204676346771e-02 -9.864571081501889716e-02 4.631451271014380699e-01
-5.428175574201440229e-02 -6.886605989234106939e-02 4.465439971281774945e-01
-7.027558973411923704e-02 -1.113909191340264199e-01 4.811713257236031605e-01
-7.334556095497504757e-02 -1.128390395194746876e-01 4.839400366450487545e-01
-4.789782399728036849e-02 -1.198311564535200213e-01 5.175247265886999681e-01
-5.288956236819489232e-02 -1.121343550770140390e-01 5.354635474411981733e-01
-7.630686402588209016e-02 -6.584483810104185819e-02 4.427720586484203413e-01
-5.390446278774198990e-02 -7.115523104217197359e-02 4.475167235489453943e-01
-3.061918117807200038e-02 -1.163099880157101723e-01 4.895217556426873506e-01
-2.241734507730258272e-02 -1.092438250610332368e-01 4.712345426759789180e-01
-7.911466497538113818e-02 -1.188917230053560259e-01 5.055405558330252624e-01
-7.220337083637114184e-02 -5.792511267047170676e-02 4.434963131872490805e-01
-3.980908589545387177e-02 -1.043132735275050654e-01 4.709347142128439967e-01
-2.361865842524354248e-02 -1.019638059319750711e-01 5.586209804557191738e-01
-1.896326633701100189e-02 -9.813317112524468089e-02 5.638383917523011046e-01
-1.007266746310404859e-01 -8.118807649439280238e-02 4.604888811330591358e-01
-8.251433495073379198e-02 -8.131609869823876180e-02 4.485774711054970054e-01
-1.813645779765351781e-02 -1.258275059406591401e-01 5.185666138316856744e-01
-1.419077858039298652e-02 -1.214889721503281117e-01 4.906350236902442541e-01
-1.167756378042252019e-01 -1.145142974494322285e-01 4.894038495075657136e-01
-1.195947509275759463e-01 -1.092228184309234490e-01 4.939636156186049676e-01
-3.290842321624293937e-02 -1.201854513120195339e-01 5.016429161075613985e-01
-8.676624635680130204e-02 -8.749484671921432810e-02 4.528446163453884177e-01
-2.138235036955421151e-02 -1.103619125310015825e-01 5.600453903913886755e-01
-8.422969972734078992e-02 -8.224478535780908872e-02 4.492918203921915654e-01
-3.549218019132106133e-02 -1.141870922471107802e-01 4.868371659489176273e-01
-1.215310378726753293e-01 -1.028597222262113420e-01 4.796414908196318105e-01
-7.521983739718754447e-02 -7.616700152247721234e-02 4.460695932799951802e-01
-4.916783567283605078e-02 -1.134608891241640077e-01 4.867900087415256150e-01
-3.663465867434330392e-02 -8.109880996464365055e-02 4.507574210015475868e-01
-3.224677633922213432e-02 -1.222774437277034248e-01 5.198410340381575123e-01
-7.261971033954381372e-02 -1.177926625661046139e-01 4.968502355910653923e-01
-1.186539138987201814e-01 -1.125241392248664818e-01 4.942896380365305875e-01
-4.755417572995426084e-02 -1.121635679688714055e-01 4.837288254936905063e-01
-8.515620754450443919e-02 -7.113128381650007936e-02 4.454639003132146446e-01
-8.266843594395277550e-02 -1.107849452227190890e-01 4.759591846149339167e-01
-5.322647378666543749e-02 -1.037518680726207676e-01 4.706641669057632371e-01
-1.466607629613258731e-02 -1.171471449104214413e-01 5.553104700353915790e-01
-1.027027611642495064e-01 -1.031748885227521395e-01 4.634088015391240600e-01
-6.445208004304703309e-02 -1.186088043154946703e-01 5.081565163423109599e-01
-4.557960740393847410e-02 -1.191113129326221987e-01 5.062906931836186342e-01
-2.972541689621776076e-02 -1.046252569733108068e-01 4.686741154054225311e-01
-6.012086640598202775e-02 -1.148597001168571857e-01 4.916371378689196048e-01
-8.977092573554126820e-02 -1.190182402586532767e-01 4.963818166117580089e-01
-5.861294132572490712e-02 -1.177392999550888331e-01 5.042045216814936559e-01
-1.547087498106582137e-02 -9.717250883535040462e-02 5.660392660025755918e-01
-9.779652718628832619e-02 -1.023846033822969626e-01 4.630585136508781896e-01
-1.046022617161438267e-01 -8.859805840120542342e-02 4.598267180915214247e-01
-3.374497771477808633e-02 -1.220211334801990510e-01 5.217862164235349542e-01
-3.979277294132256559e-02 -1.058166887281587060e-01 4.728589984512051037e-01
-5.588792929463486103e-02 -1.185837039191012660e-01 5.086619793563593728e-01
-6.346482463493835491e-02 -1.071096950512008261e-01 5.323221385834339126e-01
-6.306639387458658208e-02 -9.626535873765930396e-02 4.605927463961418944e-01
-1.214805464426787183e-02 -1.232850790316316891e-01 5.396829103511918690e-01
-5.968871797598095802e-02 -1.091737180657440104e-01 4.780693694681714123e-01
-1.120247847954254777e-01 -1.050593753456247753e-01 4.683446441754031686e-01
-3.774665402724110275e-02 -1.212173310558900541e-01 5.266357835192438941e-01
-2.190467857101437849e-02 -1.079125384783412023e-01 5.603958612622065294e-01
-8.942656756067038359e-02 -9.991926714163333612e-02 4.614396868751123315e-01
-9.122502372508495272e-02 -1.139807434690664895e-01 5.174450056248918184e-01
-4.238262235602821559e-02 -1.158273380214396436e-01 5.388020021686003025e-01
-9.920697677782838730e-02 -1.146812121090304976e-01 5.108638360161450453e-01
-4.722507039660058664e-02 -1.198093870751530815e-01 5.210443539752955822e-01
-6.609486752933591003e-02 -1.173638415920073841e-01 4.991108595060740893e-01
-2.911541450245924353e-02 -1.181825652792944936e-01 4.922902981161055291e-01
-2.083889365169574320e-02 -1.248707473165503873e-01 5.303419521874288556e-01
-1.535139381221928973e-02 -1.259348703923678092e-01 5.284260129935512973e-01
-2.678445723425238942e-02 -1.205015430843543733e-01 4.972734617291589276e-01
-1.080784842628254167e-01 -1.184508074003596534e-01 4.937240425494482943e-01
-8.084067985721597738e-02 -1.188342307134629267e-01 5.043297866064638812e-01
-5.345643149225169644e-02 -5.883014865624813794e-02 4.436861565088122683e-01
-6.463956974008361334e-02 -1.167641026939513216e-01 4.974457963426198726e-01
-4.224761156894871195e-02 -1.115947172547376992e-01 4.825048120512874794e-01
-2.071874116779925598e-02 -1.124314934965915946e-01 5.584450500824321706e-01
-9.903545795719820299e-02 -1.188390102931218828e-01 4.773015356212463867e-01
-7.748943050657271236e-02 -1.188512493674181991e-01 5.017022601916609759e-01
-4.554818253727369731e-02 -1.199771072875220335e-01 5.264890515837735707e-01
-7.597199681454341880e-02 -8.141337158398087581e-02 4.481946413891229053e-01
-5.634200958998288045e-02 -9.845551725431248014e-02 4.634159502657628216e-01
-7.288391845165680116e-02 -1.162751073307405209e-01 4.920277494983366640e-01
-2.506539985066169943e-02 -1.140116686063537971e-01 5.545926184506768664e-01
-8.725826127891875283e-02 -1.136133693336618816e-01 4.766971055192685824e-01
-7.342659696537646996e-02 -5.805372890616835452e-02 4.436417236842812306e-01
-4.536197274127466705e-02 -8.739438512983049856e-02 4.557216667851551883e-01
-1.152501023216499498e-01 -9.635540028926137257e-02 4.688945609870885378e-01
-1.177618274828699518e-01 -1.119927316177961457e-01 4.831891744968342395e-01
-3.541730996207880650e-02 -1.217074828104475204e-01 5.236534197834387117e-01
-7.025737847744040546e-03 -1.233601396286052032e-01 5.371895763210269292e-01
-9.100036280917402076e-02 -8.759940184314407574e-02 4.537035876552778513e-01
-5.105726705879746335e-02 -1.184269914940464657e-01 5.263445106392400374e-01
-1.715195796905135892e-02 -1.170098368452975324e-01 4.819472760627425689e-01
-8.158036387938472078e-02 -6.506392411723482816e-02 4.436511378064758593e-01
-2.510563865265867667e-02 -1.125535182158846625e-01 5.553744587678093314e-01
-1.440170110677565368e-02 -1.268308268504573788e-01 5.218958100823544166e-01
-3.469849867667473831e-02 -1.172802102674878333e-01 4.930830126550253545e-01
-1.062119905399602493e-01 -1.189811256453520150e-01 4.789718958408811234e-01
-3.192597315887533982e-02 -1.108088936983433193e-01 5.479257302464349833e-01
-1.137050986335194080e-01 -1.161261266543423681e-01 4.946105580492026754e-01
-5.218666997992473661e-02 -1.193143257182754796e-01 5.223803635265004131e-01
-3.375047579324066960e-02 -1.153854577671465376e-01 5.452181190192667559e-01
-8.649328807589856671e-02 -1.182681328992904457e-01 5.067302086698158847e-01
-5.110180908443064107e-02 -1.061836647251008375e-01 4.743121454167209539e-01
-7.815317029932483672e-02 -1.146266441080149995e-01 4.869481809808330897e-01
-1.545394955658469828e-02 -1.194686422733276798e-01 4.865734197160266894e-01
-4.390578773359502668e-02 -1.201551304322266422e-01 5.281525245980180916e-01
-2.379776354584604847e-02 -1.242934147537522044e-01 5.161561853561863478e-01
-1.814165790583774709e-02 -1.219067170994544425e-01 4.940500700194441763e-01
-9.314248584922008023e-02 -1.155259148778403494e-01 5.151760342984468277e-01
-1.029096693013110131e-01 -1.143652166439251550e-01 5.085345664747086269e-01
-1.115091208359547531e-01 -1.159797000023804064e-01 4.985196177088833114e-01
-1.062130127378281552e-01 -9.540819217599766366e-02 4.603514536144629465e-01
-5.241624548811332773e-02 -1.096957887220678662e-01 5.371058799218875190e-01
-5.970697678499188588e-02 -1.171190018649555381e-01 5.266246942601129355e-01
-6.962558238308882985e-02 -7.140611014049150218e-02 4.452890820675632910e-01
-6.955834802234668601e-02 -1.132532265004471822e-01 4.860726643308894146e-01
-4.110128920028756350e-02 -8.428031607861881380e-02 4.535673185667487561e-01
-1.480567812762076732e-02 -1.261374592473659406e-01 5.265744627076264228e-01
-8.514111545264085867e-02 -1.168872037845040401e-01 4.869863060918619979e-01
-3.700913388355169670e-02 -7.943030892325983472e-02 4.498610675400297465e-01
-5.795181990829226942e-02 -1.126548005007176612e-01 5.329006958418116557e-01
-1.302919214774712030e-02 -1.231564365195865624e-01 5.406189505868120859e-01
-6.054227720726122752e-02 -8.553440953297035410e-02 4.529021529721979356e-01
-2.970849147931651016e-02 -1.074602644674182289e-01 4.728402646429472056e-01
-1.102517508029849866e-02 -1.162234777300203692e-01 5.566102071306102683e-01
-5.084545062209373800e-02 -1.026667460909985591e-01 4.693452234803203171e-01
-5.632824420423865330e-02 -9.577182190733600498e-02 4.611562890591633379e-01
-4.832919123888555074e-02 -1.060149897242949196e-01 4.739248707695553064e-01
-2.602692625067760945e-02 -1.237981078650913780e-01 5.282525422099815238e-01
-1.029874914027610056e-01 -9.025769324200988430e-02 4.583858785397518787e-01
-8.182927854896307474e-02 -1.139307109655378347e-01 4.814052294732928394e-01
-1.103714002660886317e-01 -1.189029953565971520e-01 4.837806403083163564e-01
-1.057327733109236223e-01 -1.100675745241717629e-01 4.684853387968009875e-01
-5.483280439247049942e-02 -7.097536524618433540e-02 4.474182286693791366e-01
-1.925222042126843724e-02 -1.159710541547023382e-01 4.804803957598752229e-01
-7.335751000764438590e-02 -7.044798615474141823e-02 4.443977130485172733e-01
-5.514987719971735369e-02 -1.082843214053119396e-01 4.775096168740571301e-01
-1.034596108974523976e-01 -1.152491230482305673e-01 4.712085144903612743e-01
-6.902709066933920834e-02 -1.186069179452352018e-01 5.078709234750776735e-01
-7.150866505289775465e-02 -1.007127555748808384e-01 4.642220016134452343e-01
-5.277163346666660648e-02 -1.184692382379226583e-01 5.061338942525095419e-01
-7.343898825376400652e-02 -9.708723284944570375e-02 4.608977591016843456e-01
-2.697365974823786108e-02 -1.230472512304980615e-01 5.105402371794955929e-01
-7.695823914112522035e-02 -1.151655601193022349e-01 5.232188099961181393e-01
-1.068315766146463730e-01 -1.195524871874016071e-01 4.887406021943326295e-01
-2.315911020687634256e-02 -1.073700024093290906e-01 5.587923562976913061e-01
-3.955112806833126909e-02 -1.206120305618468974e-01 5.292249009663626547e-01
-1.945747019826298344e-02 -1.153705402032921268e-01 4.793807755046142205e-01
-9.487861916830478415e-02 -1.199514199221946575e-01 4.872299196880711669e-01
-4.622117735571387026e-02 -1.197566143746121581e-01 5.279373124297157549e-01
-8.219513686232474137e-02 -6.802593637552184491e-02 4.439918253181991958e-01
-1.189471549164059089e-01 -1.091561769994493641e-01 4.808334189864130748e-01
-2.712572920458754949e-02 -1.234729853544804801e-01 5.273927560809381632e-01
-1.154979098307284263e-01 -9.537191143529379078e-02 4.699823793203545264e-01
-9.634880041658494543e-03 -1.239419326935095184e-01 5.364562432778451351e-01
-1.037664423801449715e-01 -1.208173329309323030e-01 4.850074560322509831e-01
-1.196354947405084274e-01 -1.083973042328943009e-01 4.941506541067587910e-01
-7.256557391227992648e-02 -8.693359665158074956e-02 4.524098022575789857e-01
-8.126131785848944578e-02 -1.034353327713352644e-01 4.663945855657244954e-01
-1.734992313547143936e-02 -1.203650516090713218e-01 5.488001208523765051e-01
-8.727661899632987996e-02 -1.172467176496377883e-01 4.866572000182182722e-01
-9.403285058810570418e-02 -9.035904965193237992e-02 4.551655983831667251e-01
-5.838618418771411578e-02 -8.726189859066837973e-02 4.542039479167923610e-01
-3.061592264753681958e-02 -1.159812885194334287e-01 4.888162993186484506e-01
-6.396159652754421221e-02 -5.985406853230795798e-02 4.434733903686947087e-01
-7.323984149802592603e-02 -8.415599350239169607e-02 4.504129444747604349e-01
-9.903560474418142412e-02 -1.184654829626299866e-01 4.967325228494942069e-01
-9.170458962402452952e-02 -1.076178415019086454e-01 4.668804610406165345e-01
-2.665693237455669246e-02 -1.049082490840889392e-01 4.675582335309779736e-01
-4.976900742132672750e-02 -1.054610975748555834e-01 4.731245437461266135e-01
-3.322771786936090654e-02 -1.132941605194500156e-01 4.841635824957464251e-01
-1.072618781938423360e-01 -9.514010519728743898e-02 4.609884133262329708e-01
-1.150598524673703965e-01 -1.085270748677816810e-01 4.738109122662862993e-01
-9.519625543605576834e-02 -1.163232000694218449e-01 4.759608362927104652e-01
-7.722719707773563480e-02 -1.051405162475795296e-01 4.688546226960309538e-01
-4.560150051422559581e-02 -1.112268323493937894e-01 4.819705305708041898e-01
-1.038071262180955967e-01 -1.193286833221672977e-01 4.915252323533479406e-01
-5.640065574837182377e-02 -9.759310389048496404e-02 4.626680415347877995e-01
-2.548083811220791528e-02 -1.196747313061438805e-01 5.460983017734332146e-01
-2.074159027560285029e-02 -1.176060594315047197e-01 4.845650853609438924e-01
-1.067867064699594415e-02 -1.256479880916093472e-01 5.019624575938463895e-01
-5.515796872064556572e-02 -1.186458847746029166e-01 5.085954918968911276e-01
-9.614840766699153662e-02 -1.153119226724177993e-01 5.145959357361785669e-01
-9.214068194928386191e-02 -8.199392339469668833e-02 4.513073176772309791e-01
-5.053851271187506655e-02 -1.105794061722853439e-01 4.810667855115567937e-01
-9.559907850771889870e-02 -1.134120508635328844e-01 4.711612460357207932e-01
-5.983288895399484913e-02 -1.058748274904797865e-01 4.724037773858432709e-01
-1.043335456757894242e-01 -1.035655545248016507e-01 4.640265951516771570e-01
-7.214321266133845445e-02 -5.625922150545276113e-02 4.440101206439988069e-01
-1.450118028748356540e-02 -1.234996598442866245e-01 5.393084272191395190e-01
-1.682013950332053240e-02 -1.256852315552903221e-01 5.080220137242568157e-01
-1.151771946889482146e-01 -1.129363699903767476e-01 4.791080772879995897e-01
-7.028843220620886734e-02 -6.971782635210914403e-02 4.446383671187766340e-01
-3.047664505366477761e-02 -1.225752148500166699e-01 5.182937693281485236e-01
-1.752748301889388294e-02 -1.260219650681082271e-01 5.196977824911934718e-01
-3.521235843917077529e-02 -9.794052187331818426e-02 4.634968554955594122e-01
-1.082005186837416283e-01 -1.167136663353202930e-01 4.995475385653548872e-01
-3.805299512869390888e-02 -1.202611710279520296e-01 5.081323763669858273e-01
-2.316819905118331149e-02 -1.181496333887052108e-01 4.872398614141344453e-01
-2.013816942489233749e-02 -1.070461175151641020e-01 5.623584481717334160e-01
-1.539663094613743372e-02 -1.263021765842993194e-01 5.114318931265893209e-01
-6.526373999727548385e-03 -9.733348538036953879e-02 5.690135140232887023e-01
-3.501846134212747985e-02 -1.206621430010795804e-01 5.068750010176596987e-01
-7.026240620975936213e-02 -1.153047744824868132e-01 4.903564682258644836e-01
-7.151909991412970513e-02 -7.720496260665597743e-02 4.470366900256835807e-01
-3.180561880252954360e-02 -9.718966786115794398e-02 4.614810139158057600e-01
-8.899571433036547463e-02 -1.096744904330542170e-01 5.203967648741575358e-01
-1.397893836162244358e-02 -1.208546574717425520e-01 5.488652559836467715e-01
-9.032554914695450909e-02 -1.097176708829590841e-01 4.696126181202453509e-01
-5.582144994849054520e-03 -1.211236479150292894e-01 5.400319458229462244e-01
-1.219133938336383893e-01 -1.031798593921476326e-01 4.844661908421863949e-01
-7.805193533597155897e-02 -1.188322170353277585e-01 5.015010086779889686e-01
-7.645095862889189631e-02 -8.931586598958093925e-02 4.541156888517388635e-01
-7.588403463071245053e-03 -1.279839543724879403e-01 5.131190062562173138e-01
-4.381636860335933609e-02 -1.053587385257697545e-01 4.725403315452853525e-01
-1.617672941796648167e-02 -1.175386333726475691e-01 4.827254116608981072e-01
-8.831654141041779538e-02 -8.106220399338001648e-02 4.496068637936281309e-01
-3.826355423233189501e-02 -1.188594711221143269e-01 5.002642173127002101e-01
-4.826450580145436736e-02 -8.138984596579990072e-02 4.520486081480740714e-01
-8.098118988750857561e-02 -9.177829224543210263e-02 4.560348221036782945e-01
-2.365412461073352832e-02 -1.244334561657304411e-01 5.195619348520054137e-01
-7.351119475145240223e-02 -1.169617545340187331e-01 5.208822834739851304e-01
-6.296480600977437392e-02 -8.554867923603916291e-02 4.525795059642939155e-01
-6.932029241285551924e-02 -1.184902204487828237e-01 5.050013895052966051e-01
-6.994959785970747412e-02 -8.720448404104448603e-02 4.528360193991439187e-01
-1.092773205076037410e-02 -1.262338862425645136e-01 5.049132827062924322e-01
-6.421331374340907838e-02 -1.063655365983406653e-01 4.721040360483051979e-01
-7.357442697245704377e-02 -1.183160750682289014e-01 5.156545704722383938e-01
-3.045920903412504752e-02 -9.417396121240646789e-02 4.585830092989710005e-01
-3.914732536465515694e-02 -9.293378248690155330e-02 4.601349738017720958e-01
-7.580000004471799946e-02 -7.358536981385435660e-02 4.451372190867341483e-01
-3.930778820215953540e-02 -1.136276707171330336e-01 4.862529279801252602e-01
-7.247991267351613920e-02 -1.188827703718744466e-01 5.060101347160875784e-01
-1.030217937342432638e-01 -1.075586514395659443e-01 4.657730065963409105e-01
-1.000423334924740865e-01 -1.139718371666939567e-01 5.111119433678381618e-01
-1.326074237643274853e-02 -1.100380686135973701e-01 5.626025593430756810e-01
-9.897620839397573353e-03 -1.278356676788927615e-01 5.188881975652416267e-01
-8.410395540481747922e-02 -1.186297159268846907e-01 5.062543189721900871e-01
-1.080618426340930888e-01 -1.116320361967052116e-01 4.719330442558988814e-01
-2.956255553132004082e-02 -1.223432089064206835e-01 5.325100393996274883e-01
-8.643124353926899539e-02 -7.813101813729010636e-02 4.475754667980169632e-01
-9.821862840211387224e-02 -1.133079525918063019e-01 5.138495653428351018e-01
-2.364830566742908216e-02 -1.187169143707114821e-01 4.892592983207147972e-01
-6.727973979040914598e-02 -8.533913506840345997e-02 4.518884527324877887e-01
-4.520595532479450979e-02 -1.201683685350342368e-01 5.176999102932893226e-01
-5.939377679690802797e-02 -7.702350970580447431e-02 4.491965051287550303e-01
-4.977240621399700582e-02 -1.099676866683642201e-01 5.382642318424567529e-01
-4.013838929816055529e-02 -1.207189657153377865e-01 5.157506891455789777e-01
-7.643614092586714648e-02 -7.860419803833314234e-02 4.469002686831170523e-01
-5.090884402626290328e-02 -9.666137707279712221e-02 4.627721124243839301e-01
-7.154838735984861420e-02 -9.436279706918855592e-02 4.584176399411131753e-01
-1.026013610989319202e-01 -1.081196103945517017e-01 4.657292381675109949e-01
-4.989770118324581699e-02 -1.187423352856674524e-01 5.065244286863591627e-01
-2.996327891637452084e-02 -9.868135216597966053e-02 4.619898925701972914e-01
-1.182000652162494975e-01 -9.749875407529068339e-02 4.750007492762983174e-01
-8.934461016892174257e-02 -9.307764467690697596e-02 4.567121097897434145e-01
-6.302963043948031641e-02 -8.983703479775261014e-02 4.553695781193362047e-01
-6.230903047121193888e-02 -7.430480285920909589e-02 4.478203374362897393e-01
-2.746713082355817237e-02 -1.210556039985383608e-01 4.994777218781127903e-01
-5.684975093060084389e-02 -8.329459926720671203e-02 4.521311222904001448e-01
-4.195822868073148526e-02 -1.143978231751897057e-01 5.398176729196746404e-01
-1.125993377933329903e-01 -1.014751749484492926e-01 4.657195290216539219e-01
-7.116840485524641990e-02 -1.182929011345214554e-01 5.163048511952418318e-01
-6.628017086937541824e-02 -1.012946428136536625e-01 4.654500654291565676e-01
-8.707791775652420907e-02 -1.185070928205388674e-01 4.957929334090115936e-01
-7.414545063151327386e-02 -1.093254600402364246e-01 4.762707156443101719e-01
-1.150248360298670169e-01 -9.533208084040943608e-02 4.688921160060579019e-01
-1.184956555410751067e-01 -1.126471443406082545e-01 4.924794810178056426e-01
-1.046932271494705330e-01 -1.188886965214279445e-01 4.778036999669292850e-01
-6.965007856564192634e-02 -1.119961625642019870e-01 4.829513337220645020e-01
-1.020349339940277156e-01 -9.311570022771695210e-02 4.582099989649320859e-01
-6.787352256104252357e-02 -1.093712358377777888e-01 4.777105019353766191e-01
-4.668661423525877208e-02 -8.978903155352431498e-02 4.575819087850802602e-01
-1.510365000585494472e-02 -1.215560687775145421e-01 4.910984031527875215e-01
-7.489380639761650249e-02 -1.187708073821573673e-01 5.107384131087139290e-01
-6.996418521480315955e-02 -1.153328785975011872e-01 4.905080334419384958e-01
-8.172493054847777827e-02 -7.172348169958671360e-02 4.446609801989070410e-01
-3.705036422946740224e-03 -1.285849315274257276e-01 5.243184187078424596e-01
-4.426016407003419834e-02 -8.099467114134881185e-02 4.517522531595262736e-01
-1.879962372605490165e-02 -1.132006086341901113e-01 4.753261222191366153e-01
-1.047301723417062846e-01 -8.858787333288013766e-02 4.600150979078050373e-01
-5.165665427042404056e-02 -7.085742157765889671e-02 4.474219288278585283e-01
-1.110162031878998007e-01 -1.144379788272605891e-01 5.035635627641341650e-01
-4.688879671015327294e-02 -1.186176475278591103e-01 5.037816509176378243e-01
-9.540425541087052541e-02 -8.743208618504894059e-02 4.538615982069219568e-01
-5.809277855023913667e-02 -1.161867244761998763e-01 4.965121315945498770e-01
-1.150616626453992708e-01 -1.151466746893407278e-01 4.967886599408533610e-01
-4.036919600202337061e-02 -1.152594129594084749e-01 5.403899619824836797e-01
-2.232270766867418699e-03 -1.285379294851031751e-01 5.172657795943715886e-01
-3.140829069942444735e-02 -1.215671493788855750e-01 5.351242537323989135e-01
-8.282455710734591692e-02 -8.829717320147716098e-02 4.533368355297109908e-01
-6.621378589205094423e-02 -1.163513804308576594e-01 4.952103962984803487e-01
-1.035101707991444020e-02 -1.174922047689562765e-01 5.544201014206269207e-01
-1.090847305466820377e-01 -1.176008775124743611e-01 4.955655333317495748e-01
-2.016219954581450341e-02 -1.190957962981362417e-01 4.874573854996923639e-01
-1.109717184382852800e-01 -9.567506878208498211e-02 4.635559874886494014e-01
-2.219808468934850523e-02 -1.248357140897996959e-01 5.204337282651395613e-01
-9.585900235987335205e-02 -1.171941729808596983e-01 4.773419874403722618e-01
-5.894723691075370170e-02 -1.184007028516058657e-01 5.099175941942686308e-01
-2.099771146275425035e-02 -1.169532783936339526e-01 5.540818083459525534e-01
-9.318796576758815037e-03 -1.177757059728648664e-01 5.538718427345563633e-01
-1.185636308187264371e-01 -1.045528661855050362e-01 4.752825378731821981e-01
-1.025546902449431808e-01 -1.132322381302672543e-01 5.094864607031934778e-01
-1.613111475516395762e-02 -1.240240148276478688e-01 4.996875159085901741e-01
-1.064241584938219048e-01 -9.598727746578254727e-02 4.607292614313623358e-01
-5.844737591617745615e-02 -1.182529724695895179e-01 5.074761888874304017e-01
-3.856141750294750370e-02 -1.013835426661725270e-01 4.676025266629024735e-01
-6.394078415297586859e-02 -1.095513146309915337e-01 4.788150215494797468e-01
-1.146945545368061870e-01 -1.158012843920538520e-01 4.902151452951002963e-01
-7.023664513524256747e-02 -6.028273448996902123e-02 4.427485931681994225e-01
-2.018727837377601309e-02 -1.237734581006866008e-01 5.029959662748556548e-01
-2.527585318721256233e-02 -1.240205646988628840e-01 5.276434870421486956e-01
-5.191194924055445026e-02 -1.193164086868242213e-01 5.125807196914444752e-01
-5.798270768646883455e-02 -1.008552708824664995e-01 4.658454846131598881e-01
-1.181457094290261356e-01 -1.133424719152471422e-01 4.969869246052526224e-01
-2.684385022619970723e-02 -1.192269155911146877e-01 4.932581004015370585e-01
-5.123274324433853971e-02 -1.193843664675805077e-01 5.226741401353066641e-01
-2.790863773095168462e-02 -1.204512821326518268e-01 5.431592231020555550e-01
-9.745772002088486097e-02 -1.195722542551760637e-01 4.816918188615160745e-01
-1.152338495042627420e-01 -1.030575179809645886e-01 4.690220815686085842e-01
-7.168029206280968069e-02 -9.453807067185480972e-02 4.585775770489294301e-01
-7.215856091602459998e-02 -6.008511146778600792e-02 4.427592742365148992e-01
-2.239065123975781182e-02 -1.150418630733048286e-01 5.555009313959303752e-01
-4.754946984741965921e-02 -1.190312088539875052e-01 5.071151862624213580e-01
-4.468438616851951733e-02 -1.150835604640213367e-01 4.900212740006671952e-01
-7.503210912545263400e-02 -1.175254672827205638e-01 5.187774237162963153e-01
-2.225312494200140309e-02 -1.189463991835585654e-01 5.499159499236612181e-01
-6.377452646154993521e-02 -7.477142748793684512e-02 4.476618893632082763e-01
-2.108027010744496776e-02 -9.575833348653046972e-02 5.607459354245649674e-01
-9.214359384901514571e-02 -1.183215498655571102e-01 5.031769860424130103e-01
-7.612514101922919496e-02 -1.135062627339054053e-01 4.846216736575528761e-01
-8.573912895606963791e-02 -7.699996321834681745e-02 4.468041001021091918e-01
-8.957759847595837821e-02 -8.486236691283108313e-02 4.517371346343468375e-01
-1.032770701562336635e-01 -8.912629902280312655e-02 4.584382392363789971e-01
-8.807100486510030524e-02 -7.081860406259778140e-02 4.473663725464114282e-01
-2.159921294436784045e-02 -1.192958494329170727e-01 4.891982295622579469e-01
-7.142472865715686348e-02 -1.159317086880900377e-01 4.915983886554129434e-01
-3.614013551893228288e-02 -1.181293539049575320e-01 4.963769022541199005e-01
-3.513416322220350163e-02 -1.212265455804261982e-01 5.314794704752453525e-01
-2.219707550879400013e-02 -1.237245126718244242e-01 5.351870857144891414e-01
-3.554199965143973322e-02 -1.156887616334738023e-01 5.433557836167364208e-01
-2.288416800280432609e-02 -1.233633607575896213e-01 5.363561012896159719e-01
-8.444533949622907987e-02 -1.095356008258935587e-01 5.228049030927978125e-01
