-4.295213257488234015e-02 -7.916012329754545940e-02 4.508511850609954741e-01
-9.939843507751598695e-02 -1.130651496495424790e-01 5.131745369692194414e-01
-1.075289493095935578e-01 -1.199356136836833980e-01 4.809665413389909716e-01
-1.153420632090910031e-01 -1.100995858491312096e-01 5.023054648674034617e-01
-4.790507554105408183e-02 -1.195009303277642654e-01 5.117259008171025636e-01
-1.020095571208698981e-01 -1.063278689837162394e-01 5.128447688043741293e-01
-6.163512553532977251e-02 -1.057380657714450389e-01 4.720151906483645576e-01
-1.041881241498190114e-01 -1.005262964246555896e-01 4.625063892423881273e-01
-5.364481691115594725e-02 -1.192310278122966222e-01 5.205412084159468655e-01
-8.739937383645522695e-02 -1.179475734274725851e-01 5.090149930960490288e-01
-5.413169107292031823e-02 -1.134843861651677333e-01 5.341925666274512929e-01
-5.098313097447490505e-02 -6.713783805530330884e-02 4.461906759357829877e-01
-9.057429378233113060e-02 -1.180674362843861513e-01 5.060427032549530413e-01
-8.213929594792926392e-02 -1.174071364714002891e-01 4.937816113704919796e-01
-7.282914114152636009e-02 -1.022804581282091702e-01 4.664041017444436887e-01
-5.765845477924989165e-02 -1.052202456128326774e-01 5.354434304069165540e-01
-5.047948023755748082e-02 -1.173168842390751587e-01 4.991467594146283271e-01
-1.193186608107504876e-01 -1.100387776519859556e-01 4.952320432102758629e-01
-4.935671379605291453e-02 -9.126124403806910867e-02 4.585013781193392757e-01
-8.328270456125852483e-02 -8.376599048950304771e-02 4.504426020671575270e-01
-3.044769719860400403e-02 -1.068199958525477278e-01 4.721726770015766683e-01
-3.703157086283727362e-02 -1.207824189908698331e-01 5.112692406260267441e-01
-2.306457054040885954e-02 -1.168211137870227151e-01 5.530076317963046328e-01
-9.464837434014097828e-02 -1.173683710102193245e-01 5.070528562691563046e-01
-1.104784515379925586e-01 -1.093485395526057197e-01 5.072859995823866264e-01
-2.737744709683058789e-02 -1.113924944295927727e-01 5.539132810466298462e-01
-6.324860443992728898e-02 -8.876164036628357568e-02 4.547346147122591775e-01
-7.805258294976685773e-02 -1.156907302567841550e-01 5.222054759806694646e-01
-4.758704844094119313e-02 -9.116806423558729278e-02 4.587451462105077704e-01
-1.184562759001677318e-01 -1.129591267174853420e-01 4.959364372067829874e-01
-2.904893796786848018e-02 -1.128745741541932468e-01 5.508802752224410959e-01
-4.206300775294515015e-02 -1.183950720625088354e-01 5.003999171911148736e-01
-8.199132810823390669e-03 -9.853643394165102765e-02 5.684183343117488185e-01
-4.651914762282449017e-02 -1.198908234347579732e-01 5.159953232431939707e-01
-4.640012753722705385e-02 -1.174209026788096827e-01 5.355923792467919275e-01
-4.267678625610849680e-02 -8.697964398412072473e-02 4.554612550825229977e-01
-2.138136645835601521e-02 -1.016233226603721895e-01 5.620873275620560383e-01
-9.716171033626448683e-02 -1.185405579118046088e-01 4.972377236182951021e-01
-1.146586582494831391e-01 -1.117609906010025717e-01 5.019577673008938090e-01
-6.566922640177434711e-02 -5.925551517011807406e-02 4.433025550055911812e-01
-1.540883220860840390e-02 -1.264261375045659941e-01 5.237768560925670780e-01
-7.479693722982262705e-02 -9.314856511928260030e-02 4.576786727328920890e-01
-1.506779854838050624e-02 -1.170510836190750831e-01 4.814023265428823972e-01
-5.417851603450898196e-02 -9.284350379212004400e-02 4.590425503458353540e-01
-8.903509526708566768e-02 -1.180738094331234000e-01 4.912486984951797697e-01
-5.417950939629471996e-02 -8.744089712402075554e-02 4.549045855443579756e-01
-2.985218877232901843e-02 -9.503864605313452896e-02 4.590451246620455561e-01
-5.433412028658557436e-02 -9.033691018271643169e-02 4.569910502606542857e-01
-2.082947162065855798e-02 -1.103100894728921699e-01 5.604113147446446730e-01
-4.558258511278308334e-02 -1.185168444269423110e-01 5.349536655461417656e-01
-2.918749926125969313e-02 -1.219545833625090697e-01 5.063936448928419987e-01
-5.101379519676139951e-02 -1.192359858756414231e-01 5.238544247312580948e-01
-2.679431665447578464e-02 -1.235235405972686801e-01 5.194091522279977724e-01
-1.488487927078962700e-02 -1.266592732718392900e-01 5.196836859676050580e-01
-7.458132500089240113e-02 -1.174393186362376745e-01 5.193060778276045175e-01
-7.014550192897472947e-02 -1.186424701554288780e-01 5.068233003127797787e-01
-9.689836878556716548e-02 -1.197795510660277646e-01 4.897535713814944458e-01
-2.350293288782558457e-02 -1.122585071617938635e-01 5.569944575230241224e-01
-4.067923436803515258e-02 -1.164282679666161363e-01 4.932374819833124091e-01
-5.010328097175449635e-02 -7.970522129227133878e-02 4.512627892277568664e-01
-4.544111079025521527e-02 -1.177895585152838459e-01 5.359420169218619412e-01
-1.180104394775138843e-01 -9.616557527383247372e-02 4.761919987258308451e-01
-1.676299369459114882e-02 -1.014268270666843774e-01 5.646665950917389987e-01
-8.286964805448916727e-02 -7.948054828112792458e-02 4.477713458896782628e-01
-8.056464417498217234e-02 -6.484801301922467343e-02 4.430554122664311367e-01
-6.691129983648192066e-03 -1.282741409418610146e-01 5.154823497944424071e-01
-5.783005835153950253e-02 -6.395325515188296506e-02 4.448711714256010086e-01
-8.325694750812487333e-02 -1.166190753688147036e-01 5.182630047797243122e-01
-7.387470926485488476e-02 -1.038063496953943315e-01 4.683313451284242257e-01
-1.109264697793225889e-02 -1.163207431259505181e-01 5.564977648537952071e-01
-1.645768652610783700e-02 -1.091723218604477713e-01 5.629394309231625648e-01
-1.048314067293304452e-01 -9.535089740692208327e-02 4.600874002481941116e-01
-8.866524070884747311e-02 -6.878212885064999282e-02 4.481488104314239052e-01
-5.082159797799135070e-02 -1.181111582423804984e-01 5.032660719285144690e-01
-4.758168937993195735e-02 -9.807861552822341733e-02 4.643626394078987363e-01
-2.225814998715523046e-02 -1.162335386820921579e-01 5.545102892855043875e-01
-7.561513358801667806e-02 -1.159419261170799437e-01 5.227887701981108748e-01
-8.560781052050622439e-03 -1.174241765291937356e-01 5.544599004096896211e-01
-7.608611851629769329e-02 -7.443657266236645975e-02 4.456100452725336725e-01
-5.415458827170371164e-02 -7.967016999063845917e-02 4.511210540479254627e-01
-3.206725398850272801e-02 -1.216426156680914250e-01 5.335781719286017966e-01
-5.613248136503842800e-02 -1.187927272770622350e-01 5.120510624705446601e-01
-2.363546219130615092e-02 -1.125831580410080884e-01 5.566926982651515532e-01
-9.959317396421729640e-02 -8.263842752518861523e-02 4.570500825868495376e-01
-3.968826227811310392e-02 -1.204574850470158526e-01 5.303873762769096833e-01
-5.141173674169684932e-02 -7.319694945503714412e-02 4.485326167570516942e-01
-8.153022230761743094e-02 -1.078533432798667313e-01 5.245515910807257987e-01
-5.503000948586914132e-02 -8.410449192547241049e-02 4.529013223780276598e-01
-6.347163791442313185e-02 -1.099857942615099365e-01 5.317336288961008739e-01
-8.514705960682117381e-02 -1.182803229207262941e-01 5.085664281826691724e-01
-2.080085373589836417e-02 -1.095841629375126774e-01 4.711081801658507096e-01
-5.351694125743492597e-02 -7.571252202550138310e-02 4.495266720436170149e-01
-5.093897300205535439e-02 -1.194035799082410615e-01 5.220730746174828685e-01
-6.021158586369486365e-02 -1.027613701030942323e-01 4.684426046385694042e-01
-3.319489496278512503e-02 -1.206554969650413672e-01 5.045636306508144431e-01
-3.902153797970418087e-02 -1.159623974571696581e-01 4.913922875028156612e-01
-9.577171127279202056e-02 -1.140883684388655922e-01 4.718667840388605650e-01
-5.427536371636015183e-02 -7.815215930265370647e-02 4.505049131974531718e-01
-7.554820681588636511e-02 -1.154887499890377422e-01 5.234906228493995117e-01
-8.633100256193765309e-02 -1.089548622505982223e-01 4.713077768360027786e-01
-4.525868649987380143e-02 -1.175140798486991878e-01 4.980136185746832922e-01
-4.505119462431012717e-02 -1.084210303774520434e-01 4.774410303270986700e-01
-1.165820627505107926e-01 -1.078770690975128649e-01 4.750814436642276650e-01
-3.924190065940999506e-02 -7.575144370566307128e-02 4.486933338678057992e-01
-1.081242775322481114e-01 -1.170441893749171874e-01 4.986875988629900225e-01
-9.286295231624616675e-02 -8.191666379592198177e-02 4.521261044285742048e-01
-3.090775050675614866e-02 -1.103921102383718517e-01 5.490105063083182690e-01
-1.040293888008756162e-01 -1.019560262312284443e-01 4.632994030929949436e-01
-1.760732118085131873e-02 -9.897201450617794383e-02 5.645244017727162333e-01
-4.474763449664236059e-02 -1.188943834522932230e-01 5.354448036875028016e-01
-9.034802247396961361e-02 -1.140122293450984842e-01 5.180605757072390682e-01
-1.212563414154898267e-01 -1.044300923128495540e-01 4.838098821628692980e-01
-6.025331189592380426e-02 -6.687656502691144422e-02 4.456860978813630414e-01
-4.863527944400209552e-02 -8.885129415471752778e-02 4.567546284040668869e-01
-1.132735133179705034e-01 -1.128101233154330946e-01 4.771043734760420651e-01
-5.158242520746765536e-02 -1.173418836708786245e-01 5.313532257723266872e-01
-6.630467285907780395e-02 -1.184629961675554566e-01 5.174480080944597882e-01
-4.635674023404327826e-02 -1.196676303267645153e-01 5.118469367511204737e-01
-1.194269919543760328e-01 -1.086199787067827216e-01 4.887703009892597206e-01
-1.088283582844286473e-01 -9.066174194342647985e-02 4.640174210008466971e-01
-1.564474593077724157e-02 -1.205177880290484588e-01 5.490805870973154423e-01
-6.640418068388931339e-02 -6.931777399907887438e-02 4.455137227458035865e-01
-8.406576000441019769e-02 -1.156863006221374168e-01 4.839342693176144072e-01
-1.900117424796677820e-02 -1.237790154096956308e-01 5.370765705682968294e-01
-5.444331703004533229e-02 -8.673719125050451118e-02 4.544511447678298843e-01
-7.766711095082043381e-02 -1.138585142836310848e-01 4.851138385679288345e-01
-2.973357517995816116e-02 -1.144919836248269596e-01 4.848709030037003376e-01
-3.017495151004213894e-02 -1.178903886420214070e-01 5.463500100953934124e-01
-1.196066609598020886e-01 -1.078305486803000507e-01 4.913082873703029652e-01
-1.054215507622996290e-01 -1.029691109907259899e-01 4.642369056860902732e-01
-3.199049244657135166e-02 -1.223292084672471941e-01 5.211559592997285772e-01
-2.485828322879879426e-02 -1.184949231864106112e-01 4.897361491495226815e-01
-9.347538236743294093e-02 -1.099405926216131951e-01 4.693888004137341530e-01
-9.846524435662256866e-03 -1.239272141354853529e-01 5.366224680848677986e-01
-6.877473513134119143e-02 -1.186980904714522306e-01 5.105025716756675935e-01
-8.567537699064481371e-02 -8.918661616052640795e-02 4.542802605302516117e-01
-1.217031584459253440e-01 -1.034731342375874441e-01 4.868893126670932325e-01
-2.842629724829673701e-02 -1.209518421435817198e-01 5.000653864869742948e-01
-7.369432098986353208e-02 -1.065097427371047428e-01 4.717694434231571310e-01
-5.842671014369443805e-02 -1.183192090679261455e-01 5.088119393035139826e-01
-1.112185169548833008e-01 -1.172067858637520638e-01 4.941581003425206675e-01
-3.649532116738250787e-02 -1.187166440608174722e-01 5.401459290985535233e-01
-9.567934685718550158e-02 -1.180720857001040097e-01 4.803114404730193243e-01
-5.377759780178425347e-02 -1.167823688751478267e-01 4.983040150310334981e-01
-1.154140339274714600e-01 -1.022798846709067899e-01 4.694301088586522730e-01
-6.551404601106923520e-02 -1.156833213934752025e-01 4.935116489371212944e-01
-4.481747438860716332e-02 -1.171702005104404004e-01 4.965041042143516492e-01
-7.801310963727219050e-02 -1.137680915110265978e-01 5.242430177391905755e-01
-5.964325343673684138e-02 -1.183602714848585036e-01 5.206142849868128364e-01
-8.852406320238870308e-02 -1.179899410438673135e-01 5.074615258035974907e-01
-5.510572032013547061e-02 -1.075405207560245768e-01 4.764132418952805037e-01
-6.883498650649677586e-02 -7.042320502582367914e-02 4.452376183955988331e-01
-3.700531907418604105e-02 -1.066782229233416562e-01 4.736846415524251785e-01
-8.492443452514540636e-02 -1.076234339487117386e-01 4.700939869698286255e-01
-8.235044451046319436e-02 -7.391029166150826779e-02 4.454864299255101301e-01
-3.340613270832837323e-02 -1.218862035747858980e-01 5.172327646198491280e-01
-3.894788523170877176e-02 -1.122070576726662411e-01 4.833847753934339408e-01
-8.121531979435550608e-02 -1.155771165660681998e-01 4.868173649747958298e-01
-9.957613637605484957e-02 -1.197128542113679306e-01 4.902030866409831100e-01
-5.017819891583401998e-02 -1.161391603012515011e-01 4.942883964560549903e-01
-2.637294329107326557e-02 -1.229470917807969910e-01 5.332695433819517605e-01
-6.785557905789961486e-02 -1.147238500261726080e-01 4.901979071601087479e-01
-5.989242176245699462e-02 -1.173794395177748251e-01 5.021577301674967631e-01
-9.666451177246497550e-02 -1.185577942930311629e-01 4.974226378036121776e-01
-7.385219958414046548e-02 -1.053625518581970816e-01 4.702429094347856942e-01
-1.025596502227017898e-01 -9.599957307986697885e-02 4.597043793236285647e-01
-4.402819257480494047e-02 -1.094960933505253892e-01 5.408635175284043362e-01
-3.144878412698064868e-02 -1.112261038159159665e-01 4.793630060362842338e-01
-1.824939180290354596e-02 -1.022792378939254149e-01 5.640381076843393737e-01
-9.834248752343741073e-02 -1.202327491452670621e-01 4.830098836320466660e-01
-9.295516625850194781e-02 -1.175349675189103771e-01 5.073225724482119947e-01
-8.515441147232084840e-02 -1.188003800571213325e-01 4.994534287848934051e-01
-8.334902619653214439e-02 -9.585451585126859853e-02 4.594936826859141177e-01
-5.955071693099103780e-02 -1.040056183627990072e-01 4.702532813746455598e-01
-5.572615289881899248e-02 -6.345561000751261116e-02 4.448567301200888058e-01
-3.881988938137784229e-02 -1.192389280127934686e-01 5.025566604411766392e-01
-6.133921780428828324e-02 -1.031031377892762391e-01 4.686932243860099101e-01
-3.260365247787072596e-02 -1.165503367697189319e-01 5.456818679566565189e-01
-1.124996840377047030e-01 -9.992023985240416906e-02 4.654417685969600704e-01
-6.812812037333888793e-02 -9.728404863305577244e-02 4.613088174667511199e-01
-7.725802630255469705e-02 -8.727010763385652237e-02 4.527629437715698923e-01
-7.262945662784082990e-02 -1.038845787464812848e-01 4.684629501492825754e-01
-8.682065632492229346e-02 -1.094319284606899423e-01 5.217382676731234792e-01
-1.453176152465726796e-02 -1.240974899083054500e-01 5.362971265537861409e-01
-2.832409092466784545e-02 -1.126992438989326412e-01 4.804717456474608128e-01
-1.454855148214793947e-02 -1.265524875962265594e-01 5.135095629033843423e-01
-4.626874296931074437e-02 -1.197822434717541601e-01 5.269098160751788384e-01
-4.791741298313559327e-02 -8.839769163893233805e-02 4.565293347649889144e-01
-6.096895711156349179e-02 -9.356344137651353976e-02 4.586688364628456749e-01
-3.012890199167420416e-02 -1.224722739233207736e-01 5.152294008332563013e-01
-1.053578889397526336e-01 -1.139070032598134274e-01 4.701954357983511579e-01
-4.463663636758900127e-02 -1.179460697730902591e-01 4.998021796641386461e-01
-4.545324923871748440e-02 -1.127526314329848900e-01 4.849762466030770325e-01
-1.083863553096599125e-01 -1.123595863349691470e-01 4.729737384196573968e-01
-2.766041252729904004e-02 -1.209248340392048565e-01 5.421722228241699915e-01
-6.908908076740705173e-02 -8.689094906555130948e-02 4.528717995574669808e-01
-2.362512668609383429e-02 -1.042029375129156638e-01 5.589134211802558871e-01
-4.408166612693857622e-02 -1.164927171437087211e-01 5.375372679351595462e-01
-7.076271507511344705e-02 -8.203136592912402270e-02 4.494868674343203696e-01
-5.183240493715697561e-02 -9.020750494200284464e-02 4.572561871002014389e-01
-1.204175371475090239e-01 -1.069664948441751279e-01 4.859035676134964565e-01
-7.317351469880507830e-02 -1.131091684851142920e-01 4.852468569874368032e-01
-5.535649321945235873e-02 -1.175277258482322479e-01 5.016864085032771703e-01
-7.716221643677513564e-02 -1.129660580834965927e-01 5.256280205708772080e-01
-4.874126602324226065e-02 -9.875428274693409669e-02 4.649435994695752528e-01
-7.417327940726631264e-02 -1.188762352354464369e-01 5.027579465504055101e-01
-1.359292202280755653e-02 -1.228623809218982871e-01 5.419206571063440725e-01
-4.025297425962087727e-02 -1.064052844727901015e-01 4.738706734772278328e-01
-6.236312218748152336e-02 -1.175245328937743750e-01 5.235480047753824362e-01
-4.102032838845138391e-02 -1.148070139760868913e-01 5.403240176164593178e-01
-9.890514730619660855e-02 -1.182298476196249476e-01 4.991429549835331159e-01
-1.168270086850131256e-01 -1.145105049717704132e-01 4.969958974355514481e-01
-5.523579261052718320e-02 -1.141264799987498080e-01 4.893568226549842026e-01
-7.348587007116533232e-02 -7.498671636306702970e-02 4.461309815556436797e-01
-2.353493894822131921e-02 -1.230650034813545735e-01 5.370691768659361376e-01
-1.004626490852561504e-01 -1.120607301765081387e-01 5.121853969159188003e-01
-1.136458355832791617e-01 -1.126734577562308326e-01 4.773713855108238091e-01
-3.590037029783922640e-02 -1.166203843532006568e-01 5.420966076486858354e-01
-4.622204812069197200e-02 -1.135074884812694862e-01 4.866456781838120471e-01
-1.069676529830696915e-01 -1.003839400097788492e-01 4.632663164028430480e-01
-7.262247055022265363e-02 -8.027794809771057749e-02 4.482186966446802256e-01
-1.322238131769127786e-02 -1.248993301458215521e-01 5.009626139909727494e-01
-6.145483963163157065e-02 -1.095973968074114152e-01 5.326418278364218883e-01
-4.695812718215477272e-03 -1.284820965348417721e-01 5.176154731319525526e-01
-7.154316855905611117e-02 -1.150329836456110699e-01 5.247515968426045285e-01
-5.429052071074003810e-02 -7.134738533785126013e-02 4.477240408105253033e-01
-6.450433434415260570e-02 -9.953707609680659263e-02 4.640221563188124954e-01
-1.095077923769510880e-01 -1.044231470839077358e-01 4.668871363622869586e-01
-5.818049588209084355e-02 -1.118533105636747710e-01 4.843127159232588075e-01
-5.328873148524064518e-02 -1.069536383718827366e-01 4.756908684115081498e-01
-8.553299962322453986e-02 -1.182376311061668905e-01 5.084434336428212964e-01
-8.293130522983988007e-02 -1.163048980699768892e-01 4.876071921348912874e-01
-4.355576222306119932e-02 -9.314303146275595968e-02 4.604411433823666910e-01
-2.453760584611363801e-02 -1.242016720652582146e-01 5.248208301781205343e-01
-1.191851832403143241e-01 -1.085676498148828162e-01 4.971207150142051834e-01
-7.621897974528324404e-02 -9.313174886997485635e-02 4.577213273059894671e-01
-5.738920750778032237e-02 -8.290260853931635809e-02 4.520317619051324454e-01
-1.548294106112393237e-02 -1.247155063365976285e-01 5.017707268596462988e-01
-8.369057539099632181e-02 -6.831450559255568267e-02 4.453066264325006296e-01
-6.553382329454655875e-02 -9.202141045450693002e-02 4.569703664716240343e-01
-8.644399534254888773e-02 -1.181099507393752607e-01 4.956346097274006990e-01
-8.318368301638615070e-02 -1.076736876088387057e-01 5.238525730333529751e-01
-7.016960840182273618e-02 -1.164439633464215557e-01 4.936229082864769802e-01
-5.420909064316721537e-02 -7.532248553926634838e-02 4.493612797626681532e-01
-7.998674670865162095e-02 -1.125057094485376052e-01 4.793298103605747040e-01
-5.764122072975062794e-02 -1.177850029222084760e-01 5.254454253056708435e-01
-5.751007286931833495e-02 -8.826305845724985444e-02 4.550765643693943652e-01
-6.492449380222202471e-02 -6.037814247015929614e-02 4.436218006239420197e-01
-3.314512768323264053e-02 -1.106826083228738822e-01 5.467379300518159235e-01
-5.415093890228700468e-02 -1.001185140280893143e-01 4.659992120076142941e-01
-1.194762494811616033e-01 -1.077612934446531973e-01 4.962541109647554682e-01
-3.463413044234107258e-02 -1.145038115242982685e-01 5.449521829617681723e-01
-3.023848583986922176e-02 -1.219738562954439248e-01 5.087784647101660784e-01
-1.125397848093597636e-02 -1.205165592529198193e-01 5.490584404288072484e-01
-8.037715354416899438e-03 -1.278051615897057569e-01 5.261699816664808793e-01
-3.426272451014777953e-02 -1.080637430507587204e-01 4.751105194725139813e-01
-4.310178512540164403e-02 -1.203199560305252408e-01 5.270222002265276817e-01
-2.962192919852834477e-02 -1.221613065682481541e-01 5.095660949614834179e-01
-3.797769936031236693e-02 -1.208558584524856011e-01 5.134602624053226094e-01
-8.303383424661130163e-02 -1.004807626677689802e-01 4.634299663586213813e-01
-6.573913513812297549e-02 -1.008348603216811246e-01 4.652256023576719079e-01
-5.071760896526227719e-02 -6.102733654583264444e-02 4.443049821504199137e-01
-5.804620717948226483e-02 -1.084552745177179284e-01 4.771520477035888219e-01
-7.590692771898831237e-02 -1.186659460693672563e-01 5.011698893348897066e-01
-6.367264395653116082e-02 -1.166817889006353526e-01 4.979056476806909548e-01
-3.486443221092229428e-02 -1.128901276548407995e-01 5.452091436606485431e-01
-1.660133209687713121e-02 -1.250556395927300835e-01 5.320502167915669434e-01
-5.567455066449360224e-02 -1.169602484306056234e-01 4.993960099230990712e-01
-3.742307493526159795e-02 -1.157438162191551795e-01 4.905654223808614267e-01
-1.161448942523812117e-01 -9.662798406166724086e-02 4.707377544650398482e-01
-5.505715172104802546e-02 -7.357502495023182654e-02 4.485536366854129819e-01
-1.940756563566873108e-02 -1.130563474197025658e-01 5.586474557928453599e-01
-1.047511719619909354e-01 -1.168144177435295195e-01 4.755704817822992703e-01
-4.568202193970467839e-02 -9.787876562918210177e-02 4.643110260198503592e-01
-3.274966798409427449e-02 -1.023425635672236544e-01 4.668873842044765077e-01
-9.245160448139887188e-02 -1.171745274819812471e-01 5.107342996318662287e-01
-8.871334238953609841e-02 -7.825428594662738047e-02 4.492723910077768279e-01
-2.030321853731043361e-02 -1.239387468914409096e-01 5.357005883175812722e-01
-4.874820201732472068e-03 -1.264455121962854145e-01 5.320672714322038921e-01
-4.855948560256384550e-02 -1.030600349570240520e-01 4.701658470367812148e-01
-2.906673217990927635e-02 -1.111208313121359731e-01 5.510935384684970684e-01
-4.897856619641040993e-02 -1.061276034162161042e-01 4.743131049924864673e-01
-1.189412518313913009e-01 -1.088505856130016630e-01 4.800938058999294489e-01
-9.283220073271053474e-02 -7.839672324127114345e-02 4.523476718821012321e-01
-1.091698295337275443e-02 -1.273539786684927955e-01 5.132335372757040881e-01
-4.565582067367979918e-02 -1.119079251249303908e-01 4.834191719714102664e-01
-1.166504918938566504e-01 -9.695732152550989857e-02 4.716634320941037739e-01
-8.280186395038470482e-02 -8.703120903263800168e-02 4.526456610690157700e-01
-9.431003381963071197e-02 -1.009255185034575591e-01 4.620611474354968107e-01
-3.357733694720930334e-02 -9.759099784073427264e-02 4.626627241718190287e-01
-1.015540426882726999e-01 -1.193046802476876167e-01 4.913570210290724716e-01
-3.181655216763155242e-02 -1.223596516980216126e-01 5.205227941611626497e-01
-3.369772993719102883e-02 -9.876398429207637608e-02 4.637223159954868557e-01
-1.114760599996718476e-01 -1.177733336383214591e-01 4.837468488723445370e-01
-2.213034490402633961e-02 -1.248612624510804792e-01 5.272031627226457795e-01
-6.614058471011534379e-02 -1.083253128941160937e-01 4.760513022742857148e-01
-1.197260450729936837e-01 -1.074916867630528322e-01 4.932422885196517948e-01
-4.298896120372805441e-02 -7.986904769155384054e-02 4.511910974276441277e-01
-9.608885610568469737e-02 -1.180177333657346783e-01 4.796068234742337788e-01
-1.317068045779027849e-02 -1.080940239853804274e-01 5.637302222079898506e-01
-4.945652011226112088e-02 -1.140732691365518303e-01 4.883659463874809314e-01
-5.133849170026521386e-02 -1.104907345006745784e-01 5.372902555524188273e-01
-3.739624722957382574e-02 -1.095709197467233387e-01 4.780289958685833840e-01
-9.615578943603714235e-02 -1.191871034152300612e-01 4.829069676220967278e-01
-6.008247980206551236e-02 -1.075647293413376504e-01 5.337233793243539859e-01
-9.259586141727316200e-02 -1.171095674998459263e-01 5.110400994550712284e-01
-5.327060923593638503e-02 -9.742237732465383604e-02 4.632818399084090433e-01
-8.753994354985272786e-02 -1.172539229506780328e-01 4.882488019681677227e-01
-4.513471692075782249e-02 -9.039138805497652640e-02 4.581979848166781721e-01
-1.127328145120187475e-01 -1.168254400288853689e-01 4.873994119112263212e-01
-5.436628392606823734e-02 -1.127197754498059229e-01 5.345179458214630586e-01
-8.580615075397550473e-02 -1.151535731374552229e-01 5.189005640345440984e-01
-4.942487383396865219e-02 -1.161988899591951119e-01 5.341993287742901053e-01
-6.455334523744710173e-02 -1.185520589296109872e-01 5.169630398394657878e-01
-1.120736497247051405e-01 -1.018661361726830583e-01 4.660808200117051436e-01
-4.721719935723913547e-02 -1.195677696547775837e-01 5.116803215806856597e-01
-8.438445274536014729e-02 -1.132198247734111651e-01 4.788459822586407788e-01
-5.210963072963054749e-02 -1.174941998582086783e-01 5.303455805452410576e-01
-2.076096551207609955e-02 -1.209680785990534801e-01 5.463839504813872150e-01
-1.164714291088334019e-01 -1.130337840756347051e-01 4.991379989416640517e-01
-1.117992314098968099e-01 -1.176027100054673202e-01 4.868138862395489097e-01
-5.152031285790430182e-02 -5.978652232314605325e-02 4.439779648231480524e-01
-9.969020509450789158e-02 -1.184860201645765582e-01 4.962159705628989004e-01
-4.493808032030698757e-02 -8.676880627842052662e-02 4.553593310222038837e-01
-2.461649904295755073e-02 -1.157584795869561478e-01 5.535903984151253621e-01
-8.520106406607992622e-02 -9.875735204799225564e-02 4.616295029853326737e-01
-6.814850934519223191e-02 -9.018185453089921921e-02 4.551972277477513429e-01
-9.298394185898838094e-02 -1.175496075447100414e-01 5.071730527913441700e-01
-6.452077882787021768e-02 -1.104722065651859708e-01 4.809618053199514187e-01
-8.444000521086703070e-02 -1.077151863432205953e-01 4.704367836472783670e-01
-7.716362312808962287e-02 -1.166064430959178472e-01 5.211729894642889160e-01
-2.647860055214331862e-02 -1.028208914297046583e-01 4.648184657281904664e-01
-6.907105233456822813e-02 -1.185506554255069539e-01 5.073662863179211335e-01
-5.661604727569950757e-02 -7.515472541459533584e-02 4.489674332183921646e-01
-6.974180475474520136e-02 -1.104009408093732936e-01 4.796541707622290485e-01
-2.244729267862390770e-02 -1.085215612067393504e-01 5.593993891047833733e-01
-7.108628595748467394e-02 -1.100693301135435287e-01 4.787136809949511518e-01
-9.011704242641378759e-02 -1.141808972955802165e-01 5.180803487295252419e-01
-2.055577566042431081e-02 -1.166682682285584138e-01 4.826175534362701081e-01
-3.390224177521133225e-02 -1.150812473793911689e-01 5.452748651567905780e-01
-1.784971877466165827e-02 -1.151061726532773416e-01 5.575293625202043524e-01
-3.321402118426575872e-02 -1.220920118424587697e-01 5.214212560079889425e-01
-3.035625656051540305e-02 -1.193187444882353593e-01 5.434211292420438877e-01
-1.202653915301684917e-01 -1.068170180472698544e-01 4.838412130209518436e-01
-6.123215670062346488e-02 -1.150042402464654251e-01 5.295023345328534470e-01
-1.116180153847174533e-01 -1.067720971301628768e-01 4.699293991603535892e-01
-2.388457237276728901e-02 -1.084573556090312751e-01 4.709782018536858295e-01
-1.165374539470804133e-01 -1.125851452852242029e-01 4.994199861221262915e-01
-1.527108195819518351e-02 -1.259568080493352893e-01 5.075922119593362369e-01
-2.966695088943398229e-02 -1.224301314256393824e-01 5.315537833069505780e-01
-7.968253636594675726e-02 -1.002434795851172566e-01 4.636753704141783894e-01
-9.493306986961961777e-03 -1.115895985445328892e-01 5.616946766676462754e-01
-1.087776557741110262e-01 -1.129094111258998612e-01 4.735563040805629842e-01
-8.272543730865690448e-02 -7.350656935207908194e-02 4.454101358934288712e-01
-4.985850618162913916e-02 -1.132948366833597537e-01 4.867362708869737431e-01
-9.453453688657133605e-03 -1.237656143693128818e-01 4.952559933079753729e-01
-2.120972798257446043e-02 -1.245618743815814500e-01 5.317502600425282333e-01
-1.094358742807817475e-01 -1.126622086262586697e-01 4.737356811076405827e-01
-7.137353410036804957e-02 -1.184052679967654287e-01 5.024069729105354876e-01
-1.000932084432027830e-01 -9.072074503352887953e-02 4.576127129222085643e-01
-2.483737975665299691e-02 -1.240000062987361845e-01 5.294826310492634081e-01
-3.742094664399636672e-02 -1.174146674778253074e-01 4.950031809313539810e-01
-5.617502785778878682e-02 -1.172157043808675775e-01 5.277723099275318797e-01
-2.473033747146527808e-02 -1.118788091581869315e-01 4.767584894445197619e-01
-2.905897183835602637e-02 -1.205191968406221642e-01 5.419780739395840818e-01
-4.746926734819797988e-02 -8.049533034023841072e-02 4.518678328999494731e-01
-3.541368648212434023e-02 -1.086935118590753174e-01 4.762095484020994474e-01
-4.942337164403125954e-02 -1.118122104693665964e-01 4.834221366528349551e-01
-8.437251221321098379e-03 -1.230650036200846981e-01 5.387010196544058660e-01
-1.116817086161158851e-01 -1.149281283964028177e-01 5.017692931942779877e-01
-7.427164637482799869e-02 -1.184008451081322716e-01 5.145210277224719908e-01
-5.353997185938669939e-02 -1.165184060573491026e-01 5.312302154542553057e-01
-9.108133662619678772e-02 -7.879218529982234820e-02 4.504978054423284251e-01
-5.588537149945276006e-02 -1.090549181026648079e-01 4.788517694085974163e-01
-6.052016392528460076e-02 -8.065245529982345563e-02 4.506413294011969994e-01
-7.715916496515001777e-02 -9.834469406303147920e-02 4.620981455725867715e-01
-6.087428791971655900e-02 -1.111230392061702404e-01 4.827380645168246609e-01
-8.520093266723333114e-02 -1.184993223204729301e-01 5.035587457034714776e-01
-1.116970306263431745e-01 -1.171093806372617840e-01 4.894395947246943379e-01
-9.696667018375783320e-02 -9.064781895615602048e-02 4.557566578180448635e-01
-2.297197502686689277e-02 -1.227601391510021317e-01 5.017631670967482860e-01
-2.154535112728323334e-02 -1.104127765350972484e-01 5.599293931657545187e-01
-1.063324868508085941e-01 -1.045868838951949098e-01 4.654990896512422038e-01
-6.068326506147197347e-02 -1.175371504155846430e-01 5.243710058315438349e-01
-9.413094024487600464e-02 -1.198412713563136722e-01 4.884844594473967683e-01
-6.029755787302408521e-02 -1.014104584397334530e-01 4.663872729733444245e-01
-3.058098319141410587e-02 -1.225752045550962260e-01 5.195442416260636076e-01
-6.950593263738152894e-02 -1.038287228372114651e-01 4.683800438237634700e-01
-8.119294555673135100e-03 -1.281664047629121894e-01 5.224152898142394585e-01
-4.957515999409579238e-02 -7.317962543058079139e-02 4.485571310038465875e-01
-5.357860134400415156e-03 -1.258917188263387887e-01 5.328991496480292023e-01
-6.493939894695792414e-02 -9.899338114075584283e-02 4.634209811499843124e-01
-1.022014418400395142e-01 -9.883249863057547158e-02 4.612344114080216828e-01
-6.632334770639709831e-02 -1.180892738219250365e-01 5.197292113890106258e-01
-4.478627667479681551e-02 -1.143714265023719756e-01 4.885291942283571109e-01
-5.893977434308886321e-02 -5.916653671508630835e-02 4.438079472625697242e-01
-6.113301019577979667e-02 -6.669942628177155663e-02 4.455386965130374022e-01
-3.605209692899306352e-03 -1.282529519402706708e-01 5.131328425235248680e-01
-1.989929004842290808e-02 -1.245998622141223505e-01 5.328417279275617924e-01
-4.214403858482679982e-02 -1.126196956393178406e-01 4.846028032903259009e-01
-5.742007779296866288e-02 -9.101301836956941782e-02 4.570255413825569102e-01
-6.138005988742130381e-02 -8.829895865374114139e-02 4.546525745505840543e-01
-3.698675291616243532e-02 -1.208197362183361240e-01 5.114474938274361504e-01
-7.912709563828161652e-02 -8.134473923817392427e-02 4.483043491114124812e-01
-6.481669530717461269e-02 -1.095420698089957096e-01 5.313125963057691026e-01
-5.743386903054154696e-02 -1.030062483068910073e-01 4.692979563101675189e-01
-8.850758752122557527e-02 -8.444385761813980040e-02 4.515014727362285929e-01
-3.551435470148228690e-02 -1.200851250876341092e-01 5.045036720945562658e-01
-1.743108671906547225e-02 -1.261106385849116440e-01 5.228024089151702691e-01
-8.400062572106224701e-02 -9.000077953208343584e-02 4.548069313419739745e-01
-7.979861191560645717e-02 -1.177833157535525671e-01 4.959991156683628555e-01
-1.351506256987396529e-02 -1.253809043428783798e-01 5.029439939877486943e-01
-7.762759353984799437e-02 -1.188620463097628532e-01 5.076478249806735121e-01
-3.436416466116178070e-02 -1.044574596463270499e-01 4.700732170490233841e-01
-1.312913165707880504e-02 -1.270452189011317679e-01 5.179382087624283537e-01
-5.607642248620566677e-02 -1.060310956066443239e-01 5.361521289526798295e-01
-1.185681515980348544e-01 -1.078836818749736165e-01 4.780963145924395641e-01
-4.553632433468596946e-02 -8.411507914999323543e-02 4.537511265279324246e-01
-8.105116625157102184e-02 -1.004808344896502559e-01 4.636796588233116356e-01
-7.693815612642707080e-02 -1.174218649137560438e-01 5.187421581616412647e-01
-4.421204069285269295e-02 -9.631875253791116753e-02 4.630164332370925728e-01
-4.834265346125407592e-02 -1.178006698907200778e-01 5.005812685836033005e-01
-4.985873318418540534e-02 -1.039670088029610029e-01 4.713310067432134320e-01
-6.334239653955382743e-02 -9.294749748335504047e-02 4.579395051271089589e-01
-2.595253102942952916e-02 -1.022185872901340414e-01 5.545235214602384222e-01
-8.425368699078393531e-02 -1.136817133172402378e-01 5.210805301130964073e-01
-9.385548491772606472e-02 -8.255042403468967893e-02 4.528576788095992067e-01
-8.593333275107381541e-02 -1.150799615466226028e-01 4.812126299308336352e-01
-3.276636847364973459e-02 -1.204906672570171949e-01 5.031392743776050835e-01
-2.174891942633640912e-02 -1.249666540319112340e-01 5.246513089815272313e-01
-9.133900230774071038e-02 -1.174709794613631730e-01 5.098805480668765489e-01
-8.673257768104189469e-02 -6.950528598044056205e-02 4.464234383623559288e-01
-2.882121650119266396e-02 -1.200403637826546327e-01 4.975405374326287711e-01
-2.933804127800275843e-02 -1.197737666016847891e-01 4.970618636813046720e-01
-6.555907914304182071e-02 -8.466475474715014216e-02 4.518755930295656476e-01
-5.504553857604167766e-02 -1.051100961335097450e-01 5.368826743063830342e-01
-1.004924829286384796e-01 -1.177413739893204137e-01 5.024138676142521076e-01
-6.272327236828045827e-02 -8.900262613392478928e-02 4.549828419852187666e-01
-1.189369412593874464e-01 -1.095761863433087485e-01 4.828088722368312213e-01
-6.639200415539824041e-02 -1.010277852637888468e-01 4.653553784046213226e-01
-5.723695344957886039e-02 -6.767740417399326081e-02 4.461860821676111311e-01
-8.812642036159425152e-02 -1.158891428563221665e-01 5.164813417876852331e-01
-8.168745486915275633e-02 -8.776563269013269719e-02 4.532097226752546670e-01
-9.954845605700633759e-02 -9.352976727402290136e-02 4.576983222745756308e-01
-3.613906003552502105e-02 -1.048879245402308674e-01 4.709931042061187290e-01
-3.107110209045970198e-02 -1.078280591204947153e-01 5.490342236442043999e-01
-5.916157675209101491e-02 -1.034786856763558055e-01 4.696125565222331599e-01
-1.174038550834566666e-02 -1.220662495611560816e-01 5.441269650121893786e-01
-1.825013738975634833e-02 -1.240238571211702834e-01 5.361482163953213975e-01
-3.317360506724601615e-02 -9.947403871792645513e-02 4.641143081493923073e-01
-5.791108050397252016e-02 -1.039880354118351002e-01 4.705384718369829966e-01
-2.417054869567618683e-02 -1.076961896820184394e-01 5.572307133642105947e-01
-2.107526108815703167e-02 -9.693489211189122712e-02 5.613281466887505289e-01
-5.088165384950307790e-02 -1.015799072173529383e-01 4.681112470783890256e-01
-2.928120874330688780e-02 -1.174986837127079131e-01 5.475624451920925173e-01
-4.497509443324920753e-02 -1.153356189615058480e-01 4.910080947312787658e-01
-7.729475478402614286e-02 -1.094859452819652856e-01 4.759590226950585201e-01
-1.463749182266698215e-02 -1.225721566706486770e-01 5.432464646690842169e-01
-7.261951679932608650e-02 -1.187985666217018232e-01 5.045013808321319182e-01
-1.041236693021443255e-01 -1.191251997445545441e-01 4.782303162281901221e-01
-5.077110923049846236e-02 -1.183809212459488586e-01 5.270461699595417882e-01
-5.603080481424427273e-02 -1.145850670103713276e-01 4.907739520221743867e-01
-3.928191411977668274e-02 -1.183704131356341643e-01 5.386388131634201049e-01
-2.063684361066233167e-02 -1.204760746666835164e-01 5.474295739576995334e-01
-3.650789809954794324e-02 -8.399063057954951617e-02 4.528069037513127726e-01
-1.157608537421543349e-01 -1.131688412922416676e-01 4.810303667877226519e-01
-7.490749582729906708e-02 -5.824510446250105028e-02 4.439509558137736955e-01
-2.188073558300337659e-02 -1.213330775239033904e-01 5.450138445209509186e-01
-1.166509725802180736e-01 -1.123477078907784144e-01 4.995089759006990926e-01
-7.576470051134928663e-02 -8.527456925288307010e-02 4.511458239591797370e-01
-6.619232558346281603e-02 -1.149521065603752723e-01 5.269411290563758010e-01
-4.183091603522465923e-02 -1.036315690968695746e-01 4.706217583431129281e-01
-9.292094899688706222e-02 -1.159056790436497758e-01 5.144868550740762103e-01
-7.911812124298484017e-02 -1.085533419965304114e-01 4.736815900930032575e-01
-1.011183359226771467e-01 -1.112133847650005058e-01 5.116498372301061526e-01
-6.338319846111648004e-02 -1.046408958214088830e-01 4.702139543249226339e-01
-1.195977239437571449e-01 -1.087140827971646573e-01 4.850188001327321308e-01
-7.053825959385039146e-02 -5.510780365090932331e-02 4.442694362256375817e-01
-9.445282187723852418e-02 -7.842821470091999869e-02 4.541061372567563037e-01
-3.366889105255823494e-02 -1.117922738466157750e-01 4.816084150506710904e-01
-3.063990477077577559e-02 -1.152053674500727598e-01 5.482342238100187393e-01
-1.191298516053211770e-01 -9.702615836084672873e-02 4.792929319333197880e-01
-2.240434163478525337e-02 -1.242287863124588304e-01 5.322091968206805745e-01
-2.824941833458833804e-02 -1.227885201732515086e-01 5.123918425128474174e-01
-1.619244655492166687e-02 -1.233853084819116902e-01 5.397128655739767966e-01
-8.465560345905714934e-02 -7.340108809337361762e-02 4.457011617921695090e-01
-7.715926843999834639e-02 -1.171985320612078108e-01 5.193947312045501530e-01
-8.474802823240916438e-02 -1.179068523891549231e-01 4.960684073865222476e-01
-7.822429713608833324e-02 -1.068057991956362085e-01 4.710557901149907689e-01
-5.434414018256470552e-02 -6.687927149831132678e-02 4.460322023110815381e-01
-4.684383095781507328e-02 -1.022350701312355614e-01 4.691552050667929796e-01
-1.035478391974099521e-01 -1.196595845235780969e-01 4.891088938277270426e-01
-8.010877458406392981e-02 -1.075184198253166523e-01 4.715843490792518411e-01
-8.424581882970379187e-02 -1.180607094030530629e-01 4.968809953842706073e-01
-5.698912253715243681e-02 -1.111032469051187882e-01 4.826055437117156566e-01
-4.694624039705180135e-02 -7.738919069271571471e-02 4.504797006647346391e-01
-3.157446473879984422e-02 -1.153379974476666514e-01 4.879777908006375786e-01
-7.181113760523444300e-02 -9.118111799794463568e-02 4.557952788078935558e-01
-5.087616261880943680e-02 -1.026135367097420203e-01 4.694376008980750692e-01
-7.652946041571756508e-02 -9.468752708696304143e-02 4.590175516201776551e-01
