-8.373809105594193225e-02 -1.177597101744260050e-01 5.148903005714348113e-01
-8.972300756449420878e-02 -1.189164307564193473e-01 4.972902505179382371e-01
-1.144416691313882711e-01 -1.111675686629961107e-01 5.032425589082044626e-01
-1.181781251677229833e-01 -1.060661501544442054e-01 4.759506453108832691e-01
-6.681856880517479669e-02 -1.129051525556511726e-01 5.290241814060206993e-01
-4.108186024189425245e-02 -1.103181071448981199e-01 4.801489013206741152e-01
-6.601666069845059381e-02 -1.138991967014220258e-01 5.282826471345992703e-01
-6.811550422631576507e-02 -6.023851235534052884e-02 4.433681951482025263e-01
-1.122806013556311849e-01 -1.018272142195559143e-01 4.664465103610869190e-01
-1.188794798959588034e-01 -9.763887347332739219e-02 4.778696429827853920e-01
-1.022210143125295984e-01 -1.067204074261976082e-01 4.654623159590605130e-01
-8.978908248044682738e-02 -1.180817907409279915e-01 5.062938221958376284e-01
-4.567661410397387545e-02 -9.416146226431822142e-02 4.613501659124880638e-01
-2.460690474060577004e-02 -1.199195845166309282e-01 5.461690349957374346e-01
-7.568035898651270799e-02 -1.149194449310191324e-01 5.244630636681955060e-01
-9.442653770710109085e-02 -1.182725859090173748e-01 5.018526352455103812e-01
-1.782764611292230600e-02 -1.161751026714417517e-01 4.806079113163758132e-01
-3.226897170055999242e-02 -1.102898867174507691e-01 5.476514312917296623e-01
-8.021545710453842348e-02 -1.122802333937718833e-01 5.245677722057544567e-01
-5.469947050479576078e-02 -1.186715439083784879e-01 5.093062989380392480e-01
-3.406135851166350315e-02 -1.199309781982437623e-01 5.381990326320227336e-01
-8.898315917778580608e-02 -1.132149382532724874e-01 5.192135947983311794e-01
-1.016992089734999188e-01 -1.197234847823348269e-01 4.900236466399877644e-01
-3.843327873022078095e-02 -8.376980804794577351e-02 4.531614681229210184e-01
-5.834579350770023598e-02 -1.108792975061815844e-01 4.823181963868813926e-01
-6.145514428235070159e-02 -1.139705526937434960e-01 5.305125326337307712e-01
-6.669977732482763877e-02 -1.133868155922710536e-01 5.285706002669653403e-01
-2.666342921727159546e-02 -1.232795602776281113e-01 5.132896580522849916e-01
-2.991502252865660752e-02 -1.018176551156381587e-01 4.652514411690700791e-01
-2.661042762698905689e-02 -1.235886111958072880e-01 5.237635151215955798e-01
-1.230701065847635001e-02 -1.224197681388257963e-01 4.926205663207031682e-01
-8.818655493348574737e-02 -1.180632092387113308e-01 5.071116057696619661e-01
-6.776122341699380991e-02 -1.182471516145887080e-01 5.177890580217282546e-01
-4.510010260605862298e-02 -1.201009147560342522e-01 5.189662650688829926e-01
-1.041754842474485465e-01 -1.158248258923987861e-01 4.742342722220623252e-01
-3.881214670212371903e-02 -9.637463975947180295e-02 4.633446668828176129e-01
-1.145094316530557571e-01 -9.818030713423538114e-02 4.679254596005081868e-01
-8.300549184501103406e-02 -6.864753551465664627e-02 4.448952251676026592e-01
-5.084169261726957656e-02 -1.117629169070927936e-01 4.836361900543799663e-01
-1.945953870922190188e-02 -1.233839711901884989e-01 5.390650837718278243e-01
-2.274001028430881061e-02 -9.993537894517347253e-02 5.592670249014163320e-01
-7.233934338358162519e-02 -1.161037531256465527e-01 5.228555364788360915e-01
-8.029307693708180593e-02 -8.695900573462038430e-02 4.527799687119677396e-01
-4.452529051800246246e-02 -1.201948766748524300e-01 5.222340367941284978e-01
-2.276850120240810071e-02 -1.231421555528087741e-01 5.374249730436585493e-01
-7.027367941989801081e-02 -1.113883972191161004e-01 4.816322783733192892e-01
-5.750236777701580454e-02 -1.087130700751595402e-01 4.779481607181628733e-01
-7.707063799414162752e-02 -1.030660186773108139e-01 4.672406776765778424e-01
-4.825834534448222163e-02 -1.130372425492219141e-01 4.860408127878190210e-01
-1.196741047100421118e-01 -1.065564876978909170e-01 4.914732759345569191e-01
-1.884953055393874879e-02 -1.256336502107924247e-01 5.256570389068521143e-01
-6.490090271730866722e-02 -1.052762472103919711e-01 4.708893858373389696e-01
-3.297490102704925263e-02 -1.201091850088223667e-01 5.017620167982235202e-01
-4.282996808917616249e-02 -1.197665964411023798e-01 5.327882814276760914e-01
-1.131117283381626731e-01 -9.785369833345103352e-02 4.658508535814530616e-01
-6.860396562045927016e-02 -1.177153327907537600e-01 5.003481968243413958e-01
-6.694289998958172228e-02 -1.151233237429003242e-01 5.263984869316922222e-01
-7.235187828601392923e-02 -1.102309649376545103e-01 4.789439682453644487e-01
-1.030848569217662353e-01 -1.174352742706052666e-01 5.020990003303209548e-01
-1.186679521018022682e-02 -1.246755121490592533e-01 4.996365258758635464e-01
-2.496723327913433904e-02 -1.240446140430889882e-01 5.246660921231633967e-01
-1.003635210794838334e-01 -1.171868013579659418e-01 4.745006308779324833e-01
-3.345552792680198118e-02 -1.096148232236270476e-01 4.776580565980272919e-01
-8.460140051779614992e-03 -9.297511334686708873e-02 5.705986978436965451e-01
-9.366314384832993833e-02 -1.192495738105747438e-01 4.934330440395994222e-01
-6.492772343425907977e-02 -1.159513871158327075e-01 4.949714379369837824e-01
-7.948370187080569527e-02 -7.586625402006236252e-02 4.461375186552132832e-01
-4.417756458128126174e-02 -9.904578187822524193e-02 4.656936304758574896e-01
-4.570928995988087634e-02 -1.198157403332544557e-01 5.277800904242239133e-01
-1.094312007795772285e-01 -1.114160078677988025e-01 4.731980871532424637e-01
-2.705224026298438944e-02 -1.232910701443029611e-01 5.293678610959481334e-01
-4.684722412637821326e-02 -8.785077845474936753e-02 4.563463952829415193e-01
-8.729199738489615279e-02 -1.129948939227248955e-01 4.762454788316742849e-01
-3.869293666518278108e-02 -1.138916727017116048e-01 5.423655606765044324e-01
-9.049742358315907009e-02 -1.111151144931793594e-01 4.719772393649773190e-01
-6.683930417283291681e-02 -1.172364846265783744e-01 5.223033117700294214e-01
-5.094409510167578758e-02 -1.157211940362885549e-01 4.933418306918125884e-01
-4.961560429384005710e-02 -1.115501189211836747e-01 5.376369133004643697e-01
-1.194945342195562060e-01 -1.090598913157302119e-01 4.858276004608551579e-01
-9.818382517552420863e-02 -1.185647930907908904e-01 4.962373156161892784e-01
-9.041555391391160879e-02 -1.180099333651026400e-01 4.889536839111409128e-01
-8.172955129204945157e-02 -1.020701467313579608e-01 4.654188043386582319e-01
-3.526759592669698185e-02 -1.207978820730753328e-01 5.345957423630891547e-01
-2.567697878960401719e-02 -9.962020752670608381e-02 4.610501167019964153e-01
-5.497222807423373520e-02 -1.156636451041024305e-01 5.317344946535134120e-01
-5.974723208586316808e-02 -6.407874764617235708e-02 4.449398017184179599e-01
-9.803126413768542546e-02 -1.151145987338556553e-01 4.719911650641744338e-01
-9.016321044725189582e-02 -1.162930681156884166e-01 5.149417176477266711e-01
-6.595536638824589515e-02 -1.168846910036735326e-01 5.237195618242352912e-01
-5.589586535406177586e-02 -6.590438600584101747e-02 4.457758091520209742e-01
-9.700628243627174019e-02 -1.199519090586081693e-01 4.845714967750379132e-01
-1.891005192781627930e-02 -1.255144249111001531e-01 5.165939219773184599e-01
-8.050147539913078687e-02 -1.058382024127633575e-01 4.694407234484937463e-01
-1.827539369745193043e-02 -1.248530627392696740e-01 5.326962929821711379e-01
-1.530347863866052954e-02 -1.264633464898113069e-01 5.175073539418350022e-01
-5.948122217227337638e-02 -1.137209748812231663e-01 5.320836560360330258e-01
-7.510057753222325327e-02 -7.346036077252701690e-02 4.455277643596792791e-01
-9.859492708443858000e-02 -1.016649486729302998e-01 4.630978951773881414e-01
-4.149449464751656103e-02 -8.448950173585148549e-02 4.539233542651385789e-01
-2.407181526542418251e-02 -1.104146148517928389e-01 4.741428032645714774e-01
-1.097581147058248607e-01 -1.142493592589661211e-01 5.053099476223349429e-01
-8.713855555242658313e-02 -7.314561953333960365e-02 4.467862764355762795e-01
-7.841705777791727061e-02 -1.103557550733790110e-01 5.276941663088877688e-01
-5.638689339726658811e-02 -1.069867282270727804e-01 5.357625275544126708e-01
-3.592439467520616020e-02 -1.083845479854509686e-01 5.447313980555886781e-01
-2.677013755693592040e-02 -1.110819426674184152e-01 4.769334091555154087e-01
-7.164001339178735495e-02 -7.990194149936069579e-02 4.484066479003985251e-01
-6.631905588679662400e-02 -1.102390067553521702e-01 5.307442361490367633e-01
-4.682295145654507412e-02 -8.016737860573491803e-02 4.518302219979601908e-01
-7.924543853783173886e-02 -8.702728282950808469e-02 4.528036232541383099e-01
-2.406668044462619005e-02 -1.196428599774608248e-01 5.471400036502973574e-01
-5.419153024604374952e-02 -8.673040315677023326e-02 4.546052411858829689e-01
-3.900671358262974842e-02 -1.007366475735938099e-01 4.673297274369381249e-01
-4.166025107958561818e-02 -1.160834904129351836e-01 4.927160592439179254e-01
-1.429627192188373877e-02 -1.265392791737368627e-01 5.118239640806050428e-01
-1.087056623753831774e-01 -1.189090144158477802e-01 4.899521347097214319e-01
-8.894901848573646963e-02 -1.179669591265625345e-01 5.074502658356208062e-01
-7.517177115785567132e-02 -7.371344919143346663e-02 4.456041092687559879e-01
-9.946382109361794066e-02 -8.395513856118336227e-02 4.566490154840174842e-01
-5.845293399974814397e-02 -1.005672728310689074e-01 4.656390213868527028e-01
-8.921203522444953737e-02 -1.188537536975940168e-01 4.939623517552539922e-01
-1.001835725245967257e-01 -1.130340811135672335e-01 5.123760589790048448e-01
-9.360042238972976492e-02 -1.175403937992806902e-01 4.815325495828480795e-01
-1.001403718678077343e-01 -1.174463201830340392e-01 4.748481902112504649e-01
-4.584545674782686264e-02 -7.721726610486494280e-02 4.503762562094206778e-01
-6.147796701055535662e-02 -9.678572138804215907e-02 4.615806933146348601e-01
-3.917954053391413394e-02 -1.203541497503410607e-01 5.323150944116492589e-01
-5.280266498006565973e-02 -1.143431147157959599e-01 5.344569519863912044e-01
-3.545902330038925437e-02 -1.102692224884909700e-01 4.792094747205651317e-01
-1.759015605248633735e-02 -1.259620565384993451e-01 5.201933047588809256e-01
-4.928559771749304458e-02 -9.384689581694666272e-02 4.607561364741033505e-01
-4.635924029346875225e-02 -1.103015447232685575e-01 4.808436606907245392e-01
-2.621109727177442852e-02 -1.166353586884451565e-01 4.861140608350025816e-01
-9.894227436167260525e-02 -9.379073097369745871e-02 4.580035477205822159e-01
-7.726805265497607711e-02 -1.188494222794430066e-01 5.062299234714272567e-01
-7.124269491332470283e-02 -5.815542800364554427e-02 4.435626697426994225e-01
-9.548622937965831059e-02 -1.198734972917702424e-01 4.894396262722848778e-01
-9.467325995176513465e-02 -1.155967548221377983e-01 4.742760704414703543e-01
-1.745343716869298192e-02 -1.256279751246084098e-01 5.095771471127343855e-01
-3.330228650919966199e-02 -1.171658335113439781e-01 4.926039809377137924e-01
-4.796972903642302000e-02 -1.194340351416247337e-01 5.111631641957156136e-01
-1.092037786569203112e-01 -1.187320772818805797e-01 4.826383600704071686e-01
-1.624416349691660405e-02 -1.184618783643190815e-01 4.849156138116010317e-01
-7.181043413825809185e-02 -9.221663125595942756e-02 4.568742846784469847e-01
-3.180839537863801303e-02 -1.179995896442850301e-01 4.935058456145932082e-01
-8.009441231831479491e-02 -1.094298968702424601e-01 4.753156826233110310e-01
-1.023193770558565724e-01 -1.206896986888920664e-01 4.847668775532736340e-01
-1.179487885382777407e-02 -1.153509655598348865e-01 5.578818398485365648e-01
-1.077850805043160248e-01 -1.098237263638492528e-01 4.710847397158166583e-01
-1.135694776314644105e-02 -1.015799104718463908e-01 5.666358657469326987e-01
-8.947337703835343825e-02 -1.192858216935876181e-01 4.951002672920015724e-01
-9.538332533905331811e-02 -1.198548207007750083e-01 4.868578689268991400e-01
-6.979722486628585354e-02 -9.555068761516133380e-02 4.598432885069556608e-01
-8.385027491888549789e-02 -1.168798793098698857e-01 5.172121647071077355e-01
-1.061509951044212474e-01 -1.169372817627091776e-01 5.013019586524405380e-01
-1.030985462184998563e-01 -1.079380350971788083e-01 5.118402850420602501e-01
-8.077313258506882421e-02 -1.077513657480804465e-01 5.250847360425133781e-01
-6.650616126352090762e-02 -1.102708462592095484e-01 4.802630847971046668e-01
-5.646194549909443194e-02 -6.945560498050100395e-02 4.469610709679983640e-01
-7.795546892097315883e-02 -8.854383275576679924e-02 4.539679916819381322e-01
-8.222076194654200088e-02 -9.555566600042429692e-02 4.595726264432020147e-01
-1.004116715741881077e-01 -8.414159955084869746e-02 4.574832842474984007e-01
-9.275957374197592309e-02 -1.167627390832691320e-01 4.801829171032837573e-01
-4.747364322206247544e-02 -9.510597344756652194e-02 4.620910728781634780e-01
-3.260509297655589389e-02 -9.969481489476500480e-02 4.641539138312910651e-01
-7.934569433558773255e-02 -1.081378292656674789e-01 4.729436563066378163e-01
-2.771425532320978546e-02 -1.177610176239222844e-01 5.485533553555106412e-01
-1.184974448294102145e-01 -1.127945783926985329e-01 4.962198127397380309e-01
-7.343337514404886524e-02 -1.010634245996219066e-01 4.650146952494507713e-01
-1.102721347180759537e-01 -1.085671549352479337e-01 4.712061221571962610e-01
-5.126483060839714251e-02 -1.019345177357402071e-01 4.686530263562398990e-01
-1.169645942596947430e-01 -1.112081998387295517e-01 4.800170871448817267e-01
-6.504384994613385262e-02 -9.394472698697287072e-02 4.588074480965721458e-01
-4.965592450482578246e-02 -1.077333088903140307e-01 4.769985916592417996e-01
-1.136981451187213527e-01 -1.128783363791489719e-01 5.025417881022441469e-01
-1.909015063581422089e-02 -1.187372266009932981e-01 5.514692077941266701e-01
-1.813166199172178139e-02 -1.221318031188549369e-01 5.447344180297882810e-01
-2.990768396492820419e-02 -9.811885329878362871e-02 4.616471351769521059e-01
-3.265711698844937783e-02 -1.183370650754145409e-01 5.435642171978993797e-01
-6.808834017287657137e-02 -8.897974072641359755e-02 4.544172035437646362e-01
-7.859003814045001368e-02 -1.109737883020213284e-01 4.778607643738901345e-01
-4.825012541355881007e-02 -1.077049484458493522e-01 4.769035818077955180e-01
-2.402741251979049683e-02 -1.066206339427172578e-01 5.577096156868864840e-01
-9.139726398798288243e-02 -1.186257667500328072e-01 4.994910853195805300e-01
-8.358278452857856311e-02 -1.179764230019567095e-01 5.139178009503818645e-01
-7.767702534979803453e-02 -1.131097635378350286e-01 4.823943402383273904e-01
-1.045927582667199734e-01 -1.195615995998004361e-01 4.895043543284116616e-01
-1.712239499554590524e-02 -1.233369199681514372e-01 5.398362396353507675e-01
-6.935250099000379864e-02 -1.181439058318318747e-01 5.179714916665967284e-01
-2.615941424747864757e-02 -1.191335076642435903e-01 4.926709840994035194e-01
-3.183529233592279767e-02 -1.012818454275739299e-01 4.654794560837333117e-01
-3.473999190297057810e-02 -1.183795843957826943e-01 5.415634725571533137e-01
-7.277030209776742808e-02 -1.135061853295975809e-01 5.270512334851332747e-01
-8.436337614629349502e-02 -7.273253597840557971e-02 4.456445266874765609e-01
-6.446613327582682851e-02 -1.166572463622238542e-01 5.248071572559958042e-01
-1.191802852837385920e-02 -1.269467870473386661e-01 5.107259462671775996e-01
-4.900647321029855119e-02 -1.138972504390020901e-01 4.880587482589481829e-01
-7.177236686176219349e-02 -6.179525186096870848e-02 4.430485015378321512e-01
-1.032881656190203501e-01 -9.706835112799053200e-02 4.606869306957200871e-01
-8.346170885005352313e-02 -6.410592418124680392e-02 4.454396684073207435e-01
-5.010884574388719398e-02 -9.215492498069070837e-02 4.592187798752814798e-01
-1.847568209017261265e-02 -1.224551198290105419e-01 5.436666448579623445e-01
-3.066618662756118510e-02 -1.089641793893300487e-01 5.493956734883065351e-01
-3.419934773355501334e-02 -9.587658711263197242e-02 4.615228904304412572e-01
-3.671625608095138021e-02 -1.148129783249928482e-01 4.886229542950523697e-01
-5.434473214552019982e-02 -1.091259042998562190e-01 5.363299616068025744e-01
-7.642046987387215995e-02 -7.431686923532174194e-02 4.457181994071938713e-01
-7.957238945976256861e-02 -1.105255103114575060e-01 5.255276841381549824e-01
-6.046966417268305818e-03 -1.259994425583944311e-01 5.325285036099217661e-01
-1.520131996102365435e-02 -1.117023384954789339e-01 5.613420052801213478e-01
-1.385180528917636864e-02 -1.247608883957184861e-01 5.340416076377029198e-01
-6.805966017147288549e-02 -1.186318424093276008e-01 5.137060762102176881e-01
-6.383192826471556502e-02 -1.057037186010057472e-01 4.716505126224929678e-01
-1.009083517998150548e-01 -8.516865288222860708e-02 4.577028834112083500e-01
-1.101563122882510681e-01 -1.166098083218982395e-01 4.981580739623800436e-01
-8.327755984125799135e-03 -1.272565911443732101e-01 5.084780706768730063e-01
-6.740909789413260245e-02 -1.187567116181075522e-01 5.129922971260277853e-01
-2.515539541794056463e-02 -1.217330114056791729e-01 5.412473911362649659e-01
-3.490453727042847065e-02 -1.199685789140040176e-01 5.034214382937994836e-01
-4.975760350760662087e-02 -6.664563042793052172e-02 4.461583532361562687e-01
-5.739565458593168246e-02 -1.094445206876499543e-01 4.792812911794045450e-01
-1.156420270330239530e-01 -1.074690074286629715e-01 4.738840029658525355e-01
-6.682993857485221290e-02 -1.177808316178621945e-01 5.209697931822506733e-01
-5.249957896674718044e-02 -7.986213771171801756e-02 4.513668696030977978e-01
-5.503449336822621024e-02 -8.816207555452414135e-02 4.554387740151198960e-01
-1.687181128588797346e-02 -1.212452051444704582e-01 5.472105576921882930e-01
-5.988010857897013706e-02 -1.077522389557432486e-01 4.756769943217393770e-01
-8.256361519836209750e-02 -1.143426931882687569e-01 4.827310356203711184e-01
-3.763854479288426119e-02 -8.421997613212239830e-02 4.533415846127548665e-01
-9.776268136590100799e-02 -1.079531196666428383e-01 4.664552546472096051e-01
-6.151939379465421603e-02 -1.135855149217674664e-01 4.879983779795317722e-01
-5.800542676291456368e-02 -7.772401754673061158e-02 4.499366008919274407e-01
-5.583495079406158162e-02 -7.227110701425736028e-02 4.481302914381944391e-01
-1.104191543851621993e-01 -1.127707020962346457e-01 5.065195387619318979e-01
-2.853225579880199272e-02 -1.121599697962977760e-01 5.518527756541125040e-01
-1.956486221534299574e-02 -1.180250116281104794e-01 5.526208098021521131e-01
-1.012212193507809194e-01 -9.952796607543580587e-02 4.617895399756646868e-01
-1.073911358262192306e-01 -1.159713822788929066e-01 4.764682775917852275e-01
-2.126936003430411962e-02 -1.249738762069320663e-01 5.189698047451637430e-01
-3.920235083060073789e-02 -1.182258472468200455e-01 4.985750104867515131e-01
-9.711476572479899039e-02 -1.114362394459260108e-01 5.162766666220798273e-01
-7.812054490799935635e-02 -8.841322962806108521e-02 4.538692873038138176e-01
-5.545652704886212814e-02 -1.173317865383456809e-01 5.277488965265835219e-01
-3.448575139572757770e-02 -1.197812806044952494e-01 5.020422271292238614e-01
-1.076206398332465036e-01 -1.018613643023390525e-01 4.644150823037716536e-01
-1.217711459503731664e-01 -1.026408060297133162e-01 4.806257373834468827e-01
-8.019423244751260060e-02 -9.963150917132670981e-02 4.631811080151435056e-01
-7.904010155178456398e-02 -8.059449001278133629e-02 4.480525945942482879e-01
-5.568351243348843710e-02 -1.156835326507948958e-01 4.945753287522705044e-01
-1.280419921214868278e-02 -1.222794578545805533e-01 5.440612407314814325e-01
-6.040023044370743804e-02 -1.051437501456455453e-01 4.717237029980973495e-01
-7.354668540999767523e-02 -1.179586095354974301e-01 5.180617376014786668e-01
-2.892726428505069947e-02 -1.123602284110813976e-01 4.802312686553846799e-01
-1.784709351595659133e-02 -1.257928920821881624e-01 5.168210053540048809e-01
-7.623517423121956016e-02 -1.169803016082628239e-01 5.203348559237970239e-01
-1.024921144331196049e-01 -1.131235510020554280e-01 4.698972028260695599e-01
-8.750787379240076991e-02 -8.208814328093688717e-02 4.503315229637067652e-01
-5.229684701819184434e-02 -1.040888072749859283e-01 5.386210608670563005e-01
-8.394341140229334697e-02 -8.394300701727967773e-02 4.507604319761446265e-01
-1.108474332181243541e-02 -1.009503279670457138e-01 5.670499655894370994e-01
-4.265461622582464307e-02 -8.993471116506264462e-02 4.579553842761074356e-01
-7.990635056294333183e-02 -1.175048712090167452e-01 4.946312399868122434e-01
-6.760184560655545238e-02 -1.101487743521993579e-01 5.303048397165980310e-01
-5.412669545035798252e-02 -1.175557579584569079e-01 5.276193546315154359e-01
-5.757097740032818961e-02 -7.923873233960385121e-02 4.506102644504737520e-01
-6.032218850651027697e-02 -8.152314213823319555e-02 4.511791619844368051e-01
-9.951076032199873689e-02 -8.137638891097698224e-02 4.583706986494558433e-01
-7.918660975491158271e-02 -1.140321235562677255e-01 4.847395749942201570e-01
-7.510625053532429818e-02 -1.106798486964461203e-01 5.286717539859981940e-01
-1.663885259797275723e-02 -1.250871214355495364e-01 5.319195654239964322e-01
-6.415221102949837662e-02 -7.428965653056039675e-02 4.477239819036489266e-01
-8.075208751895698867e-03 -1.279477244123719826e-01 5.144281387343512257e-01
-3.769405041673819928e-02 -1.195792955809479446e-01 5.039562201668615904e-01
-4.128195519347439835e-02 -1.200014118077690067e-01 5.094633236575181190e-01
-8.827126988019377840e-02 -1.154700066964596539e-01 5.174747942154368507e-01
-7.346737733987840357e-02 -5.944784855425427894e-02 4.434453745447636264e-01
-9.202398775533895958e-02 -1.150031090500628489e-01 4.762496433274679419e-01
-8.751020659337785737e-03 -1.264325473433599578e-01 5.043375395043345755e-01
-9.900110487456162400e-02 -1.179437077174170234e-01 5.018674553315606301e-01
-1.064986414176612856e-02 -1.229545180291535811e-01 4.935265841797101261e-01
-5.569880479684314462e-02 -1.121873158960122324e-01 5.342758168038448385e-01
-2.855284865010095791e-02 -1.076510835750761619e-01 4.727932114324021606e-01
-6.324335589247656597e-02 -1.176927387659328916e-01 5.032184483477961656e-01
-6.772677605484968277e-02 -1.092058383605074429e-01 5.306372554155306398e-01
-6.326239036702493990e-02 -1.184668077737700276e-01 5.171500366718206898e-01
-5.044202588459795883e-02 -7.667327104250031000e-02 4.501268326384827434e-01
-4.114279197865323978e-02 -1.205031392502747684e-01 5.152613989596434019e-01
-7.587008486011212471e-02 -1.062475989426809458e-01 4.711737756048090531e-01
-6.275244421215210588e-02 -7.921265092928551910e-02 4.498047799365649246e-01
-8.713153330941414421e-02 -7.781570717767095913e-02 4.479887086691599074e-01
-3.673925611056560320e-02 -1.174644508182051128e-01 4.948912578250672656e-01
-6.483784433989665807e-02 -1.085385071532877083e-01 5.317017751193453545e-01
-7.997140379068354288e-02 -1.029169182205443428e-01 4.665863003645787654e-01
-1.723981670166018984e-02 -1.197094827994922422e-01 5.501664698484562965e-01
-2.879243874010123730e-02 -1.037977165082870218e-01 4.671619642085965141e-01
-1.058619238746261321e-01 -1.191091809004049540e-01 4.925953824631432720e-01
-2.504406138750861488e-02 -1.240459235426632639e-01 5.220967846269251034e-01
-4.477870684148559099e-02 -1.131632227826387671e-01 5.389393771502606345e-01
-4.631428841468630819e-02 -1.124844392766054385e-01 4.846494698782927713e-01
-7.163009603668105130e-02 -8.385739629131695738e-02 4.507541823975988460e-01
-5.564238656299756031e-02 -1.062491243277559477e-01 4.741383810185654801e-01
-4.947631947842359712e-02 -7.534589075410730308e-02 4.495985891930227574e-01
-2.995792684615865287e-02 -1.192660617787975885e-01 5.438145413591334298e-01
-9.904520042633523091e-02 -1.189436557454244675e-01 4.783749722905882296e-01
-9.105717840593237355e-02 -9.251282168163946218e-02 4.567853990719900059e-01
-2.199680932988688081e-02 -1.246881498702519797e-01 5.296071046857856457e-01
-3.973386422195015338e-02 -1.205609022958348958e-01 5.289893665552659607e-01
-1.039190324362859602e-01 -1.135152559592846055e-01 5.092288857141066272e-01
-3.139452141894030768e-02 -1.218273144958288562e-01 5.100958697936651687e-01
-8.857685028496524449e-02 -1.171757120767531329e-01 5.135071390222244458e-01
-1.731467523891570132e-02 -1.254989110424981624e-01 5.302739131076055212e-01
-4.668044483242871079e-02 -1.011830165210310523e-01 4.680351222445066628e-01
-7.627978002915312972e-02 -6.490588228484266142e-02 4.431483291999019358e-01
-4.299443555052321481e-02 -9.958884432524524322e-02 4.663288819228973980e-01
-9.014775396071686431e-02 -1.192311648023748755e-01 4.936384056666661135e-01
-1.814640317301212391e-02 -1.258373563019668517e-01 5.208271641354528247e-01
-7.494065489376640354e-02 -8.099712685351799502e-02 4.484313060838251430e-01
-8.131882073418372769e-02 -1.139985290213164776e-01 5.225580673543501753e-01
-9.201012598013065535e-02 -1.194221867406053683e-01 4.930468845791904364e-01
-3.768416913694588866e-02 -8.601658403736453518e-02 4.548230466374781344e-01
-5.883335530989698692e-02 -1.130114603741273344e-01 4.868847866333490537e-01
-1.501515521933099659e-02 -1.169773667645374604e-01 5.557237869127963359e-01
-2.144768764720787410e-02 -1.041979996851324919e-01 5.619119401497608690e-01
-7.731342101917526577e-02 -1.020128579817852904e-01 4.661119112396494013e-01
-8.276461399457463175e-02 -8.860656793742684167e-02 4.539904172425296425e-01
-8.932015226335197899e-02 -9.011190611629685265e-02 4.553335895265906430e-01
-5.400235469295232293e-02 -1.018211574773761618e-01 4.683430622412781963e-01
-9.228168953809602615e-02 -1.176072311995601388e-01 5.075990707443603922e-01
-6.976272538578835725e-02 -1.155025047095581819e-01 4.915296893761053609e-01
-4.481157135290661508e-02 -1.023964735606211623e-01 4.694450543498053796e-01
-6.751790717007369325e-02 -9.002560962462591299e-02 4.552813405811618197e-01
-2.781544843244017351e-02 -1.109744309189496791e-01 4.774191521154048656e-01
-5.836781819501058594e-02 -1.184761041668599135e-01 5.111939051856904115e-01
-9.645319050785090831e-02 -9.487842424409240194e-02 4.584130779663952437e-01
-5.965856932248777417e-02 -1.185064349357718705e-01 5.131241947329714392e-01
-6.283113279871015144e-02 -1.168476312071190515e-01 4.994099985155570076e-01
-1.843281462579410973e-02 -1.192433066420151011e-01 5.506947905556170975e-01
-6.030806660264826508e-02 -8.295181052607628058e-02 4.517878286416920353e-01
-1.024573554859042335e-01 -1.198860668825625642e-01 4.890770633439250337e-01
-9.989597693877205753e-02 -8.662256408737144253e-02 4.568077658826517062e-01
-1.810665165826157511e-02 -1.169199819091995551e-01 4.822991507366692354e-01
-5.837122676990522119e-02 -1.114587067077052185e-01 5.335090478490045474e-01
-6.971733442086815169e-02 -6.300619557329763254e-02 4.435855927191900139e-01
-5.629511939380844182e-02 -1.167453334759596950e-01 4.988985957980281993e-01
-5.432394985684185773e-02 -1.190302064325689524e-01 5.226312384675378953e-01
-7.553712700346873476e-02 -9.830011427042580074e-02 4.623660878023020948e-01
-6.506662238719224112e-02 -1.132651143631051294e-01 5.292084128291388856e-01
-1.097743509292843367e-01 -1.161131007509934449e-01 5.002390809061797450e-01
-2.127419814778862273e-02 -1.250280074037655176e-01 5.271633622407746467e-01
-9.529912402778162317e-02 -1.154955765570228193e-01 5.148358943717358249e-01
-4.759108200178042980e-02 -1.047045478278474107e-01 4.722739354739602935e-01
-1.557120757857949171e-02 -1.229674816820062050e-01 4.958782518937513983e-01
-7.991216944361238805e-02 -1.010598550891889241e-01 4.646935622979305736e-01
-6.545936500410400039e-02 -1.098194082310709335e-01 5.311576609768020596e-01
-7.243196162555132211e-02 -1.090787148532183226e-01 4.768167010390605420e-01
-5.798870341075998414e-02 -8.234637229915986456e-02 4.518494888135596299e-01
-1.320911462383079701e-02 -1.206176023628786204e-01 5.493249429658200178e-01
-2.265643936769975303e-02 -1.144921574761994659e-01 5.558378778333203929e-01
-1.157408037604609058e-01 -9.580503145990218461e-02 4.707129866007780938e-01
-7.500695925590294966e-02 -7.056194490691868049e-02 4.445415003496362427e-01
-8.210694526530627757e-02 -1.071401069591152583e-01 5.245881888245661484e-01
-9.453525343531332670e-02 -8.486681756576686109e-02 4.533036951946406434e-01
-2.002921609071629805e-02 -1.113824589772464679e-01 5.598432143440196240e-01
-3.407355908059347960e-02 -1.012508934589632925e-01 4.663159870520430794e-01
-8.636948058677444695e-02 -1.187415303824517626e-01 5.009444564567168134e-01
-2.151740902236501732e-02 -9.647306290435406217e-02 5.600067834235227249e-01
-8.408817352735822870e-02 -1.178241747748510482e-01 5.143581966612218448e-01
-7.595900980398240243e-02 -1.088853192600559155e-01 4.754270955225997630e-01
-3.755986944353409407e-02 -1.209317925819232559e-01 5.144369122514218517e-01
-3.907540806073505485e-02 -1.178706445841805894e-01 4.972484129158725175e-01
-7.071618780555430361e-02 -1.180653807656939919e-01 5.185888772453005613e-01
-8.899832878231718480e-02 -9.295265014118544999e-02 4.571407705235793761e-01
-7.121536756322865980e-02 -1.028881799745319653e-01 4.673980103710348999e-01
-1.017650767777188575e-01 -1.175584155179310586e-01 5.026072501398922698e-01
-3.842259893783284141e-02 -1.206210450966005016e-01 5.309548445666435468e-01
-9.237056262898186987e-02 -1.146282362771996466e-01 4.745619457612549330e-01
-5.402659789196407464e-02 -8.147361874303754581e-02 4.519220281287091301e-01
-4.693817290635152878e-02 -1.197960536721372343e-01 5.156700024084648337e-01
-1.218696406553716194e-01 -1.022406809492404645e-01 4.805402626978390601e-01
-7.153483621132578074e-02 -9.434390635302634942e-02 4.587874617626457319e-01
-7.389501294185557567e-02 -6.233507264820656313e-02 4.430952815671432843e-01
-5.716794714530207960e-02 -1.111593317927995761e-01 5.340641559499983426e-01
-7.575041629740058083e-03 -1.279879597321015305e-01 5.257787172663213049e-01
-6.517177413836346134e-02 -1.187546149768269887e-01 5.104276334717372521e-01
-5.502172804047334408e-03 -1.240997915833115528e-01 5.360262594223751398e-01
-4.870313032315728291e-02 -1.041550275487023308e-01 4.717110777076807815e-01
-8.275735927018867955e-02 -1.125281285029235134e-01 4.786850632279594508e-01
-1.037767953953771388e-01 -1.211764794888820079e-01 4.829499034487690357e-01
-4.684174907225000656e-02 -1.102952312312902167e-01 4.808499207655571595e-01
-1.413064584248499220e-02 -1.228374167238571735e-01 4.944121849983619810e-01
-5.780176450801163129e-02 -1.175468192765469488e-01 5.032323428745610894e-01
-3.083123682589074960e-02 -1.150494074062433369e-01 5.481519171878420638e-01
-4.848461019793447874e-02 -1.090480361772842022e-01 4.789817743263356520e-01
-1.524774775050123481e-02 -1.198198744835279189e-01 5.505989655939705907e-01
-8.243721581341702936e-03 -1.280303962551292696e-01 5.160403847700294477e-01
-5.359739397628596191e-02 -1.064587820402926183e-01 4.748503198847160434e-01
-7.435659545104278401e-02 -1.108380299313394962e-01 5.287599209167949121e-01
-8.312390275753181457e-02 -1.162766038024236892e-01 4.898671843484877497e-01
-1.185817836572175127e-01 -1.019570382217631632e-01 4.743914391738288105e-01
-4.722705042419368671e-02 -9.088757504785267838e-02 4.586926757782390784e-01
-1.194488100513694806e-01 -1.065114032802303573e-01 4.974646730185718901e-01
-4.462045698690200041e-02 -1.147292261186305812e-01 4.895006206849641939e-01
-7.817411969306749253e-02 -7.235958002305144243e-02 4.450515459416029551e-01
-4.827113125343341499e-02 -1.131603135326997717e-01 4.863124371974158477e-01
-9.358600359924088008e-02 -8.675380600719601043e-02 4.539116484678110131e-01
-8.943648723372488174e-02 -1.120876568942718587e-01 4.735641297282527917e-01
-7.541098881444999180e-02 -1.186318025466517739e-01 5.013277207471542596e-01
-1.114907140826925380e-01 -1.144590250372820861e-01 4.778171572276217471e-01
-2.854723571003379631e-02 -1.214818310242254257e-01 5.385464566508695317e-01
-1.354195287445720056e-02 -1.211857857550496659e-01 4.899124218912148110e-01
-3.103647944484473273e-02 -1.131543313701416364e-01 4.830185959397882978e-01
-4.430692893372882579e-02 -1.162614319215584530e-01 5.376496629640170610e-01
-7.906864410381786445e-02 -9.105492620945650206e-02 4.559827840247595021e-01
-6.335059229557492289e-02 -1.187347522373270875e-01 5.121486498259327780e-01
-6.406686657345446456e-02 -5.865425343317065554e-02 4.434750403226724869e-01
-6.238806944343196909e-02 -7.584171141734213917e-02 4.486634300186858604e-01
-4.901496346069932064e-02 -1.193408570471821278e-01 5.113878991477085467e-01
-1.294804131136348749e-02 -1.144885900455905742e-01 5.588467205121409043e-01
-5.391661785002113683e-02 -1.192567883530801509e-01 5.182286496388127661e-01
-8.347983841944464634e-02 -1.174920586884830448e-01 5.162669733261028293e-01
-6.906631956901129743e-02 -1.130411693224166597e-01 5.280490323521987994e-01
-3.336841908872856255e-02 -1.209549607268248089e-01 5.066685256294006789e-01
-4.514522486738721530e-02 -1.182407579551882498e-01 5.015954363585264364e-01
-9.210209162598291532e-02 -1.079477526973559032e-01 4.677638292565861611e-01
-4.866078269368868947e-02 -1.129210868513891852e-01 4.858599446101444785e-01
-7.043401369031832004e-02 -1.174273873706405125e-01 4.971006945854785086e-01
-4.101104323547116737e-02 -1.077195733066523414e-01 4.758900038939120059e-01
-1.041618300473014583e-02 -1.245585109993623818e-01 4.985179128198978793e-01
-6.309369120178727475e-02 -1.186865245828791632e-01 5.118268814894678664e-01
-7.228160334871004677e-02 -1.126396594601224710e-01 4.843609240373549230e-01
-1.137986893658120835e-01 -1.105664114548246535e-01 4.755328034644555890e-01
-7.918107474598057652e-03 -1.279694718214755278e-01 5.143332732664809281e-01
-6.946424938042465407e-03 -1.283860163861736681e-01 5.222037850311787022e-01
-5.278504331714749948e-02 -1.168604277513885514e-01 4.984739894447852149e-01
-6.455394825712765239e-02 -1.002564136862513916e-01 4.649153464959553395e-01
-1.750099478900394787e-02 -1.037242678597890128e-01 5.644554297790131958e-01
-7.852914472735002260e-02 -1.091389560571522643e-01 4.751969675844975316e-01
-5.566998773726633543e-02 -9.274500626762664790e-02 4.588437391128234455e-01
-8.347813880671044184e-02 -8.050884454697708470e-02 4.485722184499084664e-01
-9.488292479109974517e-03 -9.474394178571664271e-02 5.700244580782342085e-01
-7.923920307566457988e-02 -8.268730781880812009e-02 4.493738500889552512e-01
-1.088470835132226283e-01 -1.175885866248044809e-01 4.800321560011051591e-01
-9.868887600608981792e-02 -1.149350911003711173e-01 4.717629355887562048e-01
-9.166777253892884059e-02 -1.169643463181925386e-01 5.124731093075385324e-01
-1.027971797161348760e-01 -1.076964471275272395e-01 5.120740179503041611e-01
-6.282716131029503215e-02 -1.124681713510959219e-01 5.310613516618085672e-01
-9.028201485481869570e-02 -1.122663895245654686e-01 4.733452395342265251e-01
-6.016868248239166245e-02 -5.786452052278168168e-02 4.435865483575140988e-01
-6.168184303856915490e-02 -1.170898794182942404e-01 5.008197925835627951e-01
-1.015640610533042054e-01 -1.190924794982800156e-01 4.925036462337604726e-01
-4.254550061357608576e-02 -8.911005566118215815e-02 4.572838300666519640e-01
-3.858306906246836143e-02 -8.596862702059664130e-02 4.548107018283437664e-01
-6.629472550818785170e-02 -9.399771920773999923e-02 4.587463768926580143e-01
-7.189321499974066221e-02 -1.135320135814793796e-01 5.271217407511277209e-01
-4.746306565440651382e-02 -8.150942019930898508e-02 4.524394449780091421e-01
-1.129070295474822461e-01 -1.126850074473371849e-01 5.043263651897255118e-01
-9.122143453933631574e-02 -1.194551900901234948e-01 4.925414199260742532e-01
-9.903679641127370592e-02 -1.162094547046687437e-01 5.091895186321625522e-01
-7.337593500034361726e-02 -7.472102563578054968e-02 4.462198702116079163e-01
-6.601654041739482559e-02 -9.205845302183873757e-02 4.571230095426546680e-01
-4.999523967921649242e-02 -9.791650973900135890e-02 4.642134563216159249e-01
-8.590606846953952047e-02 -8.828008130220349470e-02 4.538200269247105734e-01
-8.893317205817434512e-02 -8.753631983894231972e-02 4.535092134953382370e-01
-3.638314243325404401e-02 -1.102514095033233915e-01 4.792878967580442851e-01
-8.600780140946205632e-02 -1.172551759399666493e-01 5.144535359579991418e-01
-7.245561547020365478e-02 -1.154350070067890616e-01 4.905122180779333818e-01
-4.633426621594917416e-02 -9.204808600282705922e-02 4.596382679404417693e-01
-1.790152527849366709e-02 -1.237793301597556045e-01 5.372125770502066411e-01
-5.563373709318598231e-02 -1.091165863612574144e-01 4.791145908438719792e-01
-1.014573127958696558e-01 -1.126213708942212927e-01 4.696558299460525387e-01
-5.885797773125705373e-02 -1.186498410438581591e-01 5.159596685476560696e-01
-2.276739335683503063e-02 -1.032836542296741711e-01 5.600923545054006247e-01
-1.119073590036866704e-02 -1.258743693797786667e-01 5.315531689666328496e-01
-4.842155557465655652e-02 -9.682531560302845564e-02 4.634260265377410648e-01
-4.418919448048311271e-02 -1.189052570487033889e-01 5.042701614109301733e-01
-5.513764637479334763e-02 -1.173111946684081419e-01 5.279353916354661003e-01
-7.456447260901320762e-02 -1.177704652966296839e-01 5.183381383953772348e-01
-8.840205387511861079e-02 -1.169839250489551064e-01 4.839048277106038909e-01
-5.335292359242396754e-02 -9.445276259057111545e-02 4.607350192777823761e-01
-5.756489286170491521e-02 -9.190733701534450906e-02 4.577931065753214623e-01
-5.794832167867435685e-02 -6.334568770781888458e-02 4.448490548138073208e-01
-5.197796728249637344e-02 -8.720842006888561426e-02 4.551692114129525790e-01
-5.211296069883848692e-02 -1.162068198734935998e-01 5.326591487973078021e-01
-7.185222298681488706e-02 -9.091819023473911299e-02 4.557467781417771646e-01
-1.484808860952595289e-02 -1.265522397647339259e-01 5.166698861968559431e-01
-5.747182292239742807e-02 -1.159236120822181026e-01 4.958369443243171304e-01
-6.506978558210310681e-02 -1.112826546358132718e-01 4.826440380507638350e-01
-1.199357269861946879e-02 -1.266446223205823507e-01 5.084681740464961353e-01
-1.552464936523902106e-02 -1.038091991458912899e-01 5.649556388408476515e-01
-1.078346446248647089e-01 -1.029758896297194998e-01 4.653182824530934236e-01
-5.131766096489052270e-02 -1.067004861872846988e-01 5.387787619033569397e-01
-6.990140463370857205e-02 -9.135418688751094363e-02 4.562243643789972714e-01
-7.282860146669153933e-02 -1.177016891143145144e-01 5.191158880216493188e-01
-1.182124160208652269e-02 -1.112976674317116416e-01 5.617830996374953978e-01
-1.186115411665465413e-01 -1.117595475144863154e-01 4.900294263455626242e-01
-4.906690427427157219e-02 -7.081340370137895190e-02 4.476613239310743286e-01
-6.612680807658173621e-02 -1.182298811463773081e-01 5.192359540916968719e-01
-9.523726321364336944e-02 -1.160431370888069247e-01 4.753356443813278598e-01
-4.075747920514695422e-02 -1.042734434689159551e-01 4.713524301622303292e-01
-1.110766395513651805e-01 -1.074980002239773330e-01 4.706138784944551290e-01
