-6.985537969863439556e-02 -7.397746258311736767e-02 4.488012157309224093e-01
-1.434274489263494962e-02 -1.262607799636442929e-01 5.146507278358637416e-01
-3.606013056486038863e-03 -1.282357742168318548e-01 5.166439500436406096e-01
-2.783716547551530474e-02 -1.072957001424217627e-01 5.529943414044473649e-01
-6.168571110953827846e-02 -1.122589781617557431e-01 4.879413497422359636e-01
-3.273874277748479306e-02 -1.120307073970723960e-01 4.833559273683089574e-01
-2.646524291802251905e-02 -1.226754674307763415e-01 5.100709528709173046e-01
-8.471616042509919065e-02 -8.127610374768474977e-02 4.518548334101820663e-01
-8.829567347147569689e-02 -7.722749874437544182e-02 4.510562086091902678e-01
-3.700588184959455185e-02 -1.088227547539257906e-01 5.451151492073706972e-01
-6.689688198484926296e-02 -1.180157726456672052e-01 5.086570810848075608e-01
-9.039973538446502421e-03 -1.244791915431707613e-01 4.992666081900945518e-01
-9.320171804577498734e-03 -1.265764250188991802e-01 5.295556181668991114e-01
-8.155744962736506676e-02 -1.142625282970297779e-01 4.874747539004362085e-01
-3.017795080552557532e-02 -1.116078829428769348e-01 4.809902464886004481e-01
-7.393200971669150467e-02 -1.159354584504566910e-01 4.952192284090050078e-01
-7.234122560858494144e-02 -1.120261425511377834e-01 4.856803638967320258e-01
-6.243310393946624459e-02 -9.729624695407199098e-02 4.644893293940420276e-01
-2.938075991086823782e-02 -1.098147473623021786e-01 5.509129689091620818e-01
-6.767449971226051353e-02 -1.035321803815973107e-01 4.710042175012529864e-01
-7.161757202983272397e-02 -8.273999147566381274e-02 4.524433958219035157e-01
-9.990132665788524491e-02 -1.068392163154015251e-01 4.697945823251499231e-01
-2.534610510738125738e-02 -1.232767650161970818e-01 5.141543603051509370e-01
-6.111777644913995999e-02 -1.027458277448887181e-01 4.710025109574122459e-01
-1.784743266473206441e-02 -1.212436797364595947e-01 4.936461868014395127e-01
-1.141405471418941997e-01 -1.154444145741715666e-01 4.957884722019518242e-01
-4.936389685318857273e-02 -1.193688684580530152e-01 5.190262251689389261e-01
-9.484107912967854048e-02 -1.155551284243558491e-01 5.164698842549263480e-01
-5.562705094432727343e-02 -1.133325579374641484e-01 4.903600656018242132e-01
-6.675948673857368121e-02 -8.661761679390338198e-02 4.555038273292652540e-01
-3.348751296305019914e-02 -1.212764402163651889e-01 5.315715634018086666e-01
-7.467239125293469171e-02 -1.149525442657591545e-01 5.268081790295948696e-01
-9.772416809318991426e-02 -1.165030079643062794e-01 4.779881696487483511e-01
-2.349305685665326049e-02 -1.240366540922769739e-01 5.257622702738103948e-01
-1.079871487392816271e-01 -9.801084367177693990e-02 4.669599620913180704e-01
-1.165470716790807659e-01 -1.012378505437433879e-01 4.753078255188266099e-01
-5.925331043987142055e-02 -1.052799588008080794e-01 4.747610915964818878e-01
-9.448890598401264718e-02 -1.190652200084797996e-01 4.963482248988820844e-01
-2.974334011423575633e-02 -1.174739034046916319e-01 4.932845255954369512e-01
-2.101343406479403916e-02 -1.206922531007108695e-01 4.946729616089827197e-01
-7.846928969266130094e-02 -8.696739181843197997e-02 4.554077373532054995e-01
-7.151855744057755704e-02 -6.654699745654910070e-02 4.461648555907989921e-01
-1.052285829122134170e-01 -8.686890655684330331e-02 4.658877805433824792e-01
-1.193953263962140993e-01 -1.073591805237555236e-01 4.939272763584764969e-01
-3.973670843872864622e-02 -9.198876284710137685e-02 4.611310441785407832e-01
-8.927827229291587785e-02 -7.175114139732023666e-02 4.512347111594933180e-01
-3.091720660302326590e-02 -1.173794639190961220e-01 4.937270063608870663e-01
-6.602902781944916533e-02 -1.040641507841471997e-01 4.719574886157040239e-01
-5.154675253980770672e-02 -1.044330043156760784e-01 5.404653588575871748e-01
-4.594405005047425689e-02 -1.009970389286306697e-01 4.696726673168392097e-01
-1.144685888279046125e-02 -1.218561144426607012e-01 5.455521667245886164e-01
-7.918598543646873655e-02 -9.938093112154275377e-02 4.663330125851541386e-01
-7.188160948065872025e-02 -1.020598614693334905e-01 4.693075031459282842e-01
-4.952580879029768596e-02 -6.961720682129095283e-02 4.486409515524123481e-01
-1.082931253526913384e-01 -1.074064455154372655e-01 4.735269172040532104e-01
-1.006543167094226393e-01 -1.193271345758549484e-01 4.950917299280053196e-01
-7.070269014866448209e-02 -1.134649827493192931e-01 4.903825412233184244e-01
-9.360478960188951814e-02 -9.722335262727289928e-02 4.631580331349365309e-01
-1.069306362589925868e-01 -1.144735546894774664e-01 5.092322921908933875e-01
-1.883217074786032105e-02 -1.180864827138457945e-01 5.530814954039464659e-01
-3.320920045417782157e-02 -1.213409626568411753e-01 5.140071557229676236e-01
-3.965048208830789650e-02 -9.522242632611307989e-02 4.638600011476124996e-01
-5.525414511518852989e-02 -1.029474893816679781e-01 4.720740498026928522e-01
-5.754931465183182882e-02 -1.152915522636655254e-01 4.966477890674849127e-01
-1.133782737077975583e-01 -1.134634371438585781e-01 5.056672543806638442e-01
-9.093464121211060347e-02 -1.077822862484756478e-01 4.719509863832584418e-01
-7.345136487947608039e-02 -6.043177034829674138e-02 4.452227348223631309e-01
-8.878721057755517565e-02 -1.158730460609748436e-01 5.186258155085975430e-01
-1.766636115383839190e-02 -1.232948354801549629e-01 5.395921928034496107e-01
-6.702694973437070547e-02 -1.173199313512821446e-01 5.035734482534643952e-01
-9.222720632212147440e-02 -1.179675366585629104e-01 5.051877149299461855e-01
-1.145479730195267803e-01 -1.046130525921074583e-01 4.746554299413328626e-01
-1.478642918655830203e-02 -1.241125179384942323e-01 5.362066150129395359e-01
-8.119711549569283426e-02 -8.167131843960884208e-02 4.515309241649546057e-01
-5.032251336335102215e-02 -9.862240614892692214e-02 4.667773928022270757e-01
-2.399291451499411393e-02 -1.208544942140099276e-01 4.981901629756318450e-01
-3.003741466172607510e-02 -1.215654860821327038e-01 5.354144413193611118e-01
-1.081892296684897892e-01 -1.124145939165661634e-01 4.780696354230710154e-01
-5.252433660715916802e-02 -1.051965454294305630e-01 4.752407884147143990e-01
-2.329725124698129105e-02 -1.240402651440010579e-01 5.192168202111097086e-01
-4.993057088636624480e-02 -1.105124081490285737e-01 5.394447473580300523e-01
-1.951189457406251118e-02 -1.240789357600264875e-01 5.065355376518564379e-01
-8.096223213492963200e-02 -1.097242324464672986e-01 4.794080893714503522e-01
-2.659078226525402391e-02 -1.157096143156122608e-01 5.515902784032671313e-01
-1.043330649938280230e-01 -1.137819051299122086e-01 5.122433605257168399e-01
-6.958876845100120390e-02 -7.598106418655121985e-02 4.495945889463702771e-01
-1.189495191237255611e-01 -1.086776464831791106e-01 5.014401100667978950e-01
-6.279493012227868598e-02 -1.120614943186286905e-01 4.874580979398881464e-01
-7.889647516043207798e-03 -1.278583527137623077e-01 5.221660891134498605e-01
-2.673923459344775683e-02 -1.179328936234775999e-01 5.490215216590971226e-01
-1.135866356497508903e-02 -1.234803846100001185e-01 4.968907822966692200e-01
-1.047935872643229599e-01 -1.022462479369988797e-01 4.681054355581423798e-01
-3.776282619311559230e-02 -9.132082728530936666e-02 4.601249435072611860e-01
-1.368102370513832496e-02 -1.261172753084776332e-01 5.096895227457857169e-01
-8.367182524729240012e-02 -6.805081681068868293e-02 4.474496354291366274e-01
-1.097845632439960750e-01 -1.050442852021539891e-01 4.722087383878355582e-01
-2.901497901061760726e-02 -1.193618147620492120e-01 4.977446328459096958e-01
-4.285133782578651185e-02 -1.135849886572437295e-01 5.409559368380342237e-01
-5.800054837921622686e-02 -8.135531530406285572e-02 4.534792710884164024e-01
-3.735941687834268277e-02 -7.881784769368534171e-02 4.508895610301962842e-01
-2.401198841379834428e-02 -1.044211102711342515e-01 5.579482309555661157e-01
-1.378021624677707238e-02 -1.259241419204400747e-01 5.087120250062213689e-01
-7.244636544474600259e-02 -9.573242041218651965e-02 4.628087612277636542e-01
-7.479427259589088717e-02 -1.018731854296989342e-01 4.690965576783256430e-01
-1.015806531112259381e-01 -1.013738982588725940e-01 4.669116116069936262e-01
-4.811149109709249999e-02 -9.364958614683795146e-02 4.626427783282137662e-01
-5.892034980519497700e-02 -1.178901475995346171e-01 5.108667430284963284e-01
-6.227988287529593464e-02 -1.127871290023706868e-01 4.888940384401556649e-01
-1.072729631719069043e-01 -9.623317784065520131e-02 4.656736785569280945e-01
-2.769102812067216271e-02 -1.127232405869700860e-01 4.817557869736988629e-01
-3.738352768009309268e-02 -1.189734760005668884e-01 5.393216275372273438e-01
-6.035960000142077259e-02 -9.359989903645737908e-02 4.611987890774962850e-01
-4.081720384115206796e-02 -9.026724183683330904e-02 4.597676501791401749e-01
-4.176837682826093495e-02 -1.084335226546141867e-01 4.788183948981678539e-01
-3.692927595615220354e-02 -1.207234324002089826e-01 5.165100473552532989e-01
-4.219371028306547616e-02 -1.110075183568077078e-01 5.424032913520093757e-01
-1.073520166553993960e-01 -1.105215568970452228e-01 4.752319836120451058e-01
-2.352318084556235048e-02 -1.240601400264008669e-01 5.234445872147057699e-01
-7.634759149765076025e-02 -1.018915397982416704e-01 4.691340951520249769e-01
-1.046664067425897154e-01 -1.169585554434477426e-01 5.044650062722434436e-01
-3.592359361188562222e-02 -1.081029131893120887e-01 4.772652220696091407e-01
-6.227618079773537124e-02 -5.963671616577676665e-02 4.456177829015343095e-01
-8.627623010118273816e-02 -1.173357104975547294e-01 5.143799155098409681e-01
-3.292891764516466674e-02 -1.214389795111684989e-01 5.145675182681944682e-01
-8.957778020963583221e-02 -1.118470582790440648e-01 5.227844310145599582e-01
-8.454087158918344169e-02 -1.012559741144099940e-01 4.677189636717676846e-01
-6.793118744336740233e-02 -1.183577130829879948e-01 5.142289388930940675e-01
-2.117563939193743347e-02 -1.196135772677923703e-01 4.916583155333437150e-01
-8.938285628946320005e-02 -1.157088221337964629e-01 5.187303628774615483e-01
-2.764349024429852558e-02 -1.053380552691806776e-01 5.534948491013462757e-01
-5.228125111913187878e-02 -1.171056555024603124e-01 5.026891676423823618e-01
-1.197240169402857407e-01 -1.003439708554573623e-01 4.805593449426632247e-01
-9.272828416829761999e-02 -1.171457428024066105e-01 4.862835042557670517e-01
-5.973186694344756464e-02 -8.953313752500004219e-02 4.580681877098921606e-01
-9.651946605008135394e-03 -1.251214072865613203e-01 5.339129734072336486e-01
-5.073863488308686526e-02 -9.549801008857644602e-02 4.639975779587870997e-01
-7.895622865188670070e-02 -6.257630230818225781e-02 4.456211802808250355e-01
-9.600783833190960903e-02 -1.129597746011195142e-01 4.760375019271383956e-01
-3.777298742762680295e-02 -8.256886991094339323e-02 4.533104160339201383e-01
-6.513598285671903798e-02 -1.159686764722431679e-01 4.985538512851504511e-01
-4.093592339343079395e-02 -1.195335067778028060e-01 5.096435988956465879e-01
-1.508239045028246864e-02 -1.222775544624725569e-01 5.446928127286408960e-01
-7.477286669128127561e-02 -9.704365309691337371e-02 4.641768232834339591e-01
-1.951785646858953185e-02 -1.188359143844672089e-01 5.514491400233441087e-01
-2.336042085061908191e-02 -1.174572376744439095e-01 5.519603065128011465e-01
-3.221728459655727461e-02 -1.058961064608584801e-01 5.482859229699336145e-01
-9.066580976988558582e-02 -1.175408372011299274e-01 4.918750106206330464e-01
-5.039506065149532837e-02 -7.853171328910431293e-02 4.525873740856288796e-01
-1.320402542949340036e-02 -9.824748612302584838e-02 5.670492287701822676e-01
-1.098599029640499464e-01 -9.219574091641763447e-02 4.683822809359992068e-01
-7.171001428325489424e-02 -1.183923988049800508e-01 5.080591674206177411e-01
-2.569033996414035390e-02 -1.057700740408682311e-01 5.562181397451866349e-01
-7.007186426360270670e-02 -9.850515868587549073e-02 4.653513244056031173e-01
-5.490643712716521824e-02 -6.487164602208192465e-02 4.470660049663028324e-01
-1.381123093306627601e-02 -1.202462668257576750e-01 4.892436627278966554e-01
-1.117475704939925180e-01 -1.088100915014326570e-01 4.769110226482992099e-01
-8.590667405953239522e-02 -1.181180362794271438e-01 5.012077420474057021e-01
-9.268511181188857084e-02 -1.183971801543878127e-01 5.008039932551473505e-01
-1.105475452133063557e-01 -1.165078630299826168e-01 5.002649506723244599e-01
-5.322694056115761380e-02 -9.430426791492020622e-02 4.626699509379146869e-01
-4.676392968268202471e-02 -1.182958083389863968e-01 5.337085657968582142e-01
-3.370219753084345571e-02 -1.095483163218667205e-01 5.470234154365740675e-01
-1.369257300066401700e-02 -1.027484755054996479e-01 5.661929309282748290e-01
-3.932373379116325257e-02 -1.190755959642188638e-01 5.376674579982112512e-01
-5.182919246769345650e-02 -1.157611552891724127e-01 5.345401961921014689e-01
-6.575530346741307978e-03 -1.194127348445851722e-01 5.497288288282435875e-01
-8.966541124701896126e-02 -1.172816802353937732e-01 5.117898645291243387e-01
-7.549791457695276785e-03 -1.002695777148643330e-01 5.685812962367224888e-01
-1.595813772608989725e-02 -1.234034826634786836e-01 5.391588343228674862e-01
-1.207991592893360167e-01 -1.050335644922575085e-01 4.888478847798586324e-01
-2.377462567053065245e-02 -1.219022936994218209e-01 5.015851100010225716e-01
-2.866760634248690341e-03 -1.283161650116241004e-01 5.191721372205366780e-01
-8.445120017665197487e-02 -8.464527143689677680e-02 4.540745794023394732e-01
-6.750311341421960654e-02 -7.057514893324631777e-02 4.480255192427963773e-01
-1.126802233472571219e-01 -1.107316672744831920e-01 4.792994758867339944e-01
-1.783615739578198536e-02 -1.215589247899717396e-01 4.946520112652557088e-01
-7.614082818111846118e-02 -1.181587095442594298e-01 5.037761166459768791e-01
-3.088168598868107524e-03 -1.283138141505277829e-01 5.199157674245138416e-01
-1.092825562670473108e-02 -1.269815270323057521e-01 5.134800923832487651e-01
-9.837733126130290828e-02 -9.604662148680832845e-02 4.630974072568177502e-01
-1.955605403244179211e-02 -1.216473846626833499e-01 5.457925290174460153e-01
-9.337394146558299080e-02 -1.186190241028272641e-01 4.911589506904827096e-01
-9.476970567648748678e-02 -1.167846515467689111e-01 5.109366691067444011e-01
-1.304043438926825137e-02 -1.265845816519250988e-01 5.250827385293871385e-01
-3.436567144793181011e-02 -8.245057057711627224e-02 4.522401218601244666e-01
-6.534707669472532288e-02 -1.044346580525619267e-01 4.725497536828342504e-01
-2.212882324063985065e-02 -9.975222541860277736e-02 5.591537019241595852e-01
-8.801727902933120795e-02 -1.175973408075943888e-01 5.106008076113752736e-01
-4.826620350564635870e-02 -1.068657762237475439e-01 4.776943167481815244e-01
-2.964598090239872405e-02 -1.222002482187093952e-01 5.165068240456996973e-01
-4.929277848925181504e-02 -5.789877381347995761e-02 4.448859250588030334e-01
-6.353873656118784463e-02 -1.097704203121381006e-01 5.340303153780743273e-01
-3.544903073055044596e-02 -1.101205342945840299e-01 4.806573437443137364e-01
-5.111795993134032878e-02 -7.568110571223524152e-02 4.513376833441679059e-01
-2.961811988722542338e-02 -1.051676876620696310e-01 4.709998082744399350e-01
-9.236962767103112926e-02 -8.348019413568961988e-02 4.551685523008647261e-01
-1.007502172220640403e-02 -1.273589234930860292e-01 5.246469058332151603e-01
-4.809557354311873138e-03 -1.204202251474029428e-01 5.426204644538900057e-01
-1.122760570523554241e-01 -1.116544306484233556e-01 4.798962454263208111e-01
-3.260608064108680426e-02 -9.396213701909551796e-02 4.606145222733307731e-01
-4.184573872660390936e-02 -9.556700626329413251e-02 4.643000225733360242e-01
-1.341851977989114847e-02 -9.807684390649420991e-02 5.669993548105070058e-01
-6.149106773662515318e-02 -8.717356746400271861e-02 4.563367001503911280e-01
-7.534386091552443265e-02 -9.630283679850260015e-02 4.635287613642548599e-01
-1.106308489000934064e-01 -1.180937310621017200e-01 4.913999558887648944e-01
-2.887515220454806714e-02 -1.142387498112984179e-01 4.855792648024802038e-01
-4.708586543791079548e-02 -1.002477297780167420e-01 4.688253012815082887e-01
-5.904641108432900909e-02 -1.182156377510172884e-01 5.178537202428983299e-01
-1.287669769154554944e-02 -1.258566212412976781e-01 5.292243722507516956e-01
-5.181262527773560639e-02 -8.721238392279707929e-02 4.571249959117487105e-01
-9.971107097146676701e-02 -1.151151328812866359e-01 4.769750001426076857e-01
-1.406780052289301197e-02 -1.228045978632835572e-01 4.958828837003529388e-01
-8.109386551133624527e-03 -1.271050231701005284e-01 5.098410683405124599e-01
-6.747835145168762372e-02 -1.149400966025797832e-01 4.943203248554223217e-01
-1.317498680672397199e-02 -1.146513658365530680e-01 5.594359022096606626e-01
-2.800224619931350467e-02 -1.216724953595877540e-01 5.062455507535421617e-01
-5.110055929823555804e-02 -1.040832108428451364e-01 4.737381746395804560e-01
-4.275470222966838013e-02 -1.197404041142883929e-01 5.316990868525141023e-01
-2.983172063410018116e-02 -9.657839771611967383e-02 4.614240718003768116e-01
-8.334887064038565274e-02 -1.065723870421048519e-01 4.730232542880246638e-01
-7.836678675753122603e-02 -1.153478549315691826e-01 4.931143558021459095e-01
-5.446894823193554336e-02 -7.246052155384748172e-02 4.499900885980328558e-01
-1.053020695603588130e-01 -8.955058521662868920e-02 4.638264497040193723e-01
-1.147104604682610760e-02 -1.024259174671914574e-01 5.666608294025488046e-01
-2.115606103402117161e-02 -1.173822395495224546e-01 5.534495214955480469e-01
-9.596516676015393044e-02 -1.161912882901494776e-01 5.129379930005549815e-01
-2.232567574566578922e-02 -1.243232896765720796e-01 5.200509188606113886e-01
-6.370359057563913796e-02 -1.133264604589093588e-01 5.315291041960802376e-01
-3.072763477661796805e-02 -1.204532320880593449e-01 5.033729905507056124e-01
-3.360803883562135663e-02 -1.041615052998856317e-01 4.710467865945794919e-01
-1.001844589386486489e-01 -1.112673280288481309e-01 4.734261610079263383e-01
-1.094281621183296888e-01 -9.371055321128038407e-02 4.679024026003527070e-01
-8.229117357448079151e-02 -1.177710612976234639e-01 5.153091263826670154e-01
-4.605956710289448724e-02 -1.107590556488156630e-01 4.836361464856725467e-01
-4.074970906431169687e-02 -1.203478894295238744e-01 5.240880363873080539e-01
-5.013289849804703630e-02 -1.070354346670489981e-01 5.408334428641206060e-01
-1.109409612671807821e-01 -1.166734280437654453e-01 4.991093330466724320e-01
-5.123704090535731448e-02 -1.127632738525540940e-01 4.884209524905027688e-01
-3.349386824630052467e-02 -1.206696615852595467e-01 5.363533315330829554e-01
-5.117393204301543680e-02 -5.886506318785594827e-02 4.452041042162456774e-01
-3.457868109347709412e-02 -1.062769957859899389e-01 4.743246812770937071e-01
-2.103954806468644190e-02 -1.235157079848473866e-01 5.363978901973032176e-01
-9.083941384776111905e-02 -1.131448041722590281e-01 4.783992601380088749e-01
-9.898534885242139814e-02 -8.835286868135788785e-02 4.598251678621349536e-01
-9.817326829855856085e-02 -8.372978188712322523e-02 4.584832056998554006e-01
-3.031179125867822233e-02 -1.124938826561122235e-01 5.499153112902495089e-01
-5.152460656732943400e-02 -8.923400617257402911e-02 4.586611555913486793e-01
-8.059225421266734413e-02 -1.114494346231315325e-01 4.817014514233885492e-01
-1.059683699763376147e-01 -1.164884550537087643e-01 5.052348903267023239e-01
-3.636666404214406595e-02 -1.140086085604423982e-01 4.887293635653665591e-01
-8.990284036700056658e-02 -9.858735378943120353e-02 4.645231169576026220e-01
-8.641767045672366088e-02 -1.167722052293695689e-01 5.176272903390177760e-01
-2.203475918780925524e-02 -1.175684999384480484e-01 5.526020612534724430e-01
-7.403809407411804377e-02 -1.155440159638038283e-01 5.258898386208041842e-01
-8.168990738929127193e-02 -1.183000285190340395e-01 5.048445755442877436e-01
-1.587119099625247665e-02 -1.258647499141170578e-01 5.259821568293843175e-01
-2.792038529254855031e-02 -1.149538307163485429e-01 4.860036537223159647e-01
-1.085293073734196617e-01 -1.096778895544298499e-01 5.126510760103826225e-01
-2.963467560852164895e-02 -1.221866491039897834e-01 5.161235327245256022e-01
-9.036040433822410678e-02 -1.107547679546111719e-01 4.759821054712699007e-01
-3.071602093319454954e-02 -1.221760384238175096e-01 5.220334906800899732e-01
-6.155399283303485819e-02 -8.455672110382711493e-02 4.546569933505048566e-01
-4.844820666264884612e-02 -6.593404489648913014e-02 4.473728488703540007e-01
-5.733930467474880610e-02 -1.179926732657888833e-01 5.104777440898076168e-01
-7.483853999757952846e-02 -9.813038816301233869e-02 4.651972190253176320e-01
-7.885531064633939657e-02 -1.147614404171294483e-01 5.253032548471241459e-01
-5.971728519862719992e-02 -1.176393097387279513e-01 5.249209920822738296e-01
-8.790438985246867842e-02 -8.363725973525880375e-02 4.539788794619369350e-01
-5.911337818385824922e-02 -1.155087603805217134e-01 4.979052518013685757e-01
-8.860373268073901132e-02 -1.187760180147698214e-01 5.004207355403125224e-01
-5.988369156183011299e-02 -7.979267053991924430e-02 4.525956734609368204e-01
-9.248300904847819165e-03 -1.162279609888671461e-01 5.571494801351694059e-01
-5.643373256431982732e-02 -6.930750958905641801e-02 4.486074428390868785e-01
-1.893130558858482221e-02 -1.249990660354238503e-01 5.301006225232323121e-01
-4.428088768097434777e-03 -1.281704379664129478e-01 5.151423326322644991e-01
-2.391025071166742386e-02 -1.098093737440081208e-01 4.744205829178198552e-01
-7.446805711298858099e-02 -1.020869999673775369e-01 4.693757406810821209e-01
-8.251789708105586318e-02 -1.064332926046520772e-01 5.274298932529927209e-01
-3.614032319269725596e-02 -1.208884172871117907e-01 5.168069286138187168e-01
-3.775209176807545891e-02 -1.196428075500519522e-01 5.368536644872435870e-01
-2.307637225913727885e-02 -1.191410333934035115e-01 4.919438723058278118e-01
-7.766431514321538165e-02 -1.100790448024256685e-01 4.805656791503775116e-01
-8.378535016795334023e-02 -1.022975589446091793e-01 4.688387027397837858e-01
-1.036328683680477480e-01 -1.189793130146735850e-01 4.953895942200874369e-01
-9.913213457731585854e-03 -1.270079125068383774e-01 5.113282949741850825e-01
-7.332400391067835088e-02 -7.408350314949110893e-02 4.484399668563318064e-01
-7.858501987581606452e-02 -1.155173270143063646e-01 4.935406718052576802e-01
-6.471910582598601469e-02 -9.358806204019815000e-02 4.609676941241265258e-01
-3.704573840752601460e-02 -1.209233793984845345e-01 5.213589387369164108e-01
-3.052103340102410231e-02 -1.135567438905444038e-01 5.494276894161070901e-01
-6.346418233653826693e-03 -1.254644221832783013e-01 5.337201226201534476e-01
-9.803741317195985294e-02 -8.386697247450003445e-02 4.583217916831073824e-01
-7.158568000445685031e-02 -9.155520608894439361e-02 4.589263245331257624e-01
-1.112458589899255681e-02 -1.118127817042520455e-01 5.622141456935884074e-01
-1.166674422471867256e-01 -1.130984045587522385e-01 4.892694807511336341e-01
-3.112084316748397333e-02 -1.153359173643452029e-01 4.895237067017914612e-01
-9.180380162780124587e-02 -9.363545526591005030e-02 4.609079695749747629e-01
-1.038695791740872759e-01 -1.187217389471823814e-01 4.976983767667381153e-01
-1.168516167110440415e-02 -1.244477975439511191e-01 5.005361188869783540e-01
-3.712213289158128315e-02 -1.205108151889130730e-01 5.317546302686722015e-01
-1.184059342893823558e-01 -1.085687204380964554e-01 4.841915851253502101e-01
-6.937331696564430494e-02 -1.011993798264462091e-01 4.682233855940516332e-01
-1.045050272636915828e-01 -1.111328960187091403e-01 5.138754066974332568e-01
-1.076358261387226622e-01 -9.081126402421821342e-02 4.663750555675675313e-01
-4.430778475476632172e-02 -1.130634698421072032e-01 5.404835466934093668e-01
-9.943033872560709530e-02 -1.201111179702019083e-01 4.870917373899984470e-01
-6.621404924379062362e-02 -8.803733694946233590e-02 4.564654919637648467e-01
-1.817753717187507376e-02 -1.121172450336452159e-01 5.603538911704419867e-01
-1.086825869474518647e-01 -1.169065420694651580e-01 4.842390465431515301e-01
-1.143748494275018679e-01 -1.124426703621822787e-01 5.055496407982992269e-01
-5.607841452006426947e-02 -1.183939996312614040e-01 5.231076020864923182e-01
-1.217423037898969357e-01 -1.026393591396767280e-01 4.867810597728810529e-01
-9.506869735147578659e-02 -1.006809106463788378e-01 4.660369310392245557e-01
-2.099118756803220950e-02 -1.246062527920603902e-01 5.295401619638414603e-01
-3.399790441424001969e-02 -9.001943071251826411e-02 4.580230327022429826e-01
-3.725619365090696716e-02 -1.183191762127251273e-01 5.409052658402491165e-01
-9.289863328080789906e-02 -7.474427283050921744e-02 4.555352173472578259e-01
-4.250719849647030535e-02 -1.053608628170177447e-01 4.745842569922615328e-01
-5.643944115234293679e-02 -1.045626458643320184e-01 5.379829114050062033e-01
-4.223303425176482689e-02 -7.864951980684171950e-02 4.519719042446453394e-01
-1.101922234843454307e-01 -1.149632864598536808e-01 5.056827234603431531e-01
-1.180116664069928850e-01 -1.034801645326780539e-01 4.783919880799073487e-01
-5.118823879040439173e-02 -1.113998572342411453e-01 5.383773562178220118e-01
-8.965289030374058721e-02 -1.163461029115938211e-01 4.864310107160192409e-01
-1.284553815615518263e-02 -1.213953602686490274e-01 4.916169377849158306e-01
-6.641624749177045539e-02 -1.128741637905893713e-01 4.889755289386460979e-01
-7.960306289949040104e-02 -1.171408022389894416e-01 4.977533976334269639e-01
-2.192338570504595921e-02 -1.225667160772294373e-01 5.021985034994302932e-01
-7.186932475832538691e-02 -1.182733159015646879e-01 5.149001389786809213e-01
-2.003838152869906464e-02 -1.150517935264392666e-01 4.806484881237952367e-01
-1.009574382532390513e-01 -1.188916212244511827e-01 4.964696207344871381e-01
-3.490427558061973828e-02 -1.189644301820782790e-01 5.014293609831136367e-01
-4.210872909965642646e-02 -1.164311468862691407e-01 5.398372854083571815e-01
-1.163553610390180570e-01 -1.012942168218803063e-01 4.750416663020659014e-01
-6.771993727158293064e-02 -6.666084300908677041e-02 4.467551853828443109e-01
-1.127111608662362957e-01 -1.111673629766935373e-01 4.798541808260036179e-01
-3.551881133611268365e-02 -8.545585226432213244e-02 4.548955835949757831e-01
-1.922000416187859620e-02 -1.252093362406935528e-01 5.241085805392532437e-01
-7.951337296457755555e-02 -1.069395419586095380e-01 5.285780571341528455e-01
-5.407485698725850165e-02 -1.176507097264311713e-01 5.062582948293535834e-01
-4.611011872119000904e-02 -1.167877156065664779e-01 5.371790302482598589e-01
-1.337503955555783587e-02 -1.266561877188892848e-01 5.210702545748886472e-01
-8.603057360209638571e-02 -9.091135544141852598e-02 4.588102798714716046e-01
-1.163521835405370991e-01 -9.975803500497915088e-02 4.746305020309887768e-01
-2.046096367402453625e-02 -1.132667590291895482e-01 5.583471140327136428e-01
-3.713168138814420399e-02 -1.176193072411247514e-01 4.976817456165268383e-01
-6.141150475683535004e-02 -6.957087071674117329e-02 4.485470387632359834e-01
-1.517392379252629174e-02 -1.013495618613001331e-01 5.659068011299855927e-01
-2.593928198117149975e-02 -1.207117619089183858e-01 4.995821018913743083e-01
-1.065478771155453919e-01 -9.980538721440949945e-02 4.672331537692969161e-01
-1.546244216454440920e-02 -1.158915351086010764e-01 4.804712447870713721e-01
-5.765769317536329625e-02 -1.128895851777635684e-01 4.895308469940398699e-01
-4.869930170342665759e-02 -1.192091934498308581e-01 5.236347330196415850e-01
-9.206004987501816006e-02 -1.134606520802180080e-01 4.780849591262888443e-01
-2.193739977200607691e-02 -1.204188780623432486e-01 4.946605307340348201e-01
-8.801611108895748825e-02 -1.001828672684563215e-01 4.661298960334488428e-01
-1.995158291113733121e-02 -1.247898715889259186e-01 5.300251314367491196e-01
-1.191609502147236016e-01 -1.065523746331715205e-01 4.832992162919833024e-01
-5.028487519888099472e-02 -1.160678056135254627e-01 4.970480713108216819e-01
-5.980551923484104387e-02 -8.909480133496575083e-02 4.577445241755963012e-01
-8.411289585358239229e-02 -1.098544178738138921e-01 4.780971785777633487e-01
-4.345400018405883025e-02 -1.069901123629470457e-01 5.434802703701856474e-01
-9.291206414125255386e-02 -1.182697642223055068e-01 4.907152806649183741e-01
-6.705580886923327710e-02 -1.168681561248810369e-01 5.242757158367028492e-01
-5.153807540275782972e-02 -8.295479463555262278e-02 4.544859176343360452e-01
-6.103916612151361054e-02 -8.691427894704591151e-02 4.562287993818876508e-01
-3.955159132660023003e-02 -1.071496926322825366e-01 4.766498299135170647e-01
-1.021915248372162327e-01 -1.202419163396413471e-01 4.909075106244354947e-01
-3.384192490353210570e-02 -1.187296980129470686e-01 4.995154595252922491e-01
-5.138330486111850753e-02 -1.164037284154552099e-01 5.339391523618404189e-01
-1.032775502227714914e-01 -1.086557646479096029e-01 4.714086989756117174e-01
-5.059476357273026692e-02 -1.192561105876688149e-01 5.181178529172758562e-01
-1.016027514755694222e-01 -8.179515810393180042e-02 4.646545943868819473e-01
-1.063448649703672977e-01 -1.178814883677712227e-01 5.003055632962577493e-01
-5.339230631961341261e-02 -1.154538040919546732e-01 4.960148662247608198e-01
-8.312784786637786305e-02 -1.161385421081908426e-01 4.948698508138372754e-01
-3.020376042625819157e-02 -1.082504253117703846e-01 5.501811508682689089e-01
-9.701830624426317773e-03 -1.021598798880108683e-01 5.674116096528012410e-01
-7.770478793460465494e-02 -9.602358788433143499e-02 4.632770703801170620e-01
-8.048721788765084151e-02 -1.183770476172407021e-01 5.106559070659090205e-01
-5.112743443905543722e-02 -1.168420806011058050e-01 5.008404323497884780e-01
-7.867379044779963804e-02 -1.121668509157413840e-01 4.834339521962352504e-01
-1.025333600331224983e-02 -1.089673093829323230e-01 5.644845227864154769e-01
-4.039870174849529566e-02 -1.196790216527009454e-01 5.344491425259488837e-01
-6.582230549721952706e-02 -1.179124311881148135e-01 5.212475336756003941e-01
-8.680080875108887872e-02 -1.168790255918128601e-01 4.947850622097765827e-01
-8.179814918635588961e-02 -1.079152854483388241e-01 5.275400636054156100e-01
-3.432522272836193572e-02 -1.214589432638169542e-01 5.247982971534874697e-01
-1.184178143497300328e-01 -1.094421941431406031e-01 5.031111768728349087e-01
-4.492687569908444811e-02 -9.891524445102509167e-02 4.673309027045333131e-01
-2.218238680611535341e-02 -1.053622567028247442e-01 5.600288697090075596e-01
-8.439842002709588287e-02 -7.005503844634791699e-02 4.480329686866877381e-01
-5.272373080271354484e-02 -9.502795651991108317e-02 4.633687127380787807e-01
-3.712050189780143061e-02 -1.103472529923716361e-01 4.813725967284745999e-01
-1.239168096530304970e-02 -1.267807588798334217e-01 5.157980690150872904e-01
-4.919407273659977264e-02 -9.604522697259415542e-02 4.646303204004552101e-01
-7.044980801487599198e-02 -7.869572675330398226e-02 4.505812420381572481e-01
-9.358366944684097521e-02 -9.907788080035886957e-02 4.645079730977405008e-01
-6.678173857329233742e-02 -1.172004328721226452e-01 5.028675932537552962e-01
-3.331169281479318123e-02 -9.919448034217068222e-02 4.653431408291271443e-01
-1.185621861140258859e-01 -1.105630435526765432e-01 4.909786388297752158e-01
-3.889754091558338817e-02 -1.196172028542180354e-01 5.083597370975739826e-01
-1.017287178036866552e-01 -1.194384327955024666e-01 4.943492451090870654e-01
-1.106337876068005377e-01 -9.811821168076609312e-02 4.682367502448572250e-01
-5.735302693820729797e-02 -1.177721430044913337e-01 5.088865414033569845e-01
-4.469237770428669682e-02 -1.195695312989167453e-01 5.146486887275967259e-01
-1.072994073556870070e-01 -8.948670583861725869e-02 4.665987170205029844e-01
-2.977895271025172985e-02 -1.223510157411661636e-01 5.208052979331765364e-01
-8.356488391884622779e-02 -1.181285890930363625e-01 5.087326742830916571e-01
-9.569626072982255482e-02 -1.088051039030331901e-01 5.211283887572297768e-01
-5.182566344943650982e-02 -7.680838767749482987e-02 4.518310781575034518e-01
-8.761881762395960782e-02 -1.152285086819441751e-01 5.203871173039837927e-01
-4.168230659529709864e-02 -1.173676782179455119e-01 5.393770248114019283e-01
-7.194616930470314198e-02 -1.151250013132598254e-01 4.935821350991290712e-01
-6.823705625564990829e-02 -1.037697727395000408e-01 4.713569183980460542e-01
-7.316212775919991862e-02 -1.091799287104835009e-01 4.801778232609963948e-01
-6.863091061836801288e-02 -1.024695900238306728e-01 4.697229952849566459e-01
-1.875068917142888592e-02 -1.042023278300343164e-01 5.640766281027834728e-01
-6.532071058289784515e-02 -1.182341496904384948e-01 5.111817746408795493e-01
-8.676167266228967945e-02 -1.164901732025288017e-01 5.181238817423506893e-01
-7.662358856168782761e-02 -7.389596212367893768e-02 4.480097293312725326e-01
-1.010793539125244833e-01 -8.354342604957035179e-02 4.619937898999820769e-01
-4.691155104571916035e-02 -9.174696720009577200e-02 4.611070451989199293e-01
-1.005320326305853273e-01 -1.164356236644125547e-01 5.099820560634817923e-01
-4.366649666181730144e-02 -1.066277654870557146e-01 4.764608500689684334e-01
-3.713039698192097809e-02 -1.192400636742178277e-01 5.386279398534824514e-01
-1.334603733348631652e-02 -1.264935184315749417e-01 5.140078226984129417e-01
-3.312398176202099170e-02 -1.153133222102872141e-01 4.905212649000910141e-01
-4.108837553763773631e-02 -1.189716328613175111e-01 5.058214830476521762e-01
-8.306987208931657096e-02 -1.173968100678393356e-01 4.992775013798360084e-01
-9.199864647014192875e-02 -1.003148271712957645e-01 4.656391904503787149e-01
-6.111642359896836407e-02 -8.822566133879651551e-02 4.570164438243812244e-01
-6.724912726320284029e-02 -9.875834428483497296e-02 4.657909038770249865e-01
-9.123456444628502693e-02 -1.182562566808820631e-01 5.027487996776559553e-01
-4.070821679488771661e-02 -1.194355922775714729e-01 5.086876557498913876e-01
-8.825880093698924844e-02 -9.532859743721557033e-02 4.621981318457593635e-01
-5.514974593890017984e-02 -1.046524140360063776e-01 4.744096859135640276e-01
-3.811617858060185188e-02 -1.184497950378835956e-01 5.014033802873862911e-01
-6.438825157918784403e-03 -1.194275614220733639e-01 5.495608962131153241e-01
-1.005851541231182582e-02 -1.050815825593495040e-01 5.663487484763513047e-01
-6.180810992305813684e-02 -1.177531049124196094e-01 5.081548636998068913e-01
-7.981095001537968914e-02 -8.833691276418348393e-02 4.566238119435373499e-01
-9.104822252365503410e-02 -7.525219735180474490e-02 4.531053785708849535e-01
-1.783640687052475207e-02 -1.232764034442077467e-01 5.008613615276236164e-01
-1.167117521059787277e-01 -9.598691071854301149e-02 4.766590571848849378e-01
-8.955253045780472987e-02 -9.449626096646800144e-02 4.614761397930112752e-01
-9.590403975211755916e-02 -1.188539848732411142e-01 4.969856006285492400e-01
-5.820960915619673159e-02 -1.171383553457900628e-01 5.282098762806697323e-01
-5.626319691711333809e-02 -1.183221685401820572e-01 5.239969015163293831e-01
-9.078606329019824062e-02 -7.040731435134270355e-02 4.541243830425399364e-01
-6.916405086192950469e-02 -1.181317139801680433e-01 5.080588726807843125e-01
-3.772658687844059749e-02 -1.203748648897310369e-01 5.131044150215660071e-01
-7.868549310531530727e-02 -7.744188188218797952e-02 4.493078055426463213e-01
-5.069209848540232044e-02 -1.173835576225911309e-01 5.317625679030459906e-01
-5.078476855370288312e-02 -7.460740024650278079e-02 4.508641313943660967e-01
-7.441777131241805732e-03 -9.740699952675276052e-02 5.696135989275172840e-01
-7.887010009564345003e-02 -1.126297065370850392e-01 5.273565643649004153e-01
-1.152534841615069222e-01 -1.147304165907762907e-01 4.952492302587528372e-01
-8.158446954964983233e-02 -1.065823980515698544e-01 4.736580355304300105e-01
-2.704847253868622112e-02 -9.694159363607865454e-02 4.604749706555594235e-01
-1.189392702796829293e-02 -1.265809432727390271e-01 5.105651830167260430e-01
-7.410825795399897387e-02 -5.927896608649095567e-02 4.457330887023270294e-01
-2.373454234822171272e-02 -1.224487094894267381e-01 5.039812598259415521e-01
-2.045226138447360509e-02 -1.211248462467294507e-01 4.954773302751223629e-01
-6.049217182677394528e-02 -1.152238445863760091e-01 4.967322818246331928e-01
-1.215590214035048300e-01 -1.023323669154481003e-01 4.849869372123895017e-01
-8.685764099103764069e-02 -1.020679755437897407e-01 4.679962421839750641e-01
-5.414101464187138363e-02 -1.165621807707618723e-01 5.009798221642237648e-01
-8.993737728101298956e-02 -1.006485585007362571e-01 4.662022177658327049e-01
-4.254607373505760702e-03 -1.282730547040608071e-01 5.192821276589048018e-01
-2.127498541375074520e-02 -1.078179473403544364e-01 5.605386256842712633e-01
-1.082341286361306748e-01 -1.159987677132995193e-01 4.824585139227943742e-01
-5.193561068967873090e-02 -1.054319510998192322e-01 5.401372561729167465e-01
-5.097849172277068436e-02 -1.141407581137502403e-01 4.914684006451874310e-01
-1.084994359279236598e-01 -1.002361980093074978e-01 4.682276380904674129e-01
-4.023876909993412410e-02 -9.675424199420183669e-02 4.654123792791173275e-01
-2.780535637451498829e-02 -1.228248079530931403e-01 5.290308101112775052e-01
-7.791549298361022391e-02 -9.915871572153847624e-02 4.661890715645747307e-01
-1.050204010528328624e-01 -1.033058019462386318e-01 4.688861665417814462e-01
-4.997413070089503501e-02 -9.273847449125656450e-02 4.616421744614422895e-01
-1.089085057059727552e-01 -9.657652497287906590e-02 4.668198753960264291e-01
-6.742861526934161576e-02 -1.129058816480416200e-01 4.890625524922587175e-01
-1.235588494723153900e-02 -1.232888944864128367e-01 4.967118416936746605e-01
-6.873677770798772291e-02 -1.089944637696328988e-01 4.803684546452528514e-01
-2.644823712471999766e-02 -9.878974206414280201e-02 4.618037529289404919e-01
-2.756517742460616247e-02 -1.229221153488200546e-01 5.268035780033909488e-01
-3.040172013621716962e-02 -1.110381677829242186e-01 4.802769209125841154e-01
-8.415012449172373787e-02 -7.040891347268889155e-02 4.478231973510583552e-01
-2.818404688473528583e-02 -1.046165567497636534e-01 5.524942749475336701e-01
-8.067448988986062816e-03 -1.257023111395232928e-01 5.027751448350622487e-01
-1.053763387055373785e-01 -1.151955640129320030e-01 4.791619947176321004e-01
-1.182705288407271127e-01 -9.692787651961412565e-02 4.801422476253988658e-01
-7.398165380278716452e-02 -8.497042136727776807e-02 4.538492348832256496e-01
-3.153119808771709387e-02 -1.204704962675374608e-01 5.045744229224031763e-01
-1.535539527866816752e-02 -1.195466370326424277e-01 5.513236954979877646e-01
-5.239114241336939592e-03 -1.273909770387740004e-01 5.294850722240512786e-01
-1.058625092325329344e-02 -1.094191562917242733e-01 5.640941480945812492e-01
-7.065692594107979285e-02 -1.177421307214498586e-01 5.201124465122045626e-01
-2.651332746928526662e-02 -1.178217605992102762e-01 5.493911358731738970e-01
-4.712481335593787790e-02 -1.085367604029344041e-01 4.802448691697985828e-01
