-6.120514438180949673e-02 -1.131616803707342495e-01 4.902867118736789487e-01
-2.254693612589024621e-02 -1.046362189317313618e-01 5.596811615226454650e-01
-8.441522762897366028e-02 -1.092320500781412129e-01 4.775712622185346312e-01
-5.867481274456869816e-02 -1.177272028294728129e-01 5.098172127921940522e-01
-8.648072613638144168e-02 -1.121658478867609832e-01 5.241663131873210979e-01
-9.295542714285984220e-02 -9.401806290944143829e-02 4.615701441737864452e-01
-7.840672312877328132e-02 -8.802475711012650028e-02 4.565993939794915635e-01
-3.604973953953749533e-02 -1.189295813080394615e-01 5.030806400612265472e-01
-8.275821749211928480e-02 -1.175071608276163082e-01 5.004738312279279899e-01
-7.939633972873759438e-02 -8.859832779479136222e-02 4.571435377130113054e-01
-4.227574443684456798e-03 -1.281963706192294217e-01 5.255379137803098955e-01
-1.116099375824679274e-01 -1.153376900987546638e-01 5.032561405920650266e-01
-1.497085988567105341e-02 -1.184898256800253208e-01 5.534689978060771676e-01
-4.057504672658337336e-02 -1.112590000276456187e-01 5.434211049447179587e-01
-7.053456154173140535e-02 -1.018682655683630367e-01 4.693385372363661490e-01
-6.056202571240296151e-02 -1.021080517923168701e-01 4.704709380979051891e-01
-2.648256562544380743e-02 -1.228046362799458946e-01 5.317931658697401254e-01
-2.881705157399382447e-02 -9.678688337860882895e-02 4.612818139219965197e-01
-3.694848145299284292e-02 -9.789191304505287516e-02 4.656986518011734799e-01
-8.975882627702574945e-02 -8.408217747310929580e-02 4.550853573793075535e-01
-3.470212572388245431e-02 -9.361873426336772552e-02 4.613377291194082352e-01
-9.504151891067554037e-02 -1.022012331445124877e-01 4.677384328635069699e-01
-4.536034925134763141e-02 -1.185682791912257422e-01 5.347461045525350176e-01
-1.105295949333981453e-01 -1.152418936210026917e-01 4.840548447179133795e-01
-1.181986572759346765e-01 -1.120373563322174110e-01 5.016157192683159405e-01
-2.424556704789763983e-02 -1.043252533800708010e-01 5.575376750483259647e-01
-8.585743718409220848e-02 -1.126051708334778328e-01 5.242076732005155337e-01
-4.604317523713913340e-02 -1.093943103966390357e-01 5.416395082438147934e-01
-9.507776986622128168e-02 -7.668350366119079664e-02 4.580034681456769396e-01
-5.028411996568467324e-02 -1.190278545801841115e-01 5.158786715816252588e-01
-9.347062443315536096e-02 -9.880797622555990978e-02 4.647150296840629191e-01
-6.348129576515273986e-03 -1.267868216790402069e-01 5.308024277332866747e-01
-8.868097805184391169e-02 -1.090412644495434014e-01 5.247007168844688429e-01
-6.666734425935967601e-02 -5.885519465807529521e-02 4.453578353642579923e-01
-9.087241610150585680e-02 -7.406575334704654234e-02 4.534890421914803960e-01
-1.888084818302739748e-02 -1.161823722440252088e-01 5.565317713544403189e-01
-8.174206230827184283e-02 -8.884373843805232207e-02 4.574400950857208104e-01
-2.302504317749298063e-02 -1.085771785831452785e-01 5.582141813112806439e-01
-6.845666940890778041e-02 -6.036589620159132918e-02 4.455751269506914580e-01
-2.136660765892401531e-02 -1.245427487729144495e-01 5.278619548412832874e-01
-1.130416917134612204e-01 -1.072135992597031545e-01 5.103450638578977960e-01
-1.057609930653297461e-02 -1.108640598377391845e-01 5.629940750829901530e-01
-9.014795600752111004e-02 -1.159579904596538258e-01 4.857413311708672077e-01
-4.378331129313198233e-02 -1.126560470108245449e-01 4.872360887085949721e-01
-7.664910526552969235e-03 -1.264239059102582607e-01 5.058529411631731421e-01
-7.213183891490002053e-02 -1.005649418317492300e-01 4.677700746252417829e-01
-2.284008288319628113e-02 -1.218275080543823330e-01 5.422515082644830953e-01
-7.191571400946356052e-02 -1.120859008228025921e-01 4.865630720632345141e-01
-7.925022320434639556e-02 -1.161737519569418925e-01 5.240729108496147148e-01
-4.916079212867947162e-02 -8.394342923599495965e-02 4.555108987591250935e-01
-3.661958600742457048e-02 -1.151185900395088751e-01 4.913845679183408977e-01
-2.593440616949394331e-02 -1.232071367270873019e-01 5.175051538709504184e-01
-7.370521837433356704e-02 -5.620736423378513980e-02 4.468357308726324528e-01
-4.874964786444464793e-02 -1.031459390726357228e-01 4.727001789441623858e-01
-4.781208026896342778e-02 -7.220524540852485407e-02 4.497515829974479962e-01
-1.211312444877136740e-01 -1.007857343347556695e-01 4.840787861304572948e-01
-5.562854452000556144e-02 -8.007645924079254129e-02 4.534124444077304861e-01
-1.401312777474254985e-02 -1.191100805622245379e-01 5.525923421461454987e-01
-1.008767945829865675e-01 -8.079441108450030606e-02 4.647539082076532213e-01
-9.779048659870101523e-02 -9.823552548060451861e-02 4.650049995237381939e-01
-9.960371722515758142e-02 -1.106552539439566996e-01 4.735519860712163465e-01
-1.392966491128055061e-02 -1.163990920187171485e-01 5.573677642474667016e-01
-3.017245924765981496e-02 -1.218295516244775473e-01 5.130622116347384187e-01
-6.174567558161613706e-02 -7.327806450707570474e-02 4.501306802874420754e-01
-7.035438761088186332e-02 -1.045231684009083339e-01 4.729556879977682704e-01
-8.505537070142002443e-02 -1.067297035837591335e-01 4.731662194105833996e-01
-4.669133336766023712e-02 -1.145464212569827639e-01 5.388811887083649887e-01
-4.823533834996158315e-02 -1.174459701254192828e-01 5.027246076455821333e-01
-8.670618636295361614e-02 -8.332013007137707705e-02 4.537997735833011470e-01
-7.148445443123661869e-02 -1.154260490362519070e-01 5.264692546240834492e-01
-7.632748213686163345e-03 -1.174602467824222701e-01 5.550084252200561119e-01
-2.560230641590036452e-02 -1.222186902101116968e-01 5.372889502082611735e-01
-1.598523744412434083e-02 -1.210976096289053255e-01 4.922501975375138117e-01
-2.394898635755872071e-02 -1.224385405785831105e-01 5.045646918391134550e-01
-6.706260441544027728e-02 -1.177447787490518150e-01 5.073186293792260049e-01
-3.843829881325713793e-02 -1.160107098008025528e-01 4.939148692678141384e-01
-3.890883537305916268e-02 -1.190239033383927170e-01 5.050579818697449319e-01
-2.900378831320857970e-02 -1.093053050764053180e-01 4.770852330654538620e-01
-6.390939065310831391e-02 -1.059687553073584143e-01 4.751184174116072079e-01
-8.563730179731179892e-02 -1.010076222042753935e-01 4.677788257078093759e-01
-6.779919743363069240e-02 -1.183258309178719381e-01 5.152925244188892862e-01
-1.125871767311653060e-01 -1.165447679012761306e-01 4.925631601931707015e-01
-3.103741587978086150e-02 -1.218816097998671050e-01 5.170443891522467084e-01
-5.404892881916552316e-02 -7.144763129023658232e-02 4.497366665541404629e-01
-5.073795303267791129e-02 -1.134359619296624322e-01 5.376331295712818426e-01
-1.155527713554053704e-01 -1.129311417347404617e-01 5.048832654582567914e-01
-8.663297649467455175e-02 -1.168335550017090413e-01 4.948684907974130742e-01
-4.781441791445994322e-02 -1.149073561819836248e-01 5.380169943988065695e-01
-5.575981443489486100e-02 -6.118548551416772008e-02 4.462145041757135666e-01
-8.221922837440771847e-02 -1.181230426560413993e-01 5.037015890530958107e-01
-3.064513610378956018e-02 -1.100952611735087072e-01 4.792211253905764301e-01
-7.809593495509753458e-02 -1.128068467437024630e-01 4.854783254144622862e-01
-3.634276691654840519e-02 -1.201706307559052139e-01 5.360744356340600980e-01
-5.897841130566022078e-02 -5.906617683913096412e-02 4.457084312745019927e-01
-8.569689807980201968e-02 -8.713396469119046028e-02 4.562853423405481834e-01
-1.178892353794642328e-01 -1.029257876787616488e-01 4.785100208353647577e-01
-2.616424010365456243e-02 -1.232620434006042043e-01 5.235363429568513638e-01
-6.210304489158671726e-02 -1.087622828152149945e-01 5.350376125488329748e-01
-7.477756959520522051e-02 -1.163377286183726877e-01 4.966078952229994736e-01
-5.822559402230518578e-03 -1.279572076634908628e-01 5.265131939677754058e-01
-6.586743022091021138e-02 -1.183797355016295433e-01 5.165333468257400362e-01
-2.650826257429489408e-02 -1.114964889007030863e-01 5.545925076809923304e-01
-7.249896910149566942e-02 -1.170085846590114970e-01 5.228746899168633666e-01
-3.381150258703238126e-02 -1.145456601219418946e-01 5.463724135837044749e-01
-4.929689962024244240e-03 -1.281827170430751561e-01 5.171284763945499519e-01
-5.771104135415143499e-02 -8.110951550693201728e-02 4.536475161350274066e-01
-1.124674433755632336e-01 -1.105997836962591685e-01 5.102254188509681709e-01
-7.455986002357764542e-02 -1.131534552622857487e-01 4.891108945550290965e-01
-5.393911673568669435e-02 -1.051015240072280532e-01 5.393651939844017473e-01
-1.729460705453328417e-02 -1.192196011847622139e-01 4.885186590018983921e-01
-5.089207198935636299e-03 -1.264165053091759472e-01 5.323349261486963746e-01
-7.132103516488073891e-02 -6.884325945986821682e-02 4.471418828501352305e-01
-4.702730713383460048e-02 -8.373600886623780437e-02 4.554470601483923131e-01
-1.823718385724688862e-02 -1.246578671036238095e-01 5.081053405392814692e-01
-2.342473001576682659e-02 -1.234358259585505435e-01 5.089122529390815997e-01
-3.205749244304526013e-02 -1.203001553203608270e-01 5.385834055285583233e-01
-4.255786620569590450e-02 -1.200367840902222677e-01 5.246642349960727314e-01
-9.017296082976875016e-02 -1.173904459756815732e-01 4.915946619827992192e-01
-5.959689288904675142e-02 -1.046036777470228246e-01 4.741181745716577245e-01
-1.093900902419520094e-01 -1.117614553988283271e-01 4.788520855565362444e-01
-1.212462762954763240e-01 -1.023716758597642551e-01 4.944938989319133671e-01
-8.981030254835398186e-02 -1.177061903044843705e-01 4.944229001700975457e-01
-1.162430266670832074e-01 -1.137637330684745235e-01 4.914876083051256117e-01
-3.370814551025908684e-02 -9.227015393988401148e-02 4.598977658186036988e-01
-2.378298218897136745e-02 -1.238858528731868330e-01 5.207036390112665947e-01
-3.624299167839736130e-02 -9.654211033416951193e-02 4.644358904822841194e-01
-6.582519733703254272e-02 -7.297179816316057277e-02 4.494312554733000953e-01
-9.465599729526080752e-02 -8.057281685431927354e-02 4.572530386531271085e-01
-2.743760805933993796e-02 -1.221607719181051904e-01 5.349183098689971327e-01
-4.368487703861752280e-02 -1.198189476761523792e-01 5.279093716556841898e-01
-1.336861209732335791e-02 -1.220186210933960624e-01 5.456224382779678583e-01
-1.010197413235397051e-01 -8.364629682958305001e-02 4.620834444136762142e-01
-4.720601854488860882e-02 -7.664768610068709020e-02 4.518879335709241052e-01
-3.411026765346247130e-02 -1.076182504064683715e-01 4.763654005106676692e-01
-2.837198550348794465e-02 -1.102997482564315596e-01 4.782917573838202374e-01
-6.140211493767675638e-02 -1.136284600271347117e-01 4.915760623906029192e-01
-6.713298452011944029e-02 -1.181578529845158099e-01 5.117005515764057044e-01
-8.550935093278551336e-02 -1.175598379489623257e-01 5.130569020327071517e-01
-4.553906454256727299e-02 -1.192057820306092475e-01 5.305589323366201038e-01
-3.002189868803980741e-02 -1.139116759160469089e-01 4.858025237792955586e-01
-5.793230848410670791e-02 -1.083456013094457465e-01 5.366114215847224145e-01
-3.772112404765107924e-02 -1.078324999858824018e-01 4.774489360124010151e-01
-1.155120606380656001e-01 -1.144092240545347833e-01 4.916008261268136059e-01
-6.046820639355032084e-03 -1.281828950288776414e-01 5.221024197578693071e-01
-3.095927452399143201e-02 -1.166287644228935355e-01 5.476262285477611069e-01
-4.597446849876951624e-02 -1.194991909139410391e-01 5.175997281159933072e-01
-5.061616587180915033e-02 -8.462910014523750135e-02 4.558230488691149551e-01
-5.677199084740427310e-02 -1.165259908926336296e-01 5.306982263429401714e-01
-2.275369412765629665e-02 -1.115331036851178320e-01 4.765400520011633390e-01
-2.337677624664687495e-02 -1.219899903632456206e-01 5.409670016281040716e-01
-7.658174855855631735e-02 -1.167770404771104331e-01 4.975919172429080772e-01
-6.596715294066543556e-02 -1.184611662464480908e-01 5.153822290676123297e-01
-3.254532756690209361e-02 -1.198130217471218423e-01 5.396484462386559322e-01
-4.435503357623386822e-02 -1.132974307189445751e-01 4.886961446626799099e-01
-5.136451891801348951e-02 -1.180858768167437206e-01 5.281160127862734033e-01
-7.644674293766365314e-02 -1.001043550511319519e-01 4.674958778799381820e-01
-6.689713238935778017e-02 -7.564344336079537046e-02 4.501898862186185513e-01
-1.068182796184594385e-01 -1.174820835828998405e-01 5.016719722258022873e-01
-1.185802721802311083e-01 -1.106706938562220938e-01 4.924304862952208484e-01
-2.300976723393070855e-02 -1.173801884840460219e-01 4.872527714167302348e-01
-8.881926131883223496e-02 -9.900337742048979928e-02 4.654730342051301983e-01
-7.041405801070931003e-02 -1.182932826721730252e-01 5.100329858573093844e-01
-5.110745788359616348e-02 -6.855615101144556245e-02 4.484666171892036646e-01
-5.147812524942717294e-02 -8.973681646276511492e-02 4.592754955639203884e-01
-1.353359640098358505e-02 -1.263507137708538841e-01 5.255359332855136234e-01
-5.167415735746783666e-03 -1.282318453342960740e-01 5.217502422604312073e-01
-4.567714776503859625e-02 -9.380471156533672084e-02 4.629786159464801543e-01
-1.194570032662013309e-01 -1.068051453414521901e-01 4.977228551758888786e-01
-1.179192137985543842e-01 -1.098449144690961249e-01 4.858429880737266116e-01
-1.050528596433647072e-01 -1.191514779131039453e-01 4.947282238127561071e-01
-1.077663568411329209e-01 -1.197509147889977144e-01 4.910039744554204333e-01
-8.992491153838864937e-02 -1.182399990749777446e-01 5.036074192786739179e-01
-4.867552829731181668e-02 -1.051724597145676371e-01 4.752440979960395606e-01
-8.486973643485114238e-02 -1.165042136669879047e-01 4.963085094176736822e-01
-8.487283819531220297e-02 -1.118110128679147275e-01 5.249250679495449656e-01
-5.535314143130596470e-02 -1.155433499762914817e-01 5.332565668172944973e-01
-1.623619857098736879e-02 -1.257142256814328951e-01 5.145440611743101744e-01
-1.111259742643559839e-01 -1.063399427873665537e-01 5.120458037094366421e-01
-6.885788248532864753e-02 -1.167726488119383566e-01 5.241324842546850604e-01
-8.597353155935801017e-02 -1.170546969471494558e-01 4.981154460374138115e-01
-4.686179139748501005e-02 -1.113891080509266801e-01 5.403417882031538166e-01
-4.948974322946306237e-02 -8.866631533244939689e-02 4.586877391501992807e-01
-7.705280928781171879e-02 -1.184290101171605464e-01 5.079147537439457905e-01
-5.410528324652012083e-02 -6.739261222353946923e-02 4.481239433608547595e-01
-5.720699011307429915e-02 -8.109376237091543704e-02 4.536930673618412291e-01
-5.565026333730125480e-02 -8.538396728253212775e-02 4.559515536626864707e-01
-1.335084257399076629e-02 -1.266219910429066398e-01 5.222489769253598757e-01
-5.184611797114197645e-02 -1.022445735437923081e-01 4.714221604538941790e-01
-1.099529839886367738e-01 -1.176732654323145860e-01 4.947478091210248952e-01
-1.304118579031562052e-02 -1.182986284759716122e-01 5.541927221608933252e-01
-7.532948221057508831e-02 -1.176882599496304888e-01 5.193709645463800983e-01
-7.877712078544504837e-02 -8.283757760987930929e-02 4.523381239357764372e-01
-7.904309821409261083e-02 -1.120150029152015836e-01 4.834051410328228937e-01
-5.741931953022906543e-02 -1.166868290950352910e-01 5.028272872230484802e-01
-9.453414274377086590e-02 -1.159148773184133646e-01 4.818472465500762136e-01
-3.380259370514700906e-02 -1.200566262572177051e-01 5.057500001316218574e-01
-2.551213389986089694e-02 -1.165964690755470629e-01 4.871373016548150581e-01
-1.048446615092832601e-01 -1.202679164406218332e-01 4.912890425807094896e-01
-5.312128170981985503e-02 -1.045109059635452586e-01 4.745575083519898429e-01
-4.458438463563703380e-02 -9.940723281689463342e-02 4.680586715303525214e-01
-2.874843795677413730e-02 -1.085362176659157296e-01 5.516766331042043392e-01
-5.791496345986107963e-02 -5.945239778113823453e-02 4.458053297825125272e-01
-6.936825417604682020e-02 -1.176549920767088198e-01 5.048552001159237745e-01
-1.198125667888176940e-02 -1.052433029153771876e-01 5.660015723812157340e-01
-4.231306286669515165e-02 -1.113080380831054372e-01 5.423269695563340820e-01
-3.281847475040318429e-02 -1.183458444647752655e-01 4.975818450681356864e-01
-6.784738661808421833e-02 -1.006705939350205359e-01 4.680810336372810410e-01
-1.203210606246103154e-01 -1.059227206953599898e-01 4.881392108922414375e-01
-7.291372054146053050e-02 -5.789273198689050964e-02 4.461972063008491918e-01
-1.187649279411268632e-01 -1.059780832576722037e-01 4.825031547627930406e-01
-9.128860532641602799e-02 -1.103423098216349263e-01 5.232308959091329648e-01
-1.001665993584033576e-01 -1.163825991659470233e-01 5.105298925034051916e-01
-1.844020616208410027e-02 -1.193751810486140402e-01 5.507503174782586441e-01
-1.050821794717602814e-01 -1.016745500694072463e-01 4.683288000410645857e-01
-1.005078528724737963e-01 -1.178290068372155330e-01 5.020317615529621413e-01
-7.917571481222086816e-02 -1.180576627032135645e-01 5.144968633034904260e-01
-7.197960511180264559e-03 -1.197140602177035190e-01 5.494088591618048190e-01
-6.114021188425694531e-02 -7.289704921019149464e-02 4.500228232631747205e-01
-5.690673824375153816e-02 -1.109902360903843865e-01 4.855265740129372509e-01
-1.374855544306698152e-02 -1.056445485284831370e-01 5.655347089618886214e-01
-9.707019799383678760e-02 -1.003471815211166990e-01 4.665411621823932209e-01
-8.901955141507390465e-03 -1.096950953532040834e-01 5.640480676834503937e-01
-1.124392340101449117e-01 -9.704995308633976303e-02 4.696727034381428800e-01
-1.123294234984349022e-02 -1.252011271723581232e-01 5.030419112632403822e-01
-6.982977477428470303e-02 -1.147700587528902721e-01 5.277328450960504513e-01
-8.548596137193240074e-02 -1.065925435979613173e-01 4.727793927554486131e-01
-5.470757968464239757e-02 -1.116117525960303447e-01 4.866216455539158492e-01
-3.755562676096148300e-02 -9.997474116241319986e-02 4.678638426359287283e-01
-6.151952251620959600e-02 -6.692065484104184336e-02 4.477783762842846849e-01
-9.621181514701721005e-02 -1.167826032336619496e-01 4.823301879269094039e-01
-6.903425126094378528e-02 -9.408661607468016275e-02 4.615466960304903110e-01
-3.086161689488815460e-02 -1.219767981908945059e-01 5.187321011666233828e-01
-1.628475867118953438e-02 -1.072371708230865361e-01 5.645350953500727353e-01
-2.587272238232493637e-02 -1.173600294176754405e-01 5.506079464066464535e-01
-6.590024649888248653e-02 -1.183906569496968875e-01 5.142667369521946030e-01
-8.919971843846155601e-02 -1.043943475249348024e-01 4.696968494047460974e-01
-1.009511782795954188e-01 -9.254693009512357516e-02 4.625571790464166333e-01
-3.979579821826173536e-02 -9.762671355602554890e-02 4.662515637709465088e-01
-9.432607178066040876e-02 -1.132524358658518748e-01 4.773010809191980397e-01
-7.769319032485899612e-03 -1.015529341364740518e-01 5.681852724956141243e-01
-1.797795950194007106e-02 -1.239807052650838820e-01 5.043070683356016826e-01
-2.970536983142999660e-02 -1.190766264473605424e-01 4.975821595391405894e-01
-6.475523900616766970e-02 -1.175995767033677780e-01 5.231987549462361331e-01
-1.090764623282442919e-01 -1.166519445678732558e-01 5.019435372302287757e-01
-6.543059382124120915e-02 -8.268880417995383425e-02 4.536882092723846793e-01
-3.386840976005706105e-02 -1.202940024578007250e-01 5.071782740427430713e-01
-2.877053816721031679e-02 -9.784341020529889466e-02 4.622030115983880028e-01
-5.867758036087172835e-02 -6.911899562354162363e-02 4.487119499521818877e-01
-7.617432794944033192e-02 -5.975063684043357970e-02 4.462046705659206691e-01
-2.085088754677513756e-02 -1.144865017585540296e-01 5.572472596535533729e-01
-8.060164121989923935e-02 -1.139693981640023668e-01 5.256607702780877744e-01
-1.525870408332687805e-02 -1.211617793567442009e-01 5.481928126492306985e-01
-3.684439097451998324e-02 -1.181616258114869394e-01 5.000208288889982366e-01
-1.004130563367520712e-01 -1.117844762306972606e-01 5.161398184237555586e-01
-1.081241598898875500e-01 -9.780602934025803274e-02 4.674092472474094540e-01
-5.330610970158342760e-02 -1.181765064646106977e-01 5.269433454976113484e-01
-8.009499002917941368e-02 -1.026767145099660439e-01 4.701198688744409604e-01
-2.149793324066189004e-02 -1.124527994085791488e-01 4.772040559511444013e-01
-4.925865585176971567e-02 -1.160826674732131358e-01 4.972093711799679405e-01
-2.534805937968996267e-02 -1.093113821827740167e-01 4.746731121034446499e-01
-7.401345620337138054e-02 -1.180792528330482094e-01 5.162872672419215325e-01
-5.185111346622824774e-02 -1.170142133149200125e-01 5.025166104301027614e-01
-1.747362768318258888e-02 -1.212613242205304864e-01 4.935904871409809158e-01
-7.961995866045981640e-02 -1.130262998899765892e-01 5.269631144997345418e-01
-1.026682128062585304e-02 -1.014815338289648261e-01 5.673826532303762882e-01
-1.170395921720568111e-01 -9.538889814188585003e-02 4.784602079725849277e-01
-8.940211864314133450e-02 -6.960087247073207251e-02 4.514142187934006012e-01
-4.995372598628193550e-02 -7.625186461032586183e-02 4.517996538199046119e-01
-1.143882751373410805e-01 -1.059672570662073821e-01 4.763902647102903898e-01
-9.961966499443046519e-02 -1.199789935542666802e-01 4.870558274233220408e-01
-6.258404766586539436e-02 -9.747571900464709060e-02 4.649743558224082585e-01
-5.433117749211684860e-02 -9.483153557511736498e-02 4.632887562718295271e-01
-9.015530899032357659e-02 -1.108786085417019368e-01 4.767950623343665262e-01
-1.138148395073959873e-01 -1.152958278439226991e-01 4.898036730908023606e-01
-1.058867534401732730e-01 -9.274956427476685472e-02 4.643413469098399138e-01
-1.810377011144026493e-02 -1.196174040951783757e-01 5.503730419811679875e-01
-2.896429393291449425e-02 -1.209146214425556726e-01 5.397949575817067025e-01
-5.803242054100928721e-02 -1.088312852486360977e-01 5.364561621835113314e-01
-6.017233379722997794e-02 -8.781638864413768286e-02 4.571070460149714298e-01
-5.167786187826524380e-02 -1.156500230168470145e-01 5.349151454403290318e-01
-7.456416353947742381e-02 -9.885212440529189681e-02 4.662297363338508416e-01
-2.847968244527498277e-02 -1.105983383846643880e-01 4.788506948281727182e-01
-4.533538971790983946e-02 -9.986077788478860129e-02 4.684993967808369630e-01
-4.059697631591634159e-02 -1.195546026154867131e-01 5.351476966192612039e-01
-2.610526162972752126e-02 -1.028496859028086158e-01 4.660674274270227846e-01
-9.018348655973007499e-02 -1.179848218660573406e-01 5.060134171448299467e-01
-3.367404860882219214e-02 -1.209556235411822916e-01 5.336044180343852972e-01
-5.098686305588755879e-02 -9.778149871938850157e-02 4.662760805440626655e-01
-5.262462102372647554e-02 -8.012167401774748787e-02 4.534630605285381866e-01
-4.724861748006810996e-02 -8.316984511514054212e-02 4.551025937291487411e-01
-9.309797764314266255e-02 -1.143408349537974739e-01 4.788744689651107667e-01
-1.000863243374422729e-01 -1.121884710720620071e-01 5.164144339871362677e-01
-9.849849929309753560e-02 -1.114177487558697804e-01 5.188516033091538082e-01
-7.295670901501216318e-03 -1.237736349578789224e-01 5.368825792089539917e-01
-8.825624658838267245e-02 -8.132959930499783496e-02 4.532195828395892967e-01
-2.039588119675936687e-02 -1.246081379632625330e-01 5.143847699515816663e-01
-1.067675050896994132e-01 -1.128965954693637030e-01 4.761484627642252332e-01
-6.033915249223020805e-02 -9.447944265829863464e-02 4.622768192817860999e-01
-8.126781301461034890e-02 -1.096724077519189988e-01 4.797331882604130016e-01
-3.763590061474174353e-02 -1.207554262984234239e-01 5.234701221448007091e-01
-1.115073876964088745e-01 -1.083693464739599877e-01 4.769374421800381403e-01
-1.041472059335368794e-01 -1.174881788267838623e-01 4.823009945395726472e-01
-6.420378090234392376e-02 -1.164304744755782772e-01 5.010389519909461686e-01
-8.487823409225886059e-03 -1.224909396151220575e-01 5.413229617756338818e-01
-1.113900234714039900e-01 -1.141144886098281602e-01 5.071042074544023226e-01
-1.060819884149836606e-01 -1.159150805928700068e-01 4.812272693893410169e-01
-8.889972085011431380e-02 -1.184941803785797831e-01 5.020520153607230807e-01
-1.119400521387589748e-01 -1.154205981555927324e-01 5.025019732293605212e-01
-5.501196636644173354e-02 -1.168810681109192645e-01 5.302458581972435692e-01
-6.586525813643827332e-02 -9.375913604440064275e-02 4.613709183174250494e-01
-1.764788554539614696e-02 -1.203370130402378613e-01 4.911861348059435306e-01
-5.762177501659535017e-02 -1.076674029234059859e-01 4.790415295635040982e-01
-6.746375826418007926e-02 -1.178980832717245464e-01 5.081870111722884831e-01
-7.268127964555251563e-02 -1.174146300714073166e-01 5.215870307773180503e-01
-4.042049186850752568e-02 -1.131439332418468779e-01 5.426519807234527759e-01
-1.930925928531437852e-02 -1.207923098282205204e-01 4.937351791447913696e-01
-8.253497295295181280e-02 -1.092918512078538962e-01 4.786299192878615272e-01
-9.904269663108612731e-02 -9.258865541009948796e-02 4.613600768030342580e-01
-5.147941709644142383e-02 -1.183113508219903742e-01 5.096797953609468745e-01
-6.361133306200245086e-02 -5.772114671433572347e-02 4.453240486969563539e-01
-7.191384773306848388e-02 -1.176767530872871587e-01 5.029897642321373707e-01
-7.942977626525157819e-02 -1.149763096055701345e-01 4.926005536505962956e-01
-7.892640117175645301e-03 -1.183135540387632023e-01 5.536294733173923177e-01
-3.125261641222198961e-02 -1.211629215452426356e-01 5.362223229271168012e-01
-3.429857653354151381e-02 -1.214175128559288608e-01 5.216288690517670856e-01
-5.243177947296448482e-02 -9.848683990778686614e-02 4.668351260490363752e-01
-7.283793012933023614e-02 -8.752948747107941463e-02 4.560905370281018723e-01
-4.209792507862242239e-03 -1.282144753057318787e-01 5.175243997326088863e-01
-7.287706868067034272e-02 -1.155995133804916808e-01 5.260943560042865563e-01
-5.099821143216339003e-02 -1.133138660221744282e-01 4.898966115706119839e-01
-9.307240953807374706e-02 -1.088874597581908910e-01 4.734275223628958695e-01
-1.014120980111316572e-01 -9.464198292261888357e-02 4.630903636375705013e-01
-3.547336486590436239e-02 -1.113198586297602516e-01 4.832462158191972446e-01
-2.716919980333575013e-02 -1.033981741692763245e-01 4.673140054092397300e-01
-1.419214816269944585e-02 -1.190619137118451715e-01 5.526328544882195271e-01
-1.141233871976728431e-01 -1.153454612300670312e-01 4.968164197436325535e-01
-2.978160812843098221e-02 -1.223595874624451851e-01 5.246238179311135674e-01
-6.755627182959278443e-02 -9.434143587976577539e-02 4.618289654611648087e-01
-9.123160601244895140e-02 -7.773863197055609631e-02 4.536364551842346216e-01
-8.827186973097757294e-02 -7.715750789236189289e-02 4.512843877031307294e-01
-9.606710554670488955e-02 -9.029840980235574743e-02 4.595869166168262687e-01
-6.402147471031668924e-02 -7.020060825515860026e-02 4.488179974355801516e-01
-6.036485010692131670e-02 -8.285716872275612765e-02 4.541455887582107609e-01
-2.039162325739208095e-02 -1.174526844586308710e-01 4.859203237959576205e-01
-1.100320530753657322e-01 -1.185407087423688555e-01 4.901677066922975889e-01
-2.350736292598828298e-02 -1.207443219467305012e-01 4.975484405489670747e-01
-9.276609444383193681e-02 -9.739505721322863629e-02 4.636644917693117929e-01
-6.594283047565899225e-02 -8.281087551902219235e-02 4.537103491462129434e-01
-2.193763258656732801e-02 -1.147292561423434165e-01 5.564631063565451674e-01
-1.049055082858909027e-01 -9.799137570655737373e-02 4.661376232711459955e-01
-4.769838335369709637e-02 -1.188171023780691810e-01 5.282545258616218042e-01
-9.310711578502726959e-02 -1.085441276522802340e-01 4.730189178202293676e-01
-5.346075354887288439e-02 -1.098437382144984292e-01 4.829299512047816045e-01
-1.065361260478342315e-01 -1.182400563642533875e-01 4.990593217983577135e-01
-7.504467860902587495e-02 -8.408895650014039380e-02 4.534431341627945256e-01
-7.180494842205530082e-02 -1.116637226891313561e-01 5.317987704593634124e-01
-1.156819007181118519e-01 -1.138835161628757725e-01 4.901015415717995816e-01
-6.839196141860375000e-02 -1.179562573285972971e-01 5.183375647337177261e-01
-1.639655573389521906e-02 -1.009077509436856618e-01 5.656318733381046071e-01
-5.240549090612196814e-02 -1.173470910669493494e-01 5.298899072852013559e-01
-1.040504601926797307e-01 -1.155179258277334031e-01 5.096408330102623063e-01
-1.907826448183843823e-02 -1.207922204839980279e-01 4.935432872362525702e-01
-5.856742789563156026e-02 -9.241638305752880589e-02 4.605771016405551532e-01
-2.007236320659626025e-02 -1.231494254121018872e-01 5.029207833536903927e-01
-1.178548977180775004e-01 -9.615137139225968244e-02 4.799144800785696274e-01
-4.146372254686351427e-02 -1.199629988445989059e-01 5.143950159296191149e-01
-4.244805904152625792e-02 -1.200354467875933834e-01 5.195456230811530407e-01
-1.161766159522543140e-01 -1.030405790007258154e-01 4.757740005711441067e-01
-1.036696536383150402e-01 -1.189482887720263865e-01 4.958030815331710972e-01
-7.661867502260989726e-02 -1.159735000301267693e-01 5.249342881199424715e-01
-2.859459881765509873e-02 -9.718752381299745891e-02 4.615367683809585841e-01
-9.501028550117268656e-02 -1.160275246729451926e-01 4.817577065113826662e-01
-2.821241355590438024e-02 -1.080430285568157178e-01 5.522575950535870692e-01
-1.193464888509624261e-01 -1.084460954371396224e-01 4.888050339119135446e-01
-1.084793181290991462e-02 -1.245774127571530610e-01 5.357779725521820691e-01
-7.176208629777218462e-02 -1.040053786412589165e-01 4.721758201160022317e-01
-1.186005322210060414e-01 -1.095605388265165903e-01 4.872098381851396320e-01
-5.725590356046140333e-02 -1.170970528286551099e-01 5.049058294428863114e-01
-7.719968150936079576e-02 -1.116489762079863057e-01 4.835532392564948490e-01
-1.178113143292217335e-01 -1.127444029404941622e-01 4.970661178902416322e-01
-5.868147632829959909e-02 -6.939327515112861389e-02 4.488323891193944926e-01
-2.237062852119734574e-02 -1.242082482783850861e-01 5.172550364812911194e-01
-6.986190259090688248e-02 -1.119594400350765323e-01 5.317118447063288178e-01
-5.195389021122735068e-02 -5.931432178026516122e-02 4.455136207562688799e-01
-2.883176472668507948e-02 -1.034458288198115139e-01 4.681204283646347442e-01
-9.998501933599257541e-02 -1.167271337438869905e-01 4.794084277201489663e-01
-5.216168195626488119e-02 -1.090697150363278967e-01 4.817602741837054281e-01
-7.743404203576086282e-03 -1.174510900378205464e-01 5.550343013706823259e-01
-1.208301325341601673e-01 -1.044506268175264679e-01 4.857232400398674987e-01
-4.935685063741748757e-02 -1.112129045857911253e-01 4.848513418797923968e-01
-7.307364311778218047e-02 -1.130685909456926874e-01 4.894086611246520335e-01
-2.342376195532288111e-02 -1.239412294966428241e-01 5.185376061529379799e-01
-3.561683913108221189e-02 -1.107739265885378244e-01 4.821796256752605148e-01
-3.521006782312772337e-02 -1.154655039264506494e-01 5.443166300166961680e-01
-6.526533035564316410e-02 -9.327577646863256799e-02 4.609610476988419414e-01
-9.590598114107176664e-02 -9.018917735772889743e-02 4.595101743337632327e-01
-6.252412933496645508e-02 -6.323174972152563467e-02 4.466747364651846852e-01
-6.307267123430437827e-02 -7.263374611226261490e-02 4.497410034167299564e-01
-2.107315724278100572e-02 -1.246739713672401495e-01 5.237613537332553859e-01
-1.053751720415930515e-01 -1.144466793398271620e-01 5.107286176439705949e-01
-9.396835986111067018e-02 -1.168423927143898422e-01 5.111842711447392995e-01
-2.470272360219432500e-02 -1.146528003562456710e-01 4.828233954443797993e-01
-8.207883125522279222e-02 -7.009066106492664594e-02 4.471081335041729998e-01
-3.318024708752422003e-02 -1.203080372518707808e-01 5.377247832389352444e-01
-4.241506457514845202e-02 -9.846442497242023639e-02 4.672268634390427389e-01
-1.217340287013073674e-01 -1.005097220137587538e-01 4.860095693801584349e-01
-1.029047368610328389e-01 -8.810525691523234115e-02 4.630103473353023302e-01
-3.574250146813145318e-02 -1.184197974750165056e-01 5.418384114049106248e-01
-5.596289934918373399e-02 -1.050971482624039749e-01 5.383001660016464296e-01
-7.037173395750542793e-02 -6.158884115334356535e-02 4.456190336166234167e-01
-2.919833486908753051e-02 -1.149037727615363769e-01 4.872723274962465490e-01
-8.361203474368732180e-02 -6.785409386313866198e-02 4.476435007466469940e-01
-9.002516020194255286e-02 -1.154625354501449402e-01 4.844399466681481026e-01
-1.054195674446622849e-01 -1.189609958526946787e-01 4.851484259676394628e-01
-4.960040999456041821e-02 -6.158840958069109611e-02 4.460932334878401351e-01
-4.071559551929713333e-02 -1.066447927256903155e-01 4.763910484579790272e-01
-5.672054123959432981e-02 -9.140136642047276549e-02 4.599764929407450520e-01
-4.988311395871045106e-02 -6.680530227775607899e-02 4.478584666704708561e-01
-1.016045654859983050e-01 -1.142898381262301977e-01 4.770005193642146701e-01
-1.151204481243455480e-01 -9.889632285433051784e-02 4.732504500795554625e-01
-7.032962444032650473e-02 -8.616950495278634381e-02 4.552802722543092817e-01
-2.969413344040449862e-02 -9.725938467893917305e-02 4.621074935643846859e-01
-3.818600653251079391e-02 -1.182211424685441353e-01 5.008894651033665157e-01
-9.018679002015821122e-02 -7.252148398471562618e-02 4.528485691957065407e-01
-6.742542515827985167e-03 -1.220820850457791096e-01 5.419058796278940493e-01
-4.774207145036307720e-02 -1.100164890010458391e-01 4.828587054998672023e-01
-5.054472068887864988e-02 -7.226138232650326787e-02 4.500230052146775850e-01
-8.175098544223362296e-02 -1.177751630700543950e-01 5.156667622268312767e-01
-1.391651638311736799e-02 -1.010421269524485466e-01 5.662709315824409062e-01
-2.857249147689257252e-02 -1.211405266812472098e-01 5.046210908665860195e-01
-6.935212875715970893e-02 -1.122903329362092556e-01 4.878685462752224700e-01
-6.797770114832762944e-02 -1.134798668684677686e-01 4.910616832831624645e-01
-9.259153016425999971e-02 -1.189813401151545297e-01 4.978212506572911034e-01
-7.224642069847325709e-02 -1.183828046871964329e-01 5.078161872953920186e-01
-4.986014673012589132e-02 -9.849324232820154401e-02 4.669033463438650999e-01
-8.171323842071004373e-03 -1.239797398466806894e-01 4.972607321511450795e-01
-3.012181810796508291e-02 -1.215633501309925507e-01 5.350925079431629872e-01
-5.241353784949234762e-02 -1.183896789050635084e-01 5.107297220536816118e-01
-3.228319525203595525e-02 -1.216125383170216651e-01 5.167221842035455426e-01
-5.683676769665840095e-02 -7.075260049457091083e-02 4.494442524562206609e-01
-1.624385406072250543e-02 -1.255994195349263709e-01 5.105660878126040414e-01
-2.198160765147722309e-02 -1.219070887318657037e-01 5.427290801192913294e-01
-2.407763351628020021e-02 -1.237986490115557947e-01 5.268880840107207364e-01
-7.439557315911997371e-02 -5.485832820057982839e-02 4.473580476842991538e-01
-1.025591721551634763e-02 -1.169465219124902616e-01 5.561178915481235219e-01
-5.140049951085082051e-03 -1.242743083346232874e-01 5.361416478132857710e-01
-2.350689833275263277e-02 -1.235650709242456097e-01 5.108240508153969461e-01
-1.807439774118600045e-02 -1.153662197673819279e-01 4.804932607023888469e-01
-1.204411455110778323e-01 -1.058669966079712199e-01 4.895364142048931888e-01
-6.641572271722098741e-02 -1.172107145895038005e-01 5.038264192439900757e-01
-2.725670161402953678e-02 -1.162011030400901257e-01 4.879906382590669112e-01
-5.427870591378284454e-02 -9.046523788939848931e-02 4.595451429325143056e-01
-4.551506793412942592e-02 -9.430992265407149577e-02 4.633898472799323209e-01
-9.059196349049274122e-02 -9.403488655752721692e-02 4.615884225912090799e-01
-2.079365437953096217e-03 -1.283205574528187842e-01 5.206013356234736600e-01
-1.879968704401101254e-02 -1.243613223550098651e-01 5.073465313905416441e-01
-1.015609010874613943e-01 -1.087143235319407986e-01 4.708197593045030938e-01
-1.176332032210494344e-01 -1.075235494250396384e-01 4.820037957416332119e-01
-6.208052215988480935e-03 -1.209739632907002038e-01 5.431107504622914028e-01
-2.503308922002863562e-02 -1.235781894639580991e-01 5.226801688893512043e-01
-5.358000446616262118e-03 -1.274632874241570235e-01 5.292373898198037274e-01
-3.022755531710396432e-02 -1.128600248936122014e-01 4.837711744129510327e-01
-1.163911652405915861e-02 -1.026169147239524293e-01 5.667153517047573974e-01
-6.742956607957625859e-02 -7.559362865402738385e-02 4.500763492962127632e-01
-3.216874929500753572e-02 -1.125412503115507112e-01 4.842636220489447973e-01
-5.858598108113102082e-02 -1.001977537222747267e-01 4.677695950371035805e-01
-8.680045585575303646e-02 -1.156567785432802004e-01 5.200651240707184764e-01
-5.826173911519413190e-02 -7.034237138859299188e-02 4.492526266165488003e-01
-3.409884001808705101e-02 -1.036791593260600330e-01 4.707785073820199284e-01
-3.802426478530552406e-02 -1.202260847207396038e-01 5.127224558390527376e-01
-7.982451087826476777e-02 -8.967906330152011773e-02 4.580407935051875046e-01
-5.827204701383244950e-02 -1.043012959015311852e-01 4.738829750993138745e-01
-1.068883512744710079e-01 -9.579146301290739074e-02 4.657297547207946420e-01
-6.135315683172845591e-02 -6.306438378409523482e-02 4.466414533234615014e-01
-9.275689663062157420e-02 -1.129143795459058158e-01 5.215774932211154624e-01
-1.949240589411558450e-02 -1.219667392262808736e-01 5.446891982226521600e-01
-8.207152834735198521e-02 -1.170573720864145628e-01 4.979540257346133925e-01
-1.673928057770446981e-02 -1.090423303063521449e-01 5.636637699752409247e-01
-5.086880329283286623e-02 -7.304666048816914337e-02 4.503760421789420043e-01
-4.080077143949984581e-02 -8.117188774904184057e-02 4.534808444920401249e-01
-4.640393149013320034e-02 -1.064319024306714240e-01 4.769185833147838172e-01
-2.212112797398935876e-02 -1.075103414214689246e-01 5.594203260336531036e-01
-1.415227210347551855e-02 -1.258321498340166378e-01 5.278895259158810083e-01
-1.165383541053744976e-01 -9.740131540400473464e-02 4.757633619606766451e-01
-1.042991209662940261e-01 -9.646379691589003491e-02 4.650385979861824115e-01
-6.371188795811291716e-02 -7.163887317856058867e-02 4.493344972228218714e-01
-1.100089358014498808e-01 -9.891960039386082926e-02 4.687219665814064684e-01
-9.368262471069407904e-02 -8.170881319132683451e-02 4.560575287801580946e-01
-2.464406976084795517e-02 -1.217470342600306260e-01 5.406297321318178639e-01
-9.541402815444419150e-02 -1.174399964589754319e-01 5.076794130985122777e-01
-1.770710407766522276e-02 -1.240965964346366079e-01 5.045285699788824019e-01
-9.572599749046704909e-02 -1.093240529424743673e-01 4.734534650477190687e-01
-8.312668847894441604e-02 -1.171298817876268855e-01 4.985023210780930025e-01
-3.681961847209278688e-02 -1.064828435243358878e-01 4.753399004041900522e-01
-6.424579348923874222e-02 -9.661333822255933901e-02 4.639855117477640900e-01
-1.005909172219367209e-01 -8.208208405317357625e-02 4.628093601160709336e-01
-5.966987101027483587e-02 -1.075591674209264159e-01 4.784357529523443620e-01
-9.779508517880527996e-02 -1.074638298505967426e-01 4.712005066209823956e-01
-8.890637269204175464e-02 -1.184507620596783745e-01 4.986096339892830409e-01
-5.391291751427421119e-02 -1.116219702055874924e-01 4.865253623665963811e-01
