-5.231933484841879561e-02 -1.165409246777029673e-01 5.333102422060401748e-01
-5.067465782544811753e-02 -1.187573879756326778e-01 5.265161911365525693e-01
-1.079422722915753530e-01 -1.037131126685809507e-01 4.715244874074860926e-01
-7.074158893125155612e-02 -1.063302431860583125e-01 4.764367348469862318e-01
-6.632544739264523148e-02 -1.026873670237763297e-01 4.710259445558391267e-01
-6.249763895369309097e-02 -1.095558788414553175e-01 4.831815411140774064e-01
-5.199298345801854626e-02 -1.152821237790016690e-01 5.354278988779791471e-01
-9.471316517701876270e-02 -1.092633581087577438e-01 4.744546965999995036e-01
-7.314279048667514382e-02 -7.161024336024628123e-02 4.482676082623697211e-01
-7.592262185767614802e-02 -1.001202396719158283e-01 4.680652877491393027e-01
-2.495997050951519192e-02 -1.148595105146089368e-01 5.540746895935054761e-01
-6.561772728040315972e-02 -7.487133506363850832e-02 4.505369691995927406e-01
-3.559903746895974608e-02 -1.147846075091833173e-01 4.907910971508569475e-01
-6.611792932662359512e-02 -9.607249884821926489e-02 4.638833643349113967e-01
-3.732205465255626631e-02 -1.202449220949965564e-01 5.332128543614813587e-01
-7.707773842763071537e-02 -8.233680030363095537e-02 4.525057335063739639e-01
-9.044982486576963465e-02 -1.166787975515438808e-01 5.150908880236563236e-01
-7.322335540202506987e-02 -1.096204128640889119e-01 4.819965698891913175e-01
-6.662031221792459601e-02 -1.100533704019016346e-01 4.838472642750649144e-01
-1.057662861544601818e-02 -1.271846796425917803e-01 5.180558612736280155e-01
-6.702004977950426490e-02 -1.161567818734604018e-01 4.994712552916343862e-01
-9.459566404851703358e-02 -1.163619405091216724e-01 5.131553098124784773e-01
-1.045389015238443187e-01 -8.849053223398697932e-02 4.645741701375720734e-01
-1.070917867751168956e-01 -1.172387016917339625e-01 4.850219720906522869e-01
-8.376358501013335400e-02 -1.166184089208445879e-01 5.201963020418295391e-01
-3.343894161264988202e-02 -1.214204825241884667e-01 5.199255858688400789e-01
-6.427953019317256267e-02 -1.161369443337702673e-01 5.278743086896761083e-01
-9.117965633459958197e-02 -9.770379381995009105e-02 4.647509583111629761e-01
-2.311817115540525797e-02 -1.240439418385032994e-01 5.233737669650717628e-01
-9.118246688789194421e-02 -7.144360724234778692e-02 4.550215733580449395e-01
-6.704436442473886426e-02 -1.182874750992804619e-01 5.152938108290133767e-01
-3.774545516418844476e-02 -1.107800249707017182e-01 4.828915341489405377e-01
-8.807464273554510559e-02 -1.144906786445412800e-01 4.842538301228463404e-01
-4.248762899979957597e-02 -1.199550225769313722e-01 5.197275358218191865e-01
-6.338562476436497561e-02 -9.538892592397894832e-02 4.633195001776624355e-01
-9.194078184801340869e-02 -1.059553774377706148e-01 4.714079736604758208e-01
-7.365340047354748676e-02 -1.069601257467662492e-01 4.771338962670912953e-01
-7.607029396152495404e-02 -8.825840241093989291e-02 4.570725536809284173e-01
-7.167800373944144265e-02 -1.183090146176598162e-01 5.093806746990094947e-01
-5.826944315632947430e-02 -1.180879460409111209e-01 5.156462496326704725e-01
-3.635359597547709737e-02 -1.121104797804190201e-01 4.853097342094798150e-01
-2.822220409579034861e-02 -1.147274324471176110e-01 5.508817060931088250e-01
-2.863092574218505451e-02 -9.572541608637961941e-02 4.606025197789089809e-01
-4.114912093842483520e-02 -7.581276127163882883e-02 4.508322029434664868e-01
-7.813185520292369179e-02 -1.002069346736444294e-01 4.682462614538754342e-01
-1.006094816036924994e-01 -9.053839852301831526e-02 4.625546031319284768e-01
-9.695470574452262624e-02 -1.190160246546874134e-01 4.971885240449531729e-01
-8.865513327304537505e-02 -1.166536314955638615e-01 5.167369573574518427e-01
-7.178658351835551232e-02 -9.543463126930656903e-02 4.633293671211430875e-01
-3.341399584595222683e-02 -1.162065167408482813e-01 5.453463295658498300e-01
-1.023648285006685671e-01 -9.592177051260089571e-02 4.648133815045566997e-01
-1.303427700217339377e-02 -1.211061137361088003e-01 4.914370144222601211e-01
-7.770585589833962914e-02 -1.173443990964955219e-01 5.206693237675862340e-01
-2.808998479398726669e-02 -1.221500280672897093e-01 5.117110345979534181e-01
-8.604796880481843657e-02 -1.157138573161736461e-01 4.885091216881336518e-01
-7.868139174191977891e-02 -6.430991445170072818e-02 4.461613235353756868e-01
-3.821463774008443393e-02 -1.084955004395782574e-01 4.788026606272606234e-01
-5.060853591444192806e-02 -9.147675754287286354e-02 4.611141059895690897e-01
-9.123691782116231941e-02 -1.175718179899891414e-01 5.092187780858111745e-01
-7.451559441859213762e-02 -6.560169786326555674e-02 4.462815777337679202e-01
-4.618454505352975054e-02 -1.181909849274332125e-01 5.060200975193168693e-01
-5.755897700776469589e-02 -5.737707155771523682e-02 4.456048208497656593e-01
-1.117196352870198361e-01 -1.170109002248097413e-01 4.935619609701982213e-01
-1.048974256557169693e-01 -1.024265178771841672e-01 4.695474270304220710e-01
-9.778919613193111371e-02 -1.186714121883494927e-01 4.986300218120964245e-01
-3.586634039998645024e-02 -1.198751512631284488e-01 5.374046668475263022e-01
-5.033640090448995852e-02 -1.077320184595136343e-01 4.799256400587167404e-01
-7.550651003023328700e-02 -6.573022376017463586e-02 4.461867343170785039e-01
-6.102995156541349275e-02 -6.166804750434176641e-02 4.466358417863437458e-01
-6.434130491943489127e-02 -7.531539658556679617e-02 4.509271175403060106e-01
-3.006552443246235037e-02 -1.209962823610319649e-01 5.064637541651988428e-01
-1.743195910581285882e-02 -1.164858976502364668e-01 4.829561049646607374e-01
-1.023751959696076880e-01 -8.676797452971732327e-02 4.629612871102417593e-01
-1.132835370565066224e-02 -1.270104451283695091e-01 5.220284575764808643e-01
-1.179465451200799320e-01 -1.122121930811859902e-01 4.974186907614469577e-01
-8.390647147812846374e-03 -1.274505011345776762e-01 5.261822370049866748e-01
-1.017624271864930319e-01 -9.351806332119859400e-02 4.636808363849652670e-01
-4.930000711355671944e-02 -6.271400117901132498e-02 4.467318588207663255e-01
-8.137093832400896232e-02 -8.880716306208985555e-02 4.579438304436232454e-01
-3.753909185957838429e-02 -9.353865061914484746e-02 4.625474088500310943e-01
-6.625261103859564349e-02 -1.154897475191919431e-01 5.281655601738397543e-01
-1.207232662053302208e-01 -1.049019789945525583e-01 4.894919146060685011e-01
-2.028802427254312868e-02 -1.087650644312359027e-01 4.714305166227173438e-01
-9.946028193111365601e-02 -1.061630452829421534e-01 5.200914724534556610e-01
-5.234047456773237988e-02 -7.489317212924041789e-02 4.515072899024372699e-01
-1.019069642723181984e-01 -1.204184706208261263e-01 4.887048624979052347e-01
-7.938767137965621612e-02 -1.182636580857837350e-01 5.064563111460742562e-01
-5.335656058516269340e-02 -1.152194728552566605e-01 4.960996563729699327e-01
-2.034797563594400657e-02 -1.230282924081057411e-01 5.390272241126109476e-01
-5.673002088111768482e-02 -6.390255134011012250e-02 4.471939008472745058e-01
-6.683609759013883767e-02 -1.170772464841817462e-01 5.243861048475484399e-01
-1.083197717732556353e-01 -1.123693428117893689e-01 4.796231509809217308e-01
-3.673871808917589243e-02 -1.119320604783574230e-01 4.850200657956630357e-01
-1.827065268754422128e-02 -1.253123545729723509e-01 5.227901923471981460e-01
-7.917136300683967620e-02 -6.855028888851029401e-02 4.466871168546944215e-01
-1.002046925464222388e-01 -8.204051578419298274e-02 4.625155648187305735e-01
-3.851514870822915493e-02 -1.198635814997454363e-01 5.348186522604065907e-01
-3.014689594892707922e-02 -1.180757937240529409e-01 5.461290299223847677e-01
-5.250226943581269567e-02 -1.166151189135616467e-01 5.324766896850332554e-01
-7.089074773681101893e-02 -8.363086751267970187e-02 4.538787755631073506e-01
-1.567717727150842039e-02 -1.068175394867244832e-01 5.649899148699724094e-01
-1.025066850189856188e-01 -9.857642194393764767e-02 4.666249981712841666e-01
-4.947357461995616906e-02 -9.006892556341522527e-02 4.601319432799042541e-01
-8.846748336820681180e-02 -1.153654994039317594e-01 5.205302282502264344e-01
-3.707885272395680665e-02 -8.537906058674747667e-02 4.557539104805746755e-01
-8.684378719333860075e-02 -8.679561229307786174e-02 4.566621556514852687e-01
-7.822303581009420331e-03 -1.259175618065254409e-01 5.326640432942302272e-01
-1.204421534718890935e-01 -1.024377216968701265e-01 4.844488133502912186e-01
-1.012547846765507464e-01 -1.184726850995350689e-01 4.988397964641038684e-01
-6.417395970839281927e-02 -9.206338658505087980e-02 4.603658122763223393e-01
-5.797832077022258696e-02 -9.488044594258233932e-02 4.633462625093968668e-01
-5.886184781317020664e-02 -7.364170607450826189e-02 4.508108530374371203e-01
-8.582814985067103997e-02 -8.496738948359594534e-02 4.552736899632123801e-01
-6.095447574075273794e-02 -9.338079151026745794e-02 4.616724467106845253e-01
-7.696573154151452323e-02 -8.851568114117874808e-02 4.573733433155297567e-01
-3.238392600104270797e-02 -1.120300383659125765e-01 5.480892134755084300e-01
-1.004397561156946950e-01 -1.197803204796260707e-01 4.864135427698405567e-01
-5.276143741829966705e-02 -9.774225344008728722e-02 4.665182735245925194e-01
-5.636076732360969024e-03 -1.276102168668039050e-01 5.287241836916499738e-01
-5.394509220086224355e-02 -1.155567267728258712e-01 4.975375763123092709e-01
-1.751314077136031933e-02 -1.251743790973149639e-01 5.304362914863792744e-01
-4.775550177248504696e-02 -1.192401989179167621e-01 5.226849904315846729e-01
-1.529924483386612376e-02 -1.227937099599173965e-01 5.425353272564051865e-01
-6.744937475288642625e-02 -8.862868494991998913e-02 4.574934827501228041e-01
-6.273089454729460779e-02 -1.062762248295160000e-01 4.762636320577458005e-01
-6.364660684014870895e-02 -9.767584446914362450e-02 4.656229458303205448e-01
-6.098385056217504874e-02 -1.113241215894505559e-01 5.350935737071713660e-01
-7.565098615772636315e-02 -1.002224074845218527e-01 4.681508867039616550e-01
-2.184937088154987120e-02 -1.012097991881276415e-01 5.600946832987222512e-01
-1.169956468700483754e-01 -9.851638779220127373e-02 4.770975050329513412e-01
-3.846051793199180974e-02 -1.104476058954263346e-01 4.823633304608548888e-01
-9.976652957649338738e-02 -1.077944824188008105e-01 4.715815795496915985e-01
-6.371674789073233924e-02 -6.636755803851820956e-02 4.477426687865487254e-01
-5.790325255267048110e-02 -1.177717856961304349e-01 5.257825336047872167e-01
-1.848603188395119348e-02 -1.228132216693815643e-01 5.003718387135570600e-01
-1.172713103206930035e-01 -9.906579910708263048e-02 4.774528993728784365e-01
-6.722301002885062993e-02 -1.182946684283804201e-01 5.155525716291540217e-01
-1.038242772765187866e-01 -1.183396965976918902e-01 5.005418403304698893e-01
-9.683271878767597818e-02 -8.195334875679365083e-02 4.589432440068810792e-01
-4.064216937287907366e-02 -1.188012850684792010e-01 5.055786478913525395e-01
-2.632185767486600395e-02 -1.213521871541390351e-01 5.028076662083801329e-01
-8.004646606952485477e-02 -8.818475308527123913e-02 4.573652270771793593e-01
-1.564635300560039341e-02 -1.251180355587895032e-01 5.074486158662085966e-01
-4.798834369196623012e-02 -1.005968613485003910e-01 4.698802248733543463e-01
-2.325491174031208558e-02 -1.239365214206498839e-01 5.197940212017649886e-01
-5.009404875610276586e-02 -1.088873920360797082e-01 5.407094949712586418e-01
-3.856128484603543044e-02 -1.204900494526032345e-01 5.286024687006171119e-01
-5.676076300808326897e-02 -8.178069985564651034e-02 4.544150975808410875e-01
-4.772222545817956380e-02 -1.151016901862056824e-01 5.380245471777740374e-01
-6.642623043037604313e-02 -1.168933664113141896e-01 5.024281800600860493e-01
-4.165478801113462609e-02 -9.132053891340168039e-02 4.611353609539461385e-01
-5.362489275061674970e-02 -1.184533242926218144e-01 5.260159551819290069e-01
-9.531028408664359020e-02 -1.128179743244069194e-01 4.775802286671311792e-01
-7.496639337227153921e-02 -7.991350399166088914e-02 4.512811453910500759e-01
-7.204571427669796690e-02 -1.116944097703753969e-01 4.860838517028534533e-01
-5.892801965296058653e-02 -7.163729013235922705e-02 4.500518836313310844e-01
-5.523916621468136223e-02 -1.183263174575529958e-01 5.247482846953565039e-01
-4.421511563536226208e-02 -8.288049101490281567e-02 4.549823676096719782e-01
-3.927205811314174455e-02 -9.360702955473115816e-02 4.628733065607292807e-01
-4.610026637387718701e-02 -1.194006220333190538e-01 5.233990323638338937e-01
-2.181886516027868941e-02 -1.197846747986209132e-01 5.483226877800030374e-01
-9.450961766982388101e-02 -9.572099047241963699e-02 4.634051109683071656e-01
-8.207865033705349922e-02 -1.119775443000526338e-01 5.269506208036336403e-01
-4.156054511405351398e-02 -7.774615776709437043e-02 4.518545764332371206e-01
-4.660342486655409677e-02 -1.192207563953257415e-01 5.271806560587686263e-01
-5.510863544468267566e-02 -9.274366062922941023e-02 4.617128643757618667e-01
-1.109503124340335128e-01 -1.160376422649132128e-01 5.020640949722915414e-01
-1.192629670490474025e-01 -1.089427765295128830e-01 4.956245615708165797e-01
-2.317260594388624931e-02 -1.149290530561307422e-01 4.824932036469174457e-01
-1.138297739009351550e-01 -1.099330984164418185e-01 4.812966203074238170e-01
-9.292165391463612367e-02 -9.133911860906317182e-02 4.605777016475139374e-01
-4.645604400681734025e-02 -1.158291274043979913e-01 4.962735151288572566e-01
-3.724356638391486396e-02 -1.185525336829422183e-01 5.022587211131748219e-01
-1.162799255313198693e-01 -1.091141482000980711e-01 4.831747181877005248e-01
-6.799950994722515907e-02 -7.751476497226905682e-02 4.511857752057061854e-01
-6.433772937887649590e-02 -5.718721063252802522e-02 4.454792812255702339e-01
-2.808952750132769679e-03 -1.282439236953165640e-01 5.260406611701365920e-01
-1.065664411453204202e-01 -1.189815791400307132e-01 4.955483255309912072e-01
-9.566769070902500505e-02 -1.157747498386580698e-01 4.801154767052005501e-01
-5.452976639604092263e-02 -7.046844602036270167e-02 4.496234609045115516e-01
-5.990697919820404255e-02 -1.098688624214655546e-01 5.359176922064121662e-01
-5.536327357807536986e-02 -1.172796092885641656e-01 5.058544100369150032e-01
-4.832746961849979095e-02 -7.598136441626561488e-02 4.519661803807652478e-01
-1.448429885530083151e-02 -1.262130198489005428e-01 5.186935805639141250e-01
-2.067993577630971788e-02 -1.091112076408533027e-01 5.607753569432211149e-01
-2.032889614482194171e-02 -1.247549909504032245e-01 5.268079954885915850e-01
-8.202485581282258076e-02 -1.155928545876313968e-01 4.915355419771855749e-01
-2.423821142240594612e-02 -1.125591787985003589e-01 4.793784306048869404e-01
-3.586934064110842979e-02 -1.194745171285759994e-01 5.061381207105658531e-01
-5.599313090521517572e-02 -1.179474073261449901e-01 5.264342473008628565e-01
-3.132546978678732441e-02 -1.210624335771601778e-01 5.086294066180536699e-01
-6.103107665135221183e-02 -1.097480527438707137e-01 4.835477813452047080e-01
-2.931355977624633749e-02 -1.200551364290897843e-01 5.008214834171510477e-01
-1.105167512750199060e-01 -9.446021436967631801e-02 4.695460525881664515e-01
-8.341668701339757797e-02 -6.465509766828324290e-02 4.479636966169964762e-01
-6.672805482585779380e-02 -7.752013903942504836e-02 4.513845359454305428e-01
-3.907578137640768667e-02 -1.170159494867344524e-01 4.975329833826612758e-01
-1.065446899461171965e-01 -9.949862111753353389e-02 4.683509416055968710e-01
-8.750500214274832544e-02 -8.962037128110217354e-02 4.589284574575045461e-01
-9.969736771125788100e-02 -1.143609926410314587e-01 5.150131412661260732e-01
-1.114757776268534423e-01 -1.160302091833762123e-01 4.877001502397707577e-01
-6.265247410942025030e-02 -1.180613416200546606e-01 5.197834403571742756e-01
-5.863427122680033021e-02 -7.828569056752499034e-02 4.527099871313018942e-01
-5.845307578948365917e-02 -1.156690098838492747e-01 4.994787390082552903e-01
-7.439684160085656417e-02 -6.801199243103743519e-02 4.469551192367975934e-01
-3.497578115320545966e-02 -1.211985278229786717e-01 5.270617905195070785e-01
-1.162162064705642844e-01 -1.138690987711153957e-01 5.019497470882926526e-01
-3.419425703971774866e-02 -9.395780583113791384e-02 4.616171120659774418e-01
-5.354890236616004218e-02 -1.032963605457825340e-01 4.733008184791303030e-01
-4.412583676644395159e-02 -7.917127188964954987e-02 4.529104110546226525e-01
-9.402191295439062124e-02 -1.105454569377052609e-01 5.227299314227302762e-01
-9.582567891041372798e-03 -1.274092467435227749e-01 5.212202095787944467e-01
-1.186801532932309777e-01 -1.098843267588810735e-01 5.026469445174910344e-01
-1.503084119196853446e-02 -1.260979503789561862e-01 5.198785096200849720e-01
-8.936614029027931116e-02 -1.172613693982291483e-01 4.905548492117836612e-01
-3.968637102996876165e-02 -9.358220991694223001e-02 4.628796340937665899e-01
-6.161944634795002429e-02 -9.812596122009591137e-02 4.660651833345781370e-01
-8.080353874391377200e-02 -8.924017109667517489e-02 4.582626872814322128e-01
-6.905161398422594854e-02 -8.695820587794005074e-02 4.562736527699128297e-01
-5.440623448670919848e-02 -1.171205122349370381e-01 5.298987016640307468e-01
-7.443695931949895206e-02 -9.298192944501292023e-02 4.612388699189733932e-01
-1.168236457006355256e-01 -1.080877174276796415e-01 4.824717262744668278e-01
-6.690369492398562379e-02 -1.158454859028907602e-01 4.984098130989180753e-01
-7.336550348632603358e-02 -6.221668291817145785e-02 4.458749884358861326e-01
-5.906127737047908027e-02 -1.133507339880516496e-01 5.346216716575588057e-01
-5.002223804568917132e-02 -1.165650498343764052e-01 4.998901342966617922e-01
-9.292858189355068799e-02 -7.668103515687026139e-02 4.559088523710001506e-01
-2.019657668486026653e-02 -1.234876756374498480e-01 5.052553813819510298e-01
-2.600549096364131174e-02 -1.204798480108791731e-01 5.445977754398941828e-01
-1.018556088660007852e-01 -9.260608241580786659e-02 4.636592057992601212e-01
-3.444871604811225452e-02 -1.212979275929238071e-01 5.289263744208261286e-01
-4.980085363307867885e-02 -9.414064020285556333e-02 4.634387511436111051e-01
-9.531919973779554023e-02 -1.167737986845390763e-01 5.112026781710242718e-01
-7.813473186266925441e-02 -1.174935832406304448e-01 5.197043941246781706e-01
-4.430810258152151349e-02 -1.006079842406859270e-01 4.696854231522931689e-01
-7.717498976249353992e-02 -1.135438848859957606e-01 4.898305063162667339e-01
-9.190131839937271119e-02 -1.169896348328419711e-01 5.116687839175075858e-01
-1.132834757994454072e-01 -9.552937686995124911e-02 4.708012150343766633e-01
-4.544956329705492765e-02 -1.195853803504084573e-01 5.208816322604933324e-01
-9.807381354934528728e-02 -1.148287891651685044e-01 4.780722893727701317e-01
-5.178072966954935796e-02 -1.160604006341381528e-01 5.345037356033470743e-01
-8.000896019816229610e-02 -1.177221576114157037e-01 5.169455530484945438e-01
-5.900254784238932737e-02 -1.174668263576279237e-01 5.262750949139969325e-01
-6.359233108223676101e-02 -1.088655656647381509e-01 5.349036726160368849e-01
-9.678131805514883501e-02 -1.081798989799471755e-01 4.728338363337908357e-01
-1.163369748513411045e-01 -1.114384980923589230e-01 5.060856395540009878e-01
-1.285789962620132766e-02 -1.063155349141875483e-01 5.655391086531238454e-01
-1.016824366441226868e-01 -1.075101436048465225e-01 5.175336671601352689e-01
-8.451157644897475119e-02 -1.163808194020741482e-01 4.947988203225060500e-01
-8.089930316868465532e-02 -8.638867716344170167e-02 4.559346188708145453e-01
-4.851307251215378202e-02 -1.181469928945091674e-01 5.075208309793348693e-01
-1.137034549627738006e-01 -1.154780310977232410e-01 4.966570914868936315e-01
-7.775989540982776449e-02 -1.078701013293244387e-01 4.776486926026194402e-01
-7.726174398585985981e-02 -1.081562685690385384e-01 4.783123610151717719e-01
-9.999568830395084984e-02 -1.196209365938454838e-01 4.947844051078790217e-01
-1.193566058357975607e-01 -1.039758803853044894e-01 5.021241805423598548e-01
-4.229457027667790636e-02 -9.355901023100074432e-02 4.630124786488979405e-01
-1.148621552748427671e-01 -1.146617526357063127e-01 4.993444374696961452e-01
-8.335263405486761923e-02 -1.179993159954834669e-01 5.101650438805165333e-01
-3.428077897476271979e-02 -1.206539203686755601e-01 5.348190209792840211e-01
-5.033864696853516257e-02 -5.961656671367829285e-02 4.458109981515189224e-01
-1.123784011873455446e-01 -1.138814011043643437e-01 4.847743468807162448e-01
-6.146333051600013503e-02 -1.174396222435879628e-01 5.079529394925970109e-01
-9.552578957503980728e-02 -1.099889298255108810e-01 4.750223433775777604e-01
-3.499964048600008593e-02 -1.175414737034234797e-01 4.967959183533603995e-01
-7.075812343483860178e-02 -1.176313976922200577e-01 5.206620362796864354e-01
-1.006272024723499532e-02 -1.269008716568539030e-01 5.116999361664317236e-01
-5.626604783796440579e-02 -6.506085443995801576e-02 4.476273716936760572e-01
-4.568089688557151057e-02 -1.117369957598249169e-01 4.860536723186789643e-01
-6.636795713153630094e-02 -9.341426793236375092e-02 4.615112774576888288e-01
-1.793164127388322676e-02 -1.235717100297909626e-01 5.381530819987853098e-01
-5.195642363244297457e-02 -1.172006791040190871e-01 5.306804369614218642e-01
-3.443623014931462140e-02 -8.553690070752217878e-02 4.548907220695722065e-01
-7.650586694186692349e-02 -1.138139109464936100e-01 4.909675363092279032e-01
-1.130199036134401230e-01 -9.667460910564369680e-02 4.707456573637882613e-01
-5.001268291954118206e-02 -7.684909600444571331e-02 4.523722078108213807e-01
-6.200967484335746793e-02 -1.143459300302197557e-01 5.316543006937702875e-01
-6.184064767367095095e-02 -1.174924037774977836e-01 5.080575638310785846e-01
-1.011161117049546726e-01 -9.037436256758206443e-02 4.628864168418144187e-01
-2.386960092235292097e-02 -1.003651911519175682e-01 5.564796979393432652e-01
-7.778400866620789611e-02 -1.101125766401025718e-01 5.304573460439762078e-01
-6.206472249539487368e-02 -1.069105940178075032e-01 4.774398920143090308e-01
-7.225062558619207986e-02 -1.122059817136123461e-01 4.875430399137060666e-01
-5.282951362642766824e-02 -1.143068249186918184e-01 4.930919385748164796e-01
-3.286359691885754747e-02 -1.215671547593235730e-01 5.207063284828978844e-01
-6.927963945875785512e-02 -1.047409309170110464e-01 4.738208188715261060e-01
-6.104221670451558807e-02 -1.039138634325545429e-01 4.734443675446075583e-01
-9.994668880112025922e-02 -1.167692559945727876e-01 4.803767162138736224e-01
-7.315939909985845480e-02 -9.813961173711986674e-02 4.660279865185740777e-01
-9.269248077872835334e-02 -1.174394144736266854e-01 5.093239239988168743e-01
-5.689543185405666892e-02 -9.641268232503019675e-02 4.648519790616163494e-01
-1.521156218267745788e-02 -1.194573560550461211e-01 5.516166766192759363e-01
-4.105427665770412793e-02 -1.193518179395298556e-01 5.358024435163768473e-01
-1.190354822208473419e-02 -1.268885996939227712e-01 5.216396627129501473e-01
-8.165590530001098912e-02 -7.525793876977292240e-02 4.493887852467319255e-01
-4.531547561923811307e-02 -1.195342633312211633e-01 5.226846169142130849e-01
-6.209018157181573488e-03 -1.279159816801938576e-01 5.256898214775959088e-01
-1.843797071601412617e-03 -1.281702300888609980e-01 5.172385991198302779e-01
-7.138653909005603093e-02 -7.086130402182369559e-02 4.481643590560979162e-01
-6.219514009775321123e-02 -1.176687432957488899e-01 5.087970501496116293e-01
-2.727076625101800683e-02 -1.228671383297723768e-01 5.208902286693081196e-01
-1.120009176762025438e-02 -1.213612061986340113e-01 5.477194282273524228e-01
-9.738209738225558909e-02 -9.436210579453833958e-02 4.629127251341126348e-01
-5.109410736904310135e-02 -1.111119639880371046e-01 4.853306339129166425e-01
-1.192817715723515359e-01 -1.080917466885741723e-01 4.875544417842148648e-01
-9.657603080370007198e-02 -1.151879879880772090e-01 5.165315410295466814e-01
-5.085575308491876306e-02 -1.190761870342276763e-01 5.208806340558516101e-01
-5.219988971168394720e-02 -9.362369808896182921e-02 4.627712613119205898e-01
-7.813673609422502886e-02 -7.651518496851185402e-02 4.497519397482602210e-01
-1.953617852345494038e-02 -1.245007484317625229e-01 5.095175835464453851e-01
-2.178685040815103377e-02 -1.187537025547563546e-01 4.901866112311425994e-01
-3.221286679525132979e-02 -1.103237800896625515e-01 5.482773148895014881e-01
-5.398409749979621308e-02 -1.110498929900218118e-01 4.856953857825997978e-01
-1.645203456345389545e-02 -1.201353941251658008e-01 4.905102737324541495e-01
-6.920428464239741784e-02 -1.175636059053168786e-01 5.052486036977151818e-01
-6.693266774100528615e-02 -1.170267063364135163e-01 5.029577136741953947e-01
-5.464874417778976812e-02 -1.158695484022352340e-01 4.992968636372391855e-01
-7.535559084181009393e-02 -1.171151681818388274e-01 5.220551593292014347e-01
-3.032718205181570564e-02 -9.419972077221901163e-02 4.602121062102192961e-01
-6.102746972741209669e-02 -7.654769567519775775e-02 4.518147484557953897e-01
-7.289440653272785675e-02 -1.163218233208163505e-01 5.250803813214945936e-01
-9.035058340998453758e-03 -1.105574336695337445e-01 5.634575147342176793e-01
-2.276017198149456883e-02 -1.223641895318260120e-01 5.398117983821095756e-01
-1.514150928901916021e-02 -1.246406503332603971e-01 5.041765726651230572e-01
-4.517983253953625211e-02 -1.191524848226883787e-01 5.313286200591490482e-01
-5.354514744020737183e-02 -8.900360272403246009e-02 4.589011058569008594e-01
-1.196451280373659748e-01 -9.954979470868963176e-02 4.826908467137724923e-01
-7.994594512670914754e-02 -9.423740609321008821e-02 4.625820196822799657e-01
-7.397382346132592990e-02 -1.096311632920894258e-01 4.818132782509240153e-01
-4.273989265383743713e-02 -1.196173599223105122e-01 5.321073265932571017e-01
-8.026480182111840611e-02 -1.155859073622197974e-01 5.246924677442456053e-01
-7.206823658415444089e-02 -6.863805451468665830e-02 4.474341674725514917e-01
-6.573675380878474250e-02 -1.180970186017441803e-01 5.116997944568560941e-01
-8.268565832711087527e-02 -1.151645660892726825e-01 5.238584099936822724e-01
-3.684901847238176986e-02 -9.367650043869224508e-02 4.624859335290968931e-01
-5.965064763564736916e-02 -6.473487907797909058e-02 4.473701862218045222e-01
-1.194876492224498099e-01 -1.045297905650598713e-01 4.841203644319871380e-01
-1.034746626158307842e-01 -1.183616944629106438e-01 5.005877033550956146e-01
-5.478430617999633517e-02 -9.265494641995090930e-02 4.616703032842882082e-01
-3.262510653743196792e-02 -1.123019894245063793e-01 5.479478071980062870e-01
-1.716460339698551441e-02 -1.014468650231057784e-01 5.651487960618515327e-01
-1.115957477004298759e-01 -9.867620845077967884e-02 4.702987957976046962e-01
-6.320808552390148882e-02 -1.132252047773159298e-01 5.323611607704297199e-01
-9.872518453103489022e-03 -1.266859906262135238e-01 5.099621745316088584e-01
-6.576915769690254432e-02 -1.175150606051267310e-01 5.072547488664324034e-01
-1.038694983349894296e-01 -1.166927221421271421e-01 4.819885768182581298e-01
-6.703823886600490667e-02 -7.999010515644887354e-02 4.523546250391363710e-01
-5.112079786172305657e-02 -6.526539221330779350e-02 4.476377981629417468e-01
-1.004744906979481572e-01 -1.196689808410145855e-01 4.946001071716054076e-01
-7.148139027923723632e-02 -1.182449813518189896e-01 5.083249713383112267e-01
-6.874218846195116750e-02 -1.163285633487107368e-01 4.992074481440230693e-01
-2.053683324082143311e-02 -1.232345136807710961e-01 5.044269493868583920e-01
-9.216443413471842039e-02 -1.176534167328382313e-01 4.907114230476975480e-01
-3.916414667418729317e-02 -1.203760406762168916e-01 5.186798957195321025e-01
-1.539635038207720283e-02 -1.245106830134770637e-01 5.038558607644216814e-01
-8.114923118668487811e-02 -8.722097350431401441e-02 4.566475091431558830e-01
-4.412054313220916540e-02 -9.678453175887229143e-02 4.658659345447605515e-01
-1.084626678704555813e-01 -1.021372169652481759e-01 4.704852998679849851e-01
-1.036147733257393594e-01 -1.175297287501966131e-01 5.037598426557564624e-01
-8.290543750180807969e-02 -1.152229982374779332e-01 5.235453273907000327e-01
-7.872800297901381625e-03 -1.103393380235543897e-01 5.636985692635095857e-01
-7.412434255479088963e-02 -8.397811990368993229e-02 4.539091727383730568e-01
-3.040694763026842440e-02 -1.164808272198958050e-01 4.922739889181638184e-01
-4.887278756577490696e-02 -1.188667413526887651e-01 5.127926287392295945e-01
-3.549534098090522533e-02 -1.111728270041273253e-01 4.832846438807055223e-01
-1.012193650703358400e-01 -9.047141746775301530e-02 4.629804284384870794e-01
-2.022071913395066117e-02 -1.210181877647303200e-01 4.954815067811753071e-01
-4.882793582114573760e-02 -8.996889140875199975e-02 4.601285952535640322e-01
-2.979569699781851530e-02 -1.204344023440489242e-01 5.405761188365152403e-01
-8.510545995536450414e-02 -8.466968575666575236e-02 4.550176724422135277e-01
-8.422968713786753436e-02 -1.174143291638265196e-01 5.157385538626260146e-01
-2.114737338714024750e-02 -1.030706835748502193e-01 5.615942465749429457e-01
-6.324425637888062002e-02 -1.069172046354599920e-01 4.773404148005016001e-01
-5.170678791010174108e-02 -8.712235149040378768e-02 4.576647062335211791e-01
-1.697417389438439506e-02 -1.256529571197578243e-01 5.255452847702188901e-01
-8.786766332497447651e-03 -1.211014867591882899e-01 5.465481653794654893e-01
-5.706791116671441205e-02 -8.064942815999433245e-02 4.538869648486497654e-01
-5.983363870796158668e-02 -1.078840325040723302e-01 4.794576358548580108e-01
-1.061317722447332468e-01 -1.163762902704994634e-01 5.061386493613017068e-01
-8.648879003267878618e-02 -1.171847839495536170e-01 5.148340305077212520e-01
-1.989077480242572998e-02 -1.188492718559596983e-01 4.889807272661413906e-01
-3.694610826392133451e-02 -1.199207017449726020e-01 5.099861898378938996e-01
-2.860765150918535837e-02 -1.223738219348280976e-01 5.310706992398942505e-01
-5.435888205831115177e-02 -1.052126875628972835e-01 5.394467405503078350e-01
-1.819518951065800250e-02 -1.235664166959733190e-01 5.381513322146660450e-01
-1.128145965991478178e-01 -1.064198043421207274e-01 5.114163858944281715e-01
-1.025913242997653213e-01 -9.511332023516926026e-02 4.644437802231365375e-01
-1.067750562436528827e-01 -1.166356730874165692e-01 4.837903672521206011e-01
-1.018701644823797325e-01 -1.045291334085923091e-01 4.699650528569924712e-01
-1.066607871727321827e-01 -9.099941106878429997e-02 4.661284507662826204e-01
-1.138812040259972180e-01 -1.127427898986608640e-01 4.849189752462545466e-01
-4.897740334744537377e-02 -1.101915993492099954e-01 4.836420365345810435e-01
-4.590397465031660629e-02 -1.143111709609188620e-01 4.916818322972698052e-01
-9.143400135799410744e-02 -1.128899717332892683e-01 5.226994093738807079e-01
-7.263859495446395309e-02 -1.183723709593775542e-01 5.107039613046472359e-01
-8.970527280495003974e-02 -1.164079015778001491e-01 5.175529109606062939e-01
-1.110107191868120284e-02 -1.004364620408833148e-01 5.673634831388004729e-01
-1.907796986755716170e-02 -1.224861091815405562e-01 4.996997445095597845e-01
-1.180928701458713176e-01 -1.116052889734173298e-01 4.937536438180848974e-01
-8.058123659998979449e-02 -1.088102336934329561e-01 4.789106259087481665e-01
-4.792090398121038458e-02 -1.020073619005874427e-01 4.715790131783433314e-01
-1.587204580695972256e-02 -1.224586207718790787e-01 5.440479005396484657e-01
-4.824936027336490518e-02 -1.059848171932073202e-01 4.769085479570334130e-01
-7.124331979982594099e-02 -1.179308167879264679e-01 5.061286484501714700e-01
-8.828734763167493671e-02 -1.183527715975962458e-01 5.035003396194210890e-01
-1.734423421245326682e-02 -1.223924324922114754e-01 5.443351603882370382e-01
-1.098500624857315505e-01 -1.085221065496261295e-01 4.771082117488235630e-01
-5.944983954714200963e-02 -1.008158428403684442e-01 4.690714392962918589e-01
-3.986524866852577537e-02 -1.130923477941764427e-01 5.432036443325671815e-01
-6.315012685762004530e-02 -1.117764139126092293e-01 4.877948395696818928e-01
-3.154586879072836247e-02 -1.200354543205630342e-01 5.032119377369281832e-01
-7.816324074988782733e-02 -9.848818290463649816e-02 4.664501343863458604e-01
-7.415176555670134617e-02 -1.179746807127483033e-01 5.170354129431772305e-01
-3.615424032973815760e-02 -1.203928127132046083e-01 5.339223223805672491e-01
-3.831318619084934929e-02 -1.172274384038309719e-01 4.978822678924960665e-01
-4.212217624846833347e-02 -1.038383633320919958e-01 4.732962328549193409e-01
-8.560102980470865597e-02 -1.101183416460026071e-01 5.259124936043523268e-01
-3.858199567088061582e-02 -9.922576778797470576e-02 4.677416548826681120e-01
-9.151510346555542796e-02 -9.077725533511318834e-02 4.601228915776839345e-01
-4.291762523219297409e-02 -1.196113342762342435e-01 5.134195749611051296e-01
-6.340035150239978212e-02 -9.073263558479478796e-02 4.593859293519323983e-01
-6.238792947305281389e-02 -8.041438957376044472e-02 4.532679737407649401e-01
-1.910553620863985821e-02 -1.172226781811808727e-01 4.851806268584972215e-01
-1.193016632315348352e-01 -1.088691457280131780e-01 4.992306424399398646e-01
-7.077412415638527354e-02 -1.017774693251615181e-01 4.697779491565102217e-01
-9.420648960764740898e-02 -1.059346285512249158e-01 4.714177078366632023e-01
-8.127174993470337450e-02 -8.167379170452551684e-02 4.523278157405101751e-01
-5.194870396240931776e-02 -9.414435247310752597e-02 4.632615279255996588e-01
-8.245413205083068631e-02 -1.052594132058441295e-01 4.730035021948253982e-01
-5.235087311209971062e-02 -5.922104906561152099e-02 4.457603709120945834e-01
-5.131461245400897875e-02 -1.013987804579092461e-01 4.707383632938543228e-01
-1.007523195146720757e-01 -1.199946015099438851e-01 4.931723846378568421e-01
-8.290488617663051285e-02 -9.241272285600159175e-02 4.609144542498081476e-01
-8.775505312799970759e-02 -1.180575517950823439e-01 5.000537352863863028e-01
-9.698462350996689407e-02 -1.176719661868654565e-01 4.847608928890685953e-01
-1.488907793028105241e-02 -1.210565373410518453e-01 4.919967325850468365e-01
-7.351885744169003867e-02 -1.036396456930399057e-01 4.723681134935129311e-01
-5.085895327661711651e-02 -9.614223610933571307e-02 4.651913458252571743e-01
-1.153140483934406851e-02 -1.269859726421397050e-01 5.206194152963137256e-01
-1.143268551996480531e-01 -1.139595461399482146e-01 5.048387933223569268e-01
-5.706765649359627629e-02 -1.076038406385580737e-01 5.374512201567005487e-01
-7.705996908107067001e-02 -1.018520397698148838e-01 4.700692655825377542e-01
-4.187750005575959639e-02 -1.200695011246197541e-01 5.235904477712886029e-01
-6.457602069920503896e-02 -9.285408851345475223e-02 4.610598630215760330e-01
-4.853349257622009000e-02 -1.164971373036494257e-01 5.358533206790492276e-01
-9.276356174418140532e-02 -1.171778569179475621e-01 4.879124034410892152e-01
-1.083796234341797698e-01 -1.137807913802588999e-01 4.807734264241065869e-01
-5.538066607258455148e-02 -8.558441408320449639e-02 4.564538981084986791e-01
-6.794560654187405124e-02 -9.039251923516455900e-02 4.587748342760959996e-01
-4.380005538075932431e-02 -1.197537504043814094e-01 5.272389678780201594e-01
-1.124276189535561299e-02 -1.257966165757885280e-01 5.308754316633694792e-01
-1.864552857820453435e-02 -1.252335397863841848e-01 5.247546488138725707e-01
-5.493304626291508480e-02 -7.907674584688031971e-02 4.533746741369529265e-01
-7.264070729004018512e-02 -1.147466275003704850e-01 5.280445802785068699e-01
-5.932930002844452599e-02 -9.360577714829441953e-02 4.620141965912492599e-01
-1.712890136851338146e-02 -1.140816719406541335e-01 5.594536837493175874e-01
-5.002285605927307005e-02 -1.165365846253458570e-01 4.997508973236142182e-01
-1.056001935148839221e-01 -1.014110469460173941e-01 4.690915023657853400e-01
-4.966952425657594761e-02 -1.187794971478126210e-01 5.127684168028314726e-01
-1.374239072889937505e-02 -1.231165486158465605e-01 5.408706185158324020e-01
-5.470710613390533661e-02 -8.084884470646495902e-02 4.541142937987714956e-01
-8.348242470252320580e-02 -1.011227750131378916e-01 4.687347496382537337e-01
-3.087831821657959983e-02 -1.110428240938149264e-01 5.495266919746236711e-01
-6.871917046510048199e-02 -8.638762163836212482e-02 4.559266265384124273e-01
-8.259822676128461549e-02 -7.466775643425989373e-02 4.492888249172538595e-01
-9.084538051926874247e-02 -9.056925091630578517e-02 4.599630725330174918e-01
-9.700448706687259115e-02 -1.147313921735489267e-01 5.167652946616480003e-01
-4.784053208254780698e-02 -1.187862385264258358e-01 5.278542839380730989e-01
-4.876794451030866395e-02 -9.678250790470992182e-02 4.658421879085253292e-01
-5.943347423591798656e-02 -1.161994456082335453e-01 5.304504100210669648e-01
-3.886705111928306228e-02 -7.797582947106970752e-02 4.512552828208576949e-01
-2.573808478530686950e-02 -1.219382929499408796e-01 5.050402362918876564e-01
-9.181912835105544846e-02 -9.888327714563260873e-02 4.656131373163148179e-01
-5.357397042287986161e-02 -1.092658934615785837e-01 4.825381579884518435e-01
-6.356810856071580529e-02 -1.068373864227280395e-01 4.771902047836628635e-01
-3.471322644127656371e-02 -1.198818659848295276e-01 5.066474840827142057e-01
-4.281175390738797826e-02 -7.583786401829677171e-02 4.510638526787761338e-01
-9.011803607491562784e-02 -1.089076233037823416e-01 4.748946635526116178e-01
-9.833354186369225314e-02 -9.998764561117068350e-02 4.671806990934131987e-01
-1.157821458940021669e-01 -1.141898888572198678e-01 5.007674601891121124e-01
-4.513207219473692328e-02 -1.195084050822986382e-01 5.254603714972145845e-01
-2.352037888649375838e-02 -1.235318999843806748e-01 5.117837364130903843e-01
-7.343480459516901759e-02 -1.068603998199111754e-01 4.770192984289517990e-01
-8.158558233891007039e-02 -1.181997780614705562e-01 5.100849141595106273e-01
-9.261681823510604927e-02 -1.045456570448887179e-01 4.704804857736782919e-01
-1.077637701938783249e-01 -1.082696350915870881e-01 4.754889754571684501e-01
-4.868117875039201098e-02 -1.015301664215965405e-01 4.709935407939424556e-01
-1.031037428993970828e-01 -1.206917646415230222e-01 4.877541836544022624e-01
-1.401110264127648081e-02 -1.257523138174692079e-01 5.285168539294551326e-01
-9.158976563891978173e-02 -1.190193572499638891e-01 4.984661269192970368e-01
-6.009068179299128371e-02 -1.140682169404336616e-01 4.935643766756738771e-01
-1.116464088960654986e-02 -1.270159960087078044e-01 5.172225062138404716e-01
-2.476990856611422515e-02 -1.078965290542364119e-01 5.568446166412378551e-01
-1.156745541292495544e-02 -1.266295762200820851e-01 5.118289100309761919e-01
-7.166188895711304851e-02 -1.177960897413617286e-01 5.048973838442588624e-01
-7.795222490614012179e-02 -6.767911312159646808e-02 4.464363090060552430e-01
-4.265853371383024339e-02 -1.186231094363301430e-01 5.060751757334668310e-01
-1.466257527569797374e-02 -1.238382921599524705e-01 5.006172840214465625e-01
-6.772331432452026456e-02 -1.142247254355551189e-01 4.937830067909517173e-01
-4.155696753798218679e-02 -8.516462350068937370e-02 4.562514596583732707e-01
