-9.814214883139327217e-02 -1.193209356386580600e-01 4.975824295549085563e-01
-1.072063265932610282e-01 -1.155281561931470746e-01 4.852170610364269221e-01
-7.316742883434730615e-02 -1.141500593179643475e-01 5.299960794657511132e-01
-1.147888466350476672e-01 -1.145047921411277286e-01 4.948546224526990112e-01
-1.013839326490488940e-01 -1.159476347460069584e-01 5.126626722232628941e-01
-3.632868744428882635e-02 -1.173702742080824507e-01 5.428802172122062508e-01
-1.251075107021125052e-02 -1.159468667272195164e-01 5.584989171762710924e-01
-1.052309834422051477e-01 -1.145611919247917637e-01 4.814150453490697035e-01
-7.917516414047974516e-02 -9.904163428466745966e-02 4.686462394254162778e-01
-3.923391030568972038e-02 -1.157472853875785718e-01 5.425759583849261158e-01
-1.884871153320204912e-02 -1.173151859958924265e-01 4.860293057717975373e-01
-8.246622344910245483e-02 -1.072648432024178450e-01 4.777001863052362518e-01
-1.206818914424371975e-01 -1.041798963171826631e-01 4.888957980264105330e-01
-5.789804085092418312e-02 -1.020639741296699848e-01 4.725334578300128818e-01
-1.163116826164163099e-02 -1.171030195047952083e-01 5.565080411474969679e-01
-6.777417020035828021e-02 -1.161264327912201327e-01 5.009752863465333217e-01
-3.204776607105085801e-02 -1.212136569356170313e-01 5.328912673100090203e-01
-2.872921898907645349e-02 -1.220674922044434063e-01 5.160462073171098174e-01
-6.415230756858292249e-02 -8.767398051564996575e-02 4.583216016306706497e-01
-1.875925921296920512e-02 -1.067409207318956998e-01 5.636575743508466241e-01
-8.454967324748522209e-03 -1.274985062938135405e-01 5.183566490497902857e-01
-2.051510913352421958e-02 -1.186629379783133847e-01 5.514799878212547357e-01
-9.790769999895426734e-02 -1.064193384788695435e-01 4.736589164581151423e-01
-5.712510831124146399e-02 -7.477540094264527315e-02 4.523275885888624059e-01
-1.077409541741117804e-01 -1.090477863067274150e-01 4.787388106603058802e-01
-1.003596960996071402e-01 -1.148324499639215845e-01 5.153767159018420863e-01
-8.522339091512844134e-02 -9.686155906759300049e-02 4.664671364080317795e-01
-1.451505099144871462e-02 -1.217818083191549161e-01 4.944943319516753588e-01
-1.038264674373911706e-01 -9.263764273547743511e-02 4.661592010214216097e-01
-2.929990430813079333e-02 -1.031726579750277817e-01 4.689319673726699000e-01
-1.131215949935381881e-01 -1.051473080291717016e-01 4.781247703927601345e-01
-2.234399954804575095e-02 -1.163795427157327533e-01 4.857082642277897877e-01
-7.127524075058662423e-02 -1.071371414094335617e-01 4.794375310643405053e-01
-8.732180666497674215e-02 -8.067896430669668772e-02 4.544784502128129122e-01
-1.008568233718851737e-01 -9.056631981714333146e-02 4.645061150915645865e-01
-7.492802259427688849e-02 -8.176667586184808989e-02 4.535503475270015183e-01
-6.623371149741848554e-03 -1.192035937822515657e-01 5.512782520207369918e-01
-1.726521285111120435e-02 -1.253705316275001702e-01 5.231436539551856946e-01
-2.583383300420880047e-02 -1.207339473781206679e-01 5.431975349529416519e-01
-1.864667402433247897e-02 -1.164771924023690897e-01 5.563163702294564583e-01
-1.081127052577034869e-02 -1.218867838346658489e-01 5.455753644698985161e-01
-5.118571975508182798e-02 -9.489312776188682519e-02 4.650154713990043431e-01
-9.955091444076348550e-02 -1.077643812700356529e-01 5.209241457581089696e-01
-2.997146754655492101e-02 -9.931406752245204583e-02 4.649187063854780533e-01
-2.229507066225680512e-02 -1.217941542189107385e-01 5.423488379126586434e-01
-1.334908017298509428e-02 -1.256765784418715504e-01 5.090319368968111435e-01
-4.808922780946933012e-02 -1.106637118909922363e-01 5.413377054054764326e-01
-2.593371811866829538e-02 -1.228342298374674596e-01 5.158836696195102656e-01
-1.188578283142965875e-01 -9.887491045104863929e-02 4.832540040084090105e-01
-4.011274817072433413e-02 -9.744989108220736274e-02 4.672353600193538958e-01
-6.813513703873781691e-02 -1.088483285338924522e-01 4.828054378463141338e-01
-4.412848434230687983e-02 -1.068065537371815643e-01 4.784036240840182086e-01
-2.975804218244311461e-02 -1.211524970209295754e-01 5.373020820681453369e-01
-3.950895521271053507e-02 -1.201921286325557392e-01 5.264013621580251323e-01
-4.503608849115326579e-02 -1.193899180002805649e-01 5.231320134256018939e-01
-8.977399412202527462e-02 -8.395171089334176051e-02 4.570739166649138707e-01
-4.769841821031239187e-02 -1.185368925657825645e-01 5.118893704403836287e-01
-6.777102686520335151e-02 -6.764327969832614751e-02 4.488628589080758680e-01
-8.727206307343206293e-02 -1.117461287069192455e-01 4.821295907992544927e-01
-5.660912510944238196e-02 -1.171161947964044076e-01 5.078290384289710913e-01
-1.722896921281075883e-02 -1.177478749252182516e-01 4.863292530111042455e-01
-5.109463185794328732e-02 -8.043061204254563223e-02 4.548024331836065803e-01
-1.138204885212530520e-01 -1.078376807333662341e-01 4.812653850586140480e-01
-9.080796369217118691e-02 -8.727533272978238443e-02 4.593734200454424599e-01
-5.729133724860569626e-02 -9.977667250227416351e-02 4.691014249718548079e-01
-6.831997202234955935e-02 -1.010259144603443265e-01 4.704402698126530225e-01
-7.153994991089951405e-02 -1.172609717849140976e-01 5.038479184791443410e-01
-1.778679620886831556e-02 -1.249562489909511742e-01 5.117846383316549952e-01
-1.022486041334754875e-01 -1.204374301204479553e-01 4.902195139159913340e-01
-5.889302253697668160e-02 -1.083608691565820376e-01 5.376628771621843050e-01
-3.080427670684540362e-02 -9.254633597117331578e-02 4.597799159581286710e-01
-4.944072579802956391e-02 -7.061979036286081257e-02 4.503208787025033133e-01
-9.019191162876094570e-02 -1.116864044184721488e-01 4.807746714043781289e-01
-1.004749274092104627e-01 -1.200912859077614969e-01 4.920558654271917631e-01
-1.128328506822479094e-01 -1.153432320325123439e-01 5.020749983476380240e-01
-2.206515200267093052e-02 -1.194229389907172784e-01 5.489231443552906597e-01
-8.368870403442667250e-02 -1.138362987393276710e-01 5.261522562217073595e-01
-6.070970648201164804e-02 -6.747143461295478095e-02 4.493230328748385460e-01
-6.470660899547765743e-02 -1.067161813467743109e-01 4.784642769493511749e-01
-4.867794069386845168e-02 -1.155224229601137242e-01 4.972731732137685157e-01
-2.707411462853268752e-02 -1.176844007480051801e-01 5.492665170946428033e-01
-4.099256670105920486e-02 -1.191462251804895484e-01 5.100705733268631192e-01
-1.094134962039668285e-01 -9.963539908422706926e-02 4.718137245630720789e-01
-9.769919132474118306e-02 -1.144712702685505012e-01 5.179996317101784875e-01
-6.782214068454950340e-02 -1.178368033055417485e-01 5.187662913472738113e-01
-1.059308482194900036e-01 -1.180675735406533228e-01 4.881316612026005419e-01
-8.551681583490561289e-02 -1.164834247503136883e-01 4.977567258428287067e-01
-4.253410207279921529e-02 -1.155950646862218545e-01 5.411395090023946031e-01
-4.978838333580398734e-02 -7.609534844410492660e-02 4.528703784368254825e-01
-6.601574853249751740e-02 -9.642551538564629598e-02 4.655187098473911322e-01
-9.066685404843961849e-02 -1.169117676133726025e-01 5.134309308018217832e-01
-4.131440066098060471e-02 -1.199086598510699236e-01 5.200988441718483735e-01
-1.138034684789838019e-01 -1.034891103538376628e-01 4.769463436506005127e-01
-9.547883375062291011e-02 -1.165127769049147388e-01 4.861888964403274227e-01
-7.426361464079864194e-02 -9.996636033392435061e-02 4.693936721352122698e-01
-7.739022914685585175e-02 -6.255861305158087748e-02 4.473494040646185388e-01
-7.953058323203421320e-02 -8.884866393392996942e-02 4.593128664771512493e-01
-6.300345906952548036e-02 -9.985577228192653310e-02 4.692915866516487733e-01
-6.532598470175857153e-02 -1.100093973907011052e-01 5.353090912453632999e-01
-1.261504643211792953e-02 -1.265492996847224771e-01 5.222942802324624934e-01
-4.851333140419511469e-02 -1.190266858950665141e-01 5.226428917183354450e-01
-1.303893950236510724e-02 -1.245587019163010151e-01 5.031664803923945328e-01
-9.411615200583921259e-02 -1.176620105840444214e-01 4.908781230875555734e-01
-7.563574240639413249e-02 -1.182038290722467883e-01 5.086443341544029106e-01
-1.054796097903324126e-01 -1.164450224344457385e-01 5.076330565898052871e-01
-2.293824278036013520e-02 -1.163297507647287621e-01 4.859215959112410665e-01
-3.884049891272797067e-02 -1.073399574414682367e-01 4.782225086032793060e-01
-8.547453108259432664e-02 -1.008891169187353665e-01 4.702152386720667154e-01
-1.674391271814991769e-02 -1.162939052230223119e-01 4.829935133125560776e-01
-2.603686101752593351e-02 -1.175385025143925732e-01 4.912561105285035978e-01
-1.173004044864431744e-01 -1.096953524871081692e-01 4.882489968515348333e-01
-4.298652861379819584e-02 -8.671319918851959352e-02 4.581580469159525770e-01
-1.116000349000606795e-01 -9.832941194357279480e-02 4.723837547022062266e-01
-2.699655948931867916e-02 -1.079698227877664285e-01 5.537469233010084979e-01
-5.328122258428837771e-02 -1.148619181569873610e-01 4.963374460991868964e-01
-3.695420950958049761e-02 -1.083088046870216703e-01 5.463109918724935454e-01
-6.767404925295532336e-02 -1.079728682159172698e-01 4.808867771738373764e-01
-4.726487179175369036e-02 -1.189100605150301276e-01 5.146888760799879226e-01
-6.405544077812347359e-02 -1.163906030240482448e-01 5.283300687022030040e-01
-9.197634346410627285e-03 -1.239033053046508653e-01 4.987264035326905431e-01
-2.201279660527602836e-02 -1.225294982792990706e-01 5.041509605231587754e-01
-7.373014443133459050e-02 -1.155641304798183250e-01 4.975158198249114427e-01
-3.564000691554753547e-02 -1.204474367160342924e-01 5.142712733384587898e-01
-1.099763784415188836e-02 -1.269221165324727896e-01 5.215511649845080422e-01
-8.297054197237016537e-02 -7.817934389874491019e-02 4.519481293254930532e-01
-2.347686616928739214e-02 -1.228276236554119716e-01 5.360304956467362159e-01
-5.394074596825294485e-03 -1.278153911559443967e-01 5.145109963551562915e-01
-6.079878952673267722e-02 -1.165203326641869735e-01 5.052960038007943133e-01
-3.385106165481500951e-02 -1.209511868925957634e-01 5.155087423488763365e-01
-5.145879952886326519e-02 -7.625337628253711642e-02 4.529714592809742091e-01
-7.560840822318018462e-02 -1.168229309338837951e-01 5.237456764475598714e-01
-7.406499222762515100e-02 -1.040423513242833137e-01 4.745443757266635254e-01
-8.772524902905555477e-02 -9.406684552530615584e-02 4.639430165073492596e-01
-3.961532457091612724e-02 -1.201353006029258763e-01 5.197036861547199571e-01
-4.714136307836858109e-02 -1.081000917619227841e-01 4.812851333335597115e-01
-9.281299910459928082e-02 -7.770063024044601696e-02 4.569825925784450904e-01
-5.762441243629242565e-02 -6.324025924130897980e-02 4.478666659076522838e-01
-6.536028989824094367e-03 -1.217677575337656193e-01 5.432458537144018162e-01
-4.109747073409221463e-02 -1.105243812947593746e-01 4.840778449178157472e-01
-5.097331244328515837e-02 -1.052738474919260453e-01 4.772379975527694662e-01
-2.279636706103202806e-02 -1.136045299912360612e-01 4.807572170499566644e-01
-6.043133628748928454e-02 -1.051617438909267649e-01 4.765754813613881646e-01
-2.247647080882103285e-03 -1.280861350822067035e-01 5.175298901917533279e-01
-6.303215762744629469e-02 -1.130704666574656597e-01 4.922389343733090117e-01
-6.030911410491453239e-02 -1.174255388648635240e-01 5.104267404867022240e-01
-6.619354012325559533e-02 -8.663076313371972925e-02 4.575246815111558840e-01
-9.275469653609648424e-02 -8.220766929466571948e-02 4.573927969320193965e-01
-8.536055190513223978e-02 -1.173990438448161422e-01 5.136855833471212218e-01
-7.963928241038226163e-02 -1.178988235408076762e-01 5.065631245353211520e-01
-5.282059260238663317e-02 -8.136201816244828522e-02 4.552511902739102556e-01
-3.965619869412589232e-02 -9.440862056237597777e-02 4.643447693097070839e-01
-2.011582674543348215e-02 -1.245851656698778731e-01 5.276017726398047891e-01
-7.421749182988032767e-02 -1.181586957420315137e-01 5.131862841839407441e-01
-1.010682612561797922e-01 -1.050498362504548588e-01 4.725827343597092667e-01
-1.102717561714930822e-01 -1.178804616412582329e-01 4.955971052562346824e-01
-5.880751203369052882e-02 -9.653648957106497619e-02 4.659505220718639373e-01
-5.722441847471649440e-02 -1.148484296571901792e-01 4.975548525030743519e-01
-6.887461016694593208e-02 -8.682221168583473259e-02 4.574761259718238549e-01
-7.567420172360425634e-02 -1.061582174789819644e-01 4.772147837885318267e-01
-2.003766253716326301e-02 -9.960656274187178194e-02 5.623539661844083604e-01
-7.033945282248584008e-02 -9.968891179402156189e-02 4.689011308806856348e-01
-7.097171704048498009e-02 -9.851804861362656318e-02 4.677234576201216854e-01
-2.874271360533367167e-02 -1.216200807741208700e-01 5.100440288078074147e-01
-7.203846413334925869e-02 -6.392966390816998135e-02 4.474022815460244051e-01
-4.718907933116801845e-02 -1.111146024097550838e-01 4.860968446618292860e-01
-6.178889956168696213e-02 -1.180095972412962546e-01 5.164931902594787072e-01
-6.197054864142215180e-02 -6.187054634475215587e-02 4.475935969365467670e-01
-1.593411451937634671e-02 -1.252404857326698262e-01 5.310629302153091480e-01
-8.149582415767914201e-02 -1.066604524901384327e-01 4.769194686327518640e-01
-5.464868146049268322e-02 -6.642240354933902358e-02 4.489236703412173290e-01
-8.376023644562019532e-02 -6.562478043917535642e-02 4.492238517398862707e-01
-1.130921036629778803e-01 -1.086899773775374389e-01 4.816285303363611603e-01
-6.047224040039487353e-02 -1.142769144290259609e-01 4.959428597735110467e-01
-9.194200895870702217e-02 -1.104764263779697137e-01 4.785586081881741949e-01
-9.881058156746205801e-02 -1.187670762192671314e-01 4.884170996983906443e-01
-8.573883877085031191e-02 -9.519060555781347355e-02 4.649974386600025378e-01
-8.563306768345677056e-02 -1.175632873196678363e-01 5.121278419071598753e-01
-4.835242207814573895e-02 -1.050148501526740330e-01 4.764374386793696625e-01
-4.335300415933344975e-02 -1.050926532113673623e-01 4.758336754820552961e-01
-1.022101744325583927e-01 -1.162913520213636337e-01 4.828068158851104852e-01
-5.672555973340313168e-02 -1.093310129108184675e-01 4.840569858227997124e-01
-7.602044008163719169e-02 -6.312546406418824418e-02 4.472431635637780234e-01
-3.235513220458891004e-02 -1.161360744850358090e-01 5.466461966805222783e-01
-5.782704466019303324e-02 -1.146602630373018544e-01 4.970717044445412403e-01
-7.454966430821666212e-02 -8.108359905218691377e-02 4.531611846329372528e-01
-2.373644824635322975e-02 -1.070991418592307787e-01 5.579379856024890838e-01
-7.020928810030897457e-03 -1.193519872248347269e-01 5.511509715077079763e-01
-7.909206080264766237e-02 -1.125455201334216310e-01 4.871857002754962918e-01
-2.090098216922030554e-03 -1.281682759885541811e-01 5.217702731568278907e-01
-8.329683882293729968e-02 -1.101448385498810939e-01 4.823480381041673204e-01
-2.681728913047687693e-02 -1.224704177507597580e-01 5.143128631162389164e-01
-5.512438572460287567e-02 -7.135607345715044847e-02 4.509040939971397099e-01
-7.460549770152193061e-02 -7.415017137314657003e-02 4.503442955223367905e-01
-7.544398828964050951e-02 -8.557766604254539444e-02 4.563507977794460935e-01
-6.279497477199312561e-02 -1.136416115620875050e-01 4.938578376967697747e-01
-1.034641122548084630e-01 -1.155556628394178026e-01 4.819435675328255231e-01
-1.054803735153478916e-01 -1.114937512747570941e-01 5.165918246383995882e-01
-7.138996702156130691e-02 -8.806548035154929122e-02 4.582903510784475665e-01
-3.253120062541971225e-02 -1.202156323279523764e-01 5.385266857093592430e-01
-7.320460217272715953e-02 -7.671221247028646439e-02 4.514626791151498675e-01
-4.717541662192185209e-02 -1.164167444251984346e-01 4.996893055649172521e-01
-6.269594442781400989e-02 -8.037089702990085627e-02 4.543433571340610988e-01
-4.313541978137900440e-02 -1.156278103669771268e-01 4.961227420689447998e-01
-5.134464401152944585e-02 -1.186581407814565614e-01 5.251008408810968753e-01
-2.347254963751718715e-02 -1.222560906241523665e-01 5.390713341354380628e-01
-7.594129799362155098e-02 -9.007983843572531235e-02 4.599550773890040412e-01
-2.323259142800511781e-02 -1.037477890345601117e-01 5.584579048343033536e-01
-1.183226918934583705e-01 -1.106256381187130933e-01 5.050665845390436282e-01
-1.024140603487774109e-01 -1.158449190430803355e-01 5.121273497518040729e-01
-1.899963580446377420e-02 -1.233911816778897330e-01 5.380445431401937872e-01
-1.563131976089828651e-02 -1.153223439027651204e-01 5.588280991973213485e-01
-6.554182781517907223e-03 -1.278490102247520355e-01 5.234296526874304689e-01
-8.422341762727011960e-02 -1.162765110638397659e-01 4.989326614351040634e-01
-5.229227157856840974e-02 -1.095723065621014569e-01 5.400917083617765568e-01
-1.004051453627280294e-01 -1.097627938174498691e-01 4.754531233884097263e-01
-6.676208935397440203e-02 -8.530891526061268326e-02 4.566038150280346541e-01
-4.342473003749049154e-02 -1.116930932989832065e-01 4.868361855115517223e-01
-8.486125928065298141e-02 -1.163075409908990998e-01 4.982101361392947680e-01
-2.499150000625170384e-02 -1.232461631030026261e-01 5.265354964390343007e-01
-7.078774600341915420e-03 -1.267802922082029160e-01 5.089692027721416379e-01
-1.641858617244172994e-02 -1.254010055905458720e-01 5.284065754919314850e-01
-4.905578213266880566e-02 -1.001845712285669154e-01 4.703893703158464890e-01
-6.063640150916441152e-02 -1.179233808203763861e-01 5.164971804459768112e-01
-1.963467940107258003e-02 -1.198363568267072493e-01 4.923636649600268700e-01
-1.194519046526274220e-01 -1.026100129475320533e-01 5.027327422282700242e-01
-4.346026473942819074e-02 -1.194790933936322186e-01 5.167151317108239494e-01
-4.865272833305479827e-02 -1.189213812473753767e-01 5.245509025886927468e-01
-1.053873630383725113e-01 -1.115104375352797828e-01 4.771367194323822281e-01
-5.593158487829241743e-02 -1.179076191635396453e-01 5.267640762249481412e-01
-8.199054704875259614e-02 -1.151002689249411987e-01 4.923427901250188032e-01
-5.314392162136685749e-02 -6.564566205801104781e-02 4.486061444354054184e-01
-5.930922863325918670e-02 -1.173276114206370097e-01 5.102022915881089249e-01
-1.007373216951918810e-01 -8.170272162105814140e-02 4.654390333052159101e-01
-8.817930025254272497e-02 -1.012361344620121006e-01 4.700399533173163502e-01
-3.999586731663023337e-02 -8.097126277514915538e-02 4.540161214113875299e-01
-9.429881883121059294e-02 -1.148545993111589336e-01 5.201542585560117171e-01
-5.900040954346659483e-02 -1.104302705666401208e-01 5.371354056018222689e-01
-1.152839071253708852e-01 -1.116473764322771511e-01 4.880564731206255003e-01
-1.164017186305599111e-01 -1.095999928978246829e-01 4.867337973701707510e-01
-3.193056360300951246e-02 -1.182771665307458947e-01 5.447842002364485792e-01
-6.224852515133501296e-02 -6.493750308903151192e-02 4.483635229536028222e-01
-7.147526466275683221e-02 -7.200517955088009403e-02 4.497838361421698794e-01
-7.642658832478663178e-02 -8.628892247661668069e-02 4.568280703908793039e-01
-6.639182070761853738e-02 -7.647683073483491079e-02 4.522064780975985077e-01
-4.108899674450944284e-02 -1.190573432064633008e-01 5.094716969847850052e-01
-3.596735579378171344e-02 -1.141783809361339719e-01 4.905423761743902267e-01
-4.096252734370425808e-02 -1.182465336660903504e-01 5.045170225314681289e-01
-3.974108946739135506e-02 -1.085049257032087711e-01 5.456600666546720380e-01
-6.054045859199728985e-02 -1.150575969435820162e-01 4.989491584510413191e-01
-2.567128439640804782e-02 -1.178887259934833232e-01 4.919640112587301273e-01
-2.091027186600830784e-02 -1.244297988082251616e-01 5.243929892734575660e-01
-1.037618628654817313e-02 -1.247931889252827803e-01 5.352706103124560411e-01
-8.152196987168711106e-02 -7.143284015098090578e-02 4.494457594618206930e-01
-6.322149439523298831e-02 -1.093833430599117224e-01 4.843309078922961031e-01
-6.882363103155374195e-02 -9.663429921961777525e-02 4.657399889945788019e-01
-4.814240707756914373e-02 -7.767438083649466640e-02 4.535629822947666590e-01
-4.303733445027221188e-02 -9.282715809113700756e-02 4.632676853583379550e-01
-2.358788074674481733e-02 -1.236169314969681327e-01 5.190922282878865923e-01
-1.097027071220866568e-01 -1.070143458499788758e-01 5.159154399432595017e-01
-6.988333377362590526e-02 -9.715099565711479701e-02 4.662855121934663116e-01
-3.343308721425231750e-02 -1.066642009848436934e-01 5.479390467758218364e-01
-7.839877489707730573e-02 -1.162251595136086640e-01 4.988952748044397367e-01
-4.630271400819267053e-02 -1.091192105459930922e-01 4.828195913694018349e-01
-1.079160055291329551e-01 -1.074853105430938482e-01 5.169725818480402912e-01
-7.619583431436184606e-02 -1.175588258396839253e-01 5.192819881715063923e-01
-2.173029625109936663e-02 -1.236095678149035648e-01 5.093631505286931871e-01
-6.116576370948705044e-02 -5.820620980017503221e-02 4.466661609363727359e-01
-8.845820341593516045e-02 -1.075817490562010204e-01 4.760725531237205432e-01
-6.239828346871834769e-02 -1.107790585545656570e-01 4.874613897268706975e-01
-5.527274505600920929e-02 -1.164893335987248063e-01 5.038560065659670739e-01
-9.478318622229306434e-02 -8.018772407756409593e-02 4.592637935537550731e-01
-6.125810532316430801e-02 -1.176562372987415422e-01 5.228814162578627744e-01
-1.044840100401382699e-01 -1.204723333785313599e-01 4.906898009896239476e-01
-8.174564247313087506e-02 -7.713600910599319183e-02 4.513799949467956485e-01
-1.095823664586784429e-01 -1.057448059675492602e-01 4.764324676327770791e-01
-5.361261628284627601e-02 -7.214746164733475131e-02 4.512022430121839789e-01
-4.299397773958923280e-02 -1.104306502356161568e-01 5.432398509275017107e-01
-1.426373560225060143e-02 -1.078214812689150676e-01 5.653340944366103127e-01
-7.374917794073244937e-02 -9.770786253212754291e-02 4.671385817531603091e-01
-3.141292165159739747e-02 -1.216931022834279313e-01 5.282946883983316022e-01
-1.209250237614987178e-01 -1.033421917876569951e-01 4.967900847629160288e-01
-8.513021090105890587e-02 -1.139735136311721547e-01 4.874947141873239853e-01
-1.475721443728972120e-02 -1.256006080733617913e-01 5.283157411359611366e-01
-3.987833453894355090e-02 -1.186535036665721521e-01 5.393351437579497754e-01
-6.379281507306962251e-02 -1.070050981290496667e-01 4.790552701408927749e-01
-9.317867801812909634e-02 -1.018055838670458846e-01 4.701689157252321727e-01
-8.208494141941759248e-02 -1.171327515411891979e-01 5.021651185575519705e-01
-9.641777895140270227e-02 -7.844510364243091616e-02 4.609317982435481853e-01
-1.150250626426918207e-02 -1.261390904435990834e-01 5.097951834837761709e-01
-6.872001465102380025e-02 -7.875437210192692827e-02 4.528235717028470941e-01
-1.189972036696728408e-01 -1.093070112106807046e-01 5.016081150385106602e-01
-3.671517018908933977e-02 -1.014207309713873600e-01 4.701196979586129143e-01
-9.865664438256761815e-02 -1.153708663271941354e-01 4.809655917128259350e-01
-4.552902181538437398e-02 -9.926064566606110362e-02 4.691741902563960620e-01
-3.946679692380162391e-02 -1.092011318787133034e-01 4.812092232286914184e-01
-4.246736850763511983e-02 -8.889332043928271920e-02 4.599418714066395575e-01
-6.311320991665378410e-02 -1.179909246454209498e-01 5.201992680067302199e-01
-7.083007106502225980e-02 -1.008848982274683087e-01 4.701734357255462626e-01
-2.635315183657397503e-02 -1.001603080634884541e-01 4.638975735814497847e-01
-1.073583275896908967e-01 -1.113158617071486611e-01 5.159102694932667932e-01
-7.182541270603499950e-02 -8.432835852082642969e-02 4.556055871941852575e-01
-6.631350091137717950e-02 -1.078787588112602447e-01 4.808691124788500582e-01
-2.477637194414530203e-02 -1.103252600095669805e-01 5.570152192457353824e-01
-1.123745708549485182e-02 -1.252382377755526521e-01 5.335838896239381013e-01
-6.152730021589786213e-02 -1.160087279889590040e-01 5.031803436754525016e-01
-2.093637611169523252e-02 -1.233762404472866642e-01 5.070549231560258496e-01
-7.089331638125181967e-02 -8.859304647634209939e-02 4.586277673909336938e-01
-3.816384739437309048e-02 -1.113158288903985382e-01 5.455342458853082999e-01
-1.142448751099628054e-02 -1.190097268035246736e-01 5.533194207671774389e-01
-1.935957864752919574e-02 -1.174094949636893259e-01 4.864332878188220577e-01
-1.308382386235110162e-02 -1.257759531285142507e-01 5.282535243230105371e-01
-1.463829706348313692e-02 -1.260212558522078308e-01 5.210089228676957340e-01
-3.627497260239161830e-02 -9.521400256506254434e-02 4.641799961059638324e-01
-4.327142150264091935e-02 -1.192076399347080928e-01 5.341838558156043471e-01
-2.744308794341582952e-02 -1.210612254209927630e-01 5.401805036439567553e-01
-2.676290258092124327e-02 -1.226773591312786127e-01 5.169288752714069624e-01
-8.941065712589373049e-02 -1.076093483088933350e-01 4.756300442873444556e-01
-9.401786661867470030e-02 -1.107093386288532932e-01 4.785371372157143921e-01
-9.325036469316107246e-02 -1.152667310188208449e-01 5.195986539502125412e-01
-7.252700657271918261e-02 -1.038347808536665140e-01 4.741430584014785232e-01
-1.090564852919065075e-01 -1.037610145051915539e-01 4.744424459874053701e-01
-1.467466888309299639e-02 -9.925611753509444579e-02 5.667259179906566358e-01
-1.023813079746395543e-01 -1.189273839529429444e-01 4.875141932306990555e-01
-2.286328614461639874e-02 -1.235780225789138015e-01 5.129830934856181024e-01
-1.709796573634581734e-02 -1.213163394901593251e-01 5.475112926974777805e-01
-8.669201228210705878e-02 -1.078672404162064197e-01 5.280268029627543935e-01
-8.782436101708426812e-02 -1.168712170808769435e-01 5.153011793362629600e-01
-9.713384509238975895e-02 -1.172246292898230929e-01 4.861027306704979734e-01
-1.104386108595285937e-01 -1.141221813232109888e-01 4.858924408270245410e-01
-8.702555667509125070e-02 -7.283557735230251906e-02 4.512278672080008990e-01
-4.423418078582450758e-02 -1.182889588049023250e-01 5.072398720776593040e-01
-7.136948902600656619e-02 -1.141246847257030433e-01 5.302519567697718816e-01
-1.156925990239886931e-02 -1.267307915444738919e-01 5.172729012334229548e-01
-7.222614678873309768e-02 -1.089175291289674330e-01 4.824794908879432298e-01
-4.344087600970437252e-02 -8.352316717815644331e-02 4.560897964959743645e-01
-4.855369268088450402e-02 -5.826140015751943985e-02 4.460210205689566498e-01
-2.757418486087078249e-02 -1.184705359944679681e-01 4.953305660282478207e-01
-4.544124195876427658e-02 -1.135928279459518520e-01 4.910661116240970792e-01
-1.016571359067124231e-01 -1.203429504756451940e-01 4.899737887021755056e-01
-1.865839287618954387e-02 -1.202767173766363107e-01 4.928476354496498235e-01
-3.716928984320424373e-02 -1.178685163096049454e-01 5.420425968594269062e-01
-6.021100914375690505e-02 -1.096070146261290262e-01 4.846295844508052841e-01
-1.053452605826375177e-01 -1.205532851095822838e-01 4.935378770474829757e-01
-7.737496629766668632e-02 -1.176218801606727649e-01 5.183091950583283980e-01
-7.022029271506902842e-03 -1.276549060151998816e-01 5.166676283281527171e-01
-1.011548724323828308e-01 -1.090676035432981694e-01 5.192125097497852781e-01
-5.356806098268325489e-02 -1.046146333941665452e-01 4.763146126283420156e-01
-5.052030473472597649e-02 -1.185028783088163257e-01 5.136281871308765457e-01
-5.137500512617131088e-02 -9.199331371811757252e-02 4.624619444388859968e-01
-7.824065018762023371e-02 -5.986273287415369571e-02 4.481401845275318485e-01
-9.494846409607485271e-02 -1.186217467161884143e-01 5.004267354303111315e-01
-5.234096017670625267e-02 -1.053359764871586307e-01 4.773215161514350879e-01
-1.084446925198956219e-01 -1.188915920169430346e-01 4.923632453260204378e-01
-4.871606321915567667e-03 -1.203725251410960179e-01 5.444323910431116964e-01
-3.533311204060238242e-02 -9.782416934264843988e-02 4.661407510326961434e-01
-8.471349899337882183e-02 -1.175253586229974556e-01 5.134162358681404470e-01
-9.928182163640150715e-02 -1.111575461279886573e-01 5.200675105161874923e-01
-9.784035564951230890e-02 -1.097653654600115603e-01 5.223575540674779694e-01
-1.018921033816825861e-01 -8.725492150657848667e-02 4.644302431006185894e-01
-1.106445493610172387e-01 -1.008911474970708294e-01 4.730038322954663865e-01
-2.572107401273868860e-02 -1.182569985443009120e-01 4.930873067280835964e-01
-6.716638441331221343e-02 -1.171006838700668212e-01 5.059397914102770066e-01
-5.403885558687109708e-02 -1.162434812728870559e-01 5.024051547480954394e-01
-2.139923023326819121e-02 -1.224738501025531834e-01 5.031308738357237464e-01
-5.873841048767369788e-02 -1.083021836443111979e-01 4.818014929875961139e-01
-8.591044211988085877e-02 -1.152097842994919824e-01 4.897863246952013361e-01
-1.443180077420396987e-02 -1.193080470178830843e-01 5.522575259710014173e-01
-6.211771531527204154e-02 -1.154582496545323300e-01 5.307714026324054091e-01
-4.150682449264327112e-02 -8.192285008120560319e-02 4.549521457988546236e-01
-4.752989420903741546e-03 -1.260101591464952431e-01 5.334866486140604769e-01
-5.932258488469310809e-02 -5.947821070914174890e-02 4.469539870378069213e-01
-4.332908565016418273e-02 -1.075036380996886448e-01 5.443719537529575492e-01
-6.584630909557000200e-02 -1.076538134465475360e-01 5.359342530192269249e-01
-4.903813350462757695e-03 -1.206024049017107996e-01 5.433536105679070971e-01
-7.612653446274131319e-02 -8.301956457068533635e-02 4.544165794739782327e-01
-5.984280923868760815e-02 -6.144038383587491214e-02 4.474520534367315561e-01
-1.971861283033864848e-02 -1.128877192120687351e-01 5.593247249317725434e-01
-7.339533298892682300e-02 -1.131387674169512525e-01 5.314032558750854118e-01
-2.405622525657091088e-02 -1.112263596213702993e-01 4.777883059598640458e-01
-2.319625602583427412e-02 -1.107961736096267497e-01 4.765898666662791161e-01
-6.074924553540611560e-02 -8.646157153612300805e-02 4.577969928942826061e-01
-6.054975038056093634e-02 -1.080386933835173202e-01 4.810224013503955898e-01
-2.737350188438400847e-02 -1.221661605182621652e-01 5.121867006256468624e-01
-3.500504009320858090e-02 -1.078290165560008562e-01 5.469901033895739895e-01
-7.354493937025048667e-02 -1.182300407232834971e-01 5.105291400394158519e-01
-8.652268520628712822e-02 -1.165931957157353843e-01 4.925150599171553290e-01
-9.219532243997995147e-02 -9.852540550353751370e-02 4.672184181807879089e-01
-1.064995435724763601e-01 -1.183324140459267870e-01 5.000227318248809949e-01
-1.113629958547270871e-01 -9.900588836229641532e-02 4.724075364467484883e-01
-1.377109829826773935e-02 -1.223813031779818067e-01 5.441741031205741264e-01
-1.046905849065401933e-01 -1.153310848898867202e-01 4.830181828132473765e-01
-7.009416117405956048e-02 -8.754479035695307554e-02 4.579095028074851026e-01
-7.435969425030174162e-02 -1.099327222072706139e-01 4.839359918736497734e-01
-1.189855388020366195e-01 -1.062510551790571550e-01 5.049579519350114731e-01
-6.588764113434822378e-02 -1.099991657270021767e-01 5.351525880854112183e-01
-7.092855722816369946e-02 -1.161523336359784886e-01 5.266386262242349625e-01
-6.316648735198025777e-02 -1.181632121530307999e-01 5.172536329429886504e-01
-3.908889725927157388e-02 -1.197000499458499151e-01 5.125287192192070629e-01
-3.911116201427593253e-02 -1.169403822384409986e-01 4.985211051794867787e-01
-9.843398378880943711e-02 -8.495510567049591177e-02 4.610223111420803099e-01
-6.052829611370177249e-02 -1.103245896792669767e-01 4.863289560569065695e-01
-4.909218469351926684e-02 -1.100427529224189543e-01 5.412357122434189316e-01
-5.827515038297103461e-02 -1.138357907321309731e-01 4.946522657634965237e-01
-3.685333555445053505e-02 -1.181996839272772687e-01 5.419833684171780908e-01
-9.276164336413758593e-02 -1.158918501992513006e-01 5.169901677549911811e-01
-2.522833616113005079e-02 -1.184349843939716262e-01 4.931792055622394311e-01
-1.488543309412718174e-02 -1.248763520039099240e-01 5.063988945855742996e-01
-7.771616296622838038e-02 -1.105491256850702486e-01 4.841512921175672446e-01
-3.883737633366485947e-02 -8.074930783320158345e-02 4.534875390972236686e-01
-1.128189435524024065e-01 -1.117579296584360060e-01 5.111723408715581618e-01
-4.787832449724155164e-03 -1.262667272801606122e-01 5.328651260326473516e-01
-5.374900874949539026e-02 -1.183089617454460146e-01 5.158401588284132755e-01
-1.192363644807929168e-01 -1.004438446184266198e-01 4.830561804170082074e-01
-1.555400641339925449e-02 -1.166396735726987627e-01 5.567886097129738365e-01
-7.547742952909851366e-02 -1.141491792979589526e-01 4.938114471497178637e-01
-5.592871533219963276e-02 -9.992666936267646793e-02 4.696284764155852498e-01
-1.059548376847500029e-01 -1.051425801803241716e-01 4.740936460782140260e-01
-1.073254955482041417e-01 -1.168913617910478792e-01 5.048237512498089385e-01
-6.265327663912206857e-02 -1.176918340887773695e-01 5.108601597015669515e-01
-5.453028319437722149e-02 -9.568913866149349190e-02 4.655364163797377497e-01
-9.770958344566926801e-03 -1.181362045473078604e-01 5.545994595628970236e-01
-1.102575326855305404e-02 -1.224001727485613811e-01 5.437124136419729803e-01
-2.765661923323297147e-02 -1.049946012840415749e-01 5.531543022135593235e-01
-3.409779596250481215e-02 -1.049526251189517728e-01 4.735656340402855102e-01
-7.507607086677696440e-02 -6.111913466513502202e-02 4.470982132131507414e-01
-6.421909244346482581e-02 -9.984625654608998702e-02 4.692817559581137221e-01
-2.875282216680946634e-02 -1.112028827624581134e-01 5.517144286713866475e-01
-6.589489517511194772e-02 -1.178689190234965267e-01 5.203700993744960757e-01
-5.957359449842167254e-02 -1.109898111813992644e-01 5.367404454385614754e-01
-6.226459271362195375e-02 -1.134588080583371072e-01 4.933321345151938653e-01
-1.354552369147268842e-02 -1.219719201790728930e-01 5.458795092045783948e-01
-6.711616981228672729e-02 -1.143584476905025876e-01 4.959603995168809232e-01
-7.078710101229349766e-03 -1.277398128566897273e-01 5.234025967970913351e-01
-3.237279105925557066e-02 -1.143548426421111125e-01 4.893459095684010718e-01
-3.042836376665739029e-02 -1.219157485179450245e-01 5.257255040602578644e-01
-8.992829709828492613e-02 -1.186420629174688712e-01 5.011903392925780576e-01
-2.145154030115875229e-02 -1.011592862056007874e-01 5.602261421004535169e-01
-1.430109577475992440e-02 -1.230090104631760412e-01 5.411898520767115528e-01
-1.604753888587018285e-02 -1.136609963074063506e-01 5.604469049317628571e-01
-1.194948070831867160e-01 -1.064020647934480340e-01 4.881902942755964592e-01
-9.789988348357966941e-02 -1.191996570833232932e-01 4.980486997599197219e-01
-1.893513834262169210e-02 -1.142266661141943945e-01 4.795825199130621663e-01
-9.197776915906041850e-02 -1.062585233860209727e-01 4.737258166272890203e-01
-5.913274839934594407e-02 -1.171350155031338908e-01 5.089064501449597211e-01
-5.847916524518043807e-02 -1.018759697350642424e-01 4.722014782981109882e-01
-7.740796512200236179e-02 -8.787697524292741036e-02 4.582636623918349694e-01
-8.768495332505230055e-02 -1.008504832877748225e-01 4.697844768132934390e-01
-7.832498399471198025e-02 -1.123828635374275742e-01 4.871894518723120515e-01
-8.799837780242042440e-02 -1.162341538083148107e-01 5.198688294250882747e-01
-7.710309138708558441e-02 -1.177515010617447150e-01 5.173428563609799857e-01
-1.211641898293078640e-01 -1.000619947376156643e-01 4.881338034748859411e-01
-5.012113376191001252e-02 -1.058583723895255985e-01 5.422291432742822881e-01
-7.284708981161693020e-02 -8.986232358213754046e-02 4.595639114743030884e-01
-7.874833186004373542e-02 -1.057791836563885257e-01 4.760908169966941994e-01
-1.032746275238865946e-01 -1.205504412864484287e-01 4.910792490682457379e-01
-7.946404011134231005e-02 -1.076212253597697704e-01 4.787216720857570551e-01
-9.007451358762989801e-02 -7.213489383957252810e-02 4.540322087121181349e-01
-6.817288676389789137e-02 -1.176065775999745183e-01 5.090308879367944073e-01
-5.765412757278155775e-02 -7.777669939938311461e-02 4.536027611895843137e-01
-5.391069864578679205e-02 -9.927456374466085698e-02 4.691186276510723729e-01
-1.018524538863849332e-01 -1.181134060147439185e-01 5.022693022844559874e-01
-2.027425915768377163e-02 -1.173678763707466099e-01 5.540700555473321298e-01
-1.218814405433307352e-01 -1.019163733598190819e-01 4.918095293539782586e-01
-8.482983407166537482e-02 -9.530071521834396209e-02 4.651116249278974268e-01
-2.078404216405167412e-02 -1.164241324626832663e-01 4.849636972596215734e-01
-2.914041761272639919e-02 -1.219271607206483393e-01 5.325277530871480591e-01
-7.988908971984878815e-02 -1.180381528075975794e-01 5.089109961373803337e-01
-9.471806318582283446e-02 -1.060565979279671639e-01 4.736836087143723173e-01
-8.195899017564446665e-02 -1.171925979163271625e-01 5.024801929190334526e-01
-7.054945463723827359e-02 -8.664253579684753903e-02 4.573218924702308064e-01
-3.502887834213251617e-02 -1.209839280363372710e-01 5.252960948315530398e-01
-7.879211728699925255e-02 -1.167792417009889533e-01 5.003916431212441784e-01
-5.275846359573767297e-02 -1.181586407812820483e-01 5.278153152694511352e-01
-9.265661444837022809e-02 -1.105060969399777882e-01 4.785142801723016315e-01
-6.590894792092556742e-02 -5.975710505805557904e-02 4.469520347223789325e-01
-2.956858296348518697e-02 -1.208245978187196534e-01 5.390925109363455814e-01
-5.384349987059917388e-03 -1.187752550538091756e-01 5.515631955350579485e-01
-1.038641353165130066e-01 -8.443177080114090682e-02 4.685160986539773642e-01
-7.885727685315162272e-02 -1.040913595359749949e-01 4.741675635349119622e-01
-1.086710853662293391e-01 -1.181151572552202045e-01 4.914957379157781081e-01
-1.636222258510388466e-02 -1.002726820939029151e-01 5.658654959612020585e-01
-4.302616058432098128e-02 -1.182645972263753342e-01 5.061951269271852683e-01
-1.202168326024842526e-01 -1.052683088956677671e-01 4.967322836188116097e-01
-8.750916520451200442e-02 -1.038249100195817870e-01 4.723123412602194815e-01
-1.058666379895255999e-01 -1.189773871383386222e-01 4.973777723313728694e-01
-7.261904269351746218e-03 -1.271802165319460554e-01 5.283542539233213597e-01
-5.986415088134643125e-02 -1.174227215067788210e-01 5.252416347899803162e-01
-8.666164889156094397e-02 -7.301566213107500702e-02 4.510963476974800823e-01
-9.531957652223212174e-02 -9.327605196103709584e-02 4.637779623752903424e-01
-9.266773581664988768e-02 -7.972365566113803759e-02 4.567171361248135719e-01
-1.060837416462674099e-01 -1.182772749474660795e-01 4.886170038440930119e-01
-8.548309895587712093e-03 -1.273966247467779034e-01 5.253016504380240148e-01
-1.648889341670676731e-02 -1.152057067497537640e-01 5.587627770596896859e-01
-9.374675627054232518e-02 -1.155412128008759531e-01 5.179194284538867210e-01
-8.498912360165977731e-02 -1.076267280954121830e-01 4.775556842626016429e-01
-7.005024938526266398e-02 -1.167451357375729748e-01 5.252980646330157599e-01
-2.370765121596199454e-02 -1.168048940889959558e-01 4.874913608982749391e-01
-1.700647795792002703e-02 -1.175386011823195964e-01 5.548490315406048312e-01
-1.133514859078702530e-01 -1.068556124295045595e-01 5.128596613427954809e-01
-4.049137911940092066e-02 -1.181088525049737992e-01 5.035293584519986432e-01
