-3.820836312334500995e-02 -1.097482568124463764e-01 4.838585956151444378e-01
-8.718625017094043528e-02 -1.162533234084184991e-01 5.193716701191279927e-01
-6.917379128140797862e-02 -1.125501343376755919e-01 4.945917043619691977e-01
-5.027561731518016136e-02 -1.134206480893828334e-01 4.943178326813306156e-01
-3.585185121171468453e-02 -1.173445306110227349e-01 5.002279433412165632e-01
-4.984018760637757423e-02 -1.154319862710241479e-01 5.002337018280220704e-01
-8.880834478607322821e-03 -1.043109631527932429e-01 5.680535551902682334e-01
-4.717712756411364394e-02 -1.180379277657637033e-01 5.123192196453294489e-01
-6.498452733216240895e-02 -1.169781511560097770e-01 5.114548905694513703e-01
-6.193506296225398389e-02 -1.135034222127792036e-01 5.354487503600664500e-01
-9.375465815011230220e-02 -9.048861942584995877e-02 4.654194101674439810e-01
-7.849111805765025818e-02 -1.166890214179329838e-01 5.046751685577890445e-01
-4.595582185113061824e-02 -1.131775709157937793e-01 5.423231425005023976e-01
-8.909230485557069479e-02 -1.175022473492536579e-01 5.103262077491972359e-01
-5.482840182897737863e-02 -1.151649199663567907e-01 5.015466308586103983e-01
-1.611762108828315374e-02 -1.198892922611355383e-01 4.920902004174343980e-01
-8.217344638244575283e-02 -8.078442661263129931e-02 4.559626198910575745e-01
-6.062139136521065008e-02 -7.229962101143913578e-02 4.531714810433524199e-01
-1.192444220468396633e-02 -9.690445789015933453e-02 5.685364133890296046e-01
-3.194528447865047083e-02 -1.205023005821665022e-01 5.116158358213441781e-01
-6.207450958127953833e-02 -8.956762245179135384e-02 4.621149214637807479e-01
-3.561935657355055906e-02 -1.155979832675213537e-01 5.454726491155237333e-01
-7.990854807653575975e-02 -9.889337608307137428e-02 4.717922694019419105e-01
-1.042247946625305538e-01 -1.148874922669713416e-01 5.155247206691615514e-01
-1.913679599086684502e-02 -1.135419444734878797e-01 4.798979682972338567e-01
-8.240875223042630482e-02 -8.207489394360323320e-02 4.568361917841687880e-01
-4.841096019291283442e-02 -1.024394788284689883e-01 4.752037275574380604e-01
-3.380133359678207106e-02 -1.060290836930998515e-01 5.486970416331019562e-01
-2.462410364505693630e-02 -1.209125465233715502e-01 5.029799919623243465e-01
-5.080617853713500359e-02 -1.182894001527133032e-01 5.270561497973802467e-01
-3.873570192679537394e-02 -8.849334806627738581e-02 4.606542052205324644e-01
-1.611294748798415208e-02 -1.251378341142742046e-01 5.153552092707510690e-01
-4.233161214417688334e-02 -1.182580425074432895e-01 5.091621862481350291e-01
-7.830146388886195796e-02 -9.937805085113443626e-02 4.723087181515847610e-01
-7.894674436480639268e-02 -6.329256251783746401e-02 4.498701588585657940e-01
-2.094330929143588954e-02 -1.079549777813701983e-01 4.724080190755013953e-01
-2.043005425920329382e-02 -1.234066554813993688e-01 5.093770657818389447e-01
-6.748804555369530833e-02 -1.077653465253117088e-01 5.384021174734908710e-01
-5.069184678945847650e-02 -1.067383604754208182e-01 4.818659197887206758e-01
-9.728015613898349789e-02 -1.175167729432558122e-01 5.072460136087991733e-01
-1.041159032459231110e-01 -9.601228127814012692e-02 4.715124889602544944e-01
-4.738830671446665754e-02 -1.066077483271213044e-01 4.809523133349917212e-01
-6.960131188582172057e-02 -1.173654757410688143e-01 5.114555978567313366e-01
-5.153591265456905490e-02 -1.134356765934026595e-01 5.400707974687212198e-01
-2.175309685138316837e-02 -1.236325183118623799e-01 5.308697376955451297e-01
-1.095266326699897985e-01 -1.159922745016127993e-01 4.941405679979119503e-01
-8.118047670530251225e-02 -1.160740001344851141e-01 5.029645622346795575e-01
-1.112515246661452580e-02 -1.229123957440426268e-01 5.415103732242677603e-01
-3.825085401092082754e-02 -9.060152915441982424e-02 4.621234714248075304e-01
-7.745496028779699782e-02 -1.173332861622480849e-01 5.089772160354949504e-01
-2.034784546990798040e-02 -1.071007033409278886e-01 5.609594607377026421e-01
-5.706676424407287895e-02 -1.177108377168689102e-01 5.216680437445267993e-01
-1.102079681344088208e-01 -1.075366249074924119e-01 5.198823395526086522e-01
-7.151184969294441252e-02 -6.658479783626476689e-02 4.502916015539858430e-01
-1.160881418650207102e-02 -1.264048858241227369e-01 5.202006076918836985e-01
-7.708480987917402938e-02 -9.906694905356862313e-02 4.718987140245886058e-01
-8.043686484663965797e-02 -1.175776804979291740e-01 5.107862381350984915e-01
-5.642345244237852164e-02 -1.060153889071484001e-01 5.409850093494091849e-01
-1.047898637462233717e-01 -1.087496917413977165e-01 4.809723418275281270e-01
-7.913430383384742473e-02 -1.088171340963416944e-01 5.339097191393901154e-01
-9.003847284324345557e-02 -1.008511595387596299e-01 4.733831623595419202e-01
-8.696663410585939169e-02 -6.758301305627269218e-02 4.539489450279802774e-01
-7.144511269505836315e-02 -1.173148165760501682e-01 5.216988697233473360e-01
-3.921118311575874649e-02 -8.523566688754637133e-02 4.581664744051512361e-01
-1.768838004794202542e-02 -1.015425435455035580e-01 5.652339187064179260e-01
-1.347172551206061650e-02 -1.250701895916172535e-01 5.330031904874763526e-01
-8.088824319974818877e-03 -1.205522609081672858e-01 5.493421690299407079e-01
-2.193055717067387764e-02 -1.117046363783787549e-01 4.785667097627802069e-01
-1.194903352837217297e-01 -9.990086427408942371e-02 4.883609585055321833e-01
-1.296974028021475461e-02 -1.101951729065334118e-01 5.647787610124832547e-01
-9.617736314638264394e-02 -1.116462874405704381e-01 5.253017640429307189e-01
-7.658322260039364393e-02 -1.077331874062200795e-01 5.351867382252807337e-01
-9.194132523165081394e-02 -8.136104572768138032e-02 4.598414295735312463e-01
-9.823434353990881385e-02 -9.597354390472777330e-02 4.699803679534019785e-01
-1.061820075536011737e-01 -1.161937918783102347e-01 5.105386736663831693e-01
-4.726636886940621674e-02 -1.185808937290360188e-01 5.173633948372051705e-01
-4.348933072633962699e-02 -9.037616260724576356e-02 4.628781657102653546e-01
-2.119838130334176715e-02 -1.098476157615899396e-01 4.752438382152240348e-01
-5.907279154686682909e-02 -1.148769965287952805e-01 5.018447072394801589e-01
-5.636548628058730276e-02 -1.135311164659557753e-01 4.963655223086186341e-01
-7.561651018472541341e-02 -1.138818620047836599e-01 4.971688009749410941e-01
-3.337057496654446953e-02 -1.208722182785948590e-01 5.284337273114211309e-01
-3.651901660248171172e-02 -9.115420349803199374e-02 4.620575655327686104e-01
-8.247953388195325419e-02 -1.092545207478817920e-01 5.321249987767675549e-01
-1.187407168293175552e-01 -1.086428096719513209e-01 4.986672365739269197e-01
-1.013971074744365528e-02 -1.242540860187328761e-01 5.370150730202477574e-01
-9.709527121876558586e-02 -1.190605886801625879e-01 4.975763788271490573e-01
-7.550199322158329673e-02 -1.069857174364639979e-01 4.820305253769464615e-01
-5.214557018254639686e-02 -6.139519284834162038e-02 4.485859380330190493e-01
-9.544831130354626547e-02 -1.167830157399890878e-01 5.121185555890386265e-01
-7.305237761257982188e-02 -1.124873286328109262e-01 4.941744605428705639e-01
-5.894305763055762704e-02 -1.163049108026987799e-01 5.080523600841894138e-01
-1.001486682516531390e-01 -1.063263873584839453e-01 4.778714065546149636e-01
-9.036102353061221948e-02 -1.045128695648299133e-01 4.764614484025003205e-01
-9.636408222955208935e-02 -1.091888150157850346e-01 5.272925655611728768e-01
-2.317980805558511256e-02 -1.217051336847749243e-01 5.043339315662692668e-01
-6.246032934866002639e-02 -1.174088354831751835e-01 5.139982886252806304e-01
-1.140853455633918101e-01 -9.484026478533127968e-02 4.778576509604285372e-01
-4.391283809051125392e-02 -8.150617774565850626e-02 4.564152176024341978e-01
-3.704224119513673669e-02 -8.163675911036680222e-02 4.546804873189801977e-01
-4.513874740692008780e-03 -1.169724930486771425e-01 5.564784697668854196e-01
-3.786944949444539382e-02 -8.502459038323828544e-02 4.575809815439965123e-01
-3.298349506461405872e-02 -1.061492013876654816e-01 4.765778635411629383e-01
-3.145872878377228843e-02 -1.209284521579578192e-01 5.340246145962308510e-01
-5.689842475697873964e-02 -1.176432934123887997e-01 5.200377092766108600e-01
-6.899236271545895749e-02 -1.084779701627262560e-01 4.852246110998153505e-01
-9.318512268712245139e-02 -8.756254092861247285e-02 4.636218640565957783e-01
-6.695891144488622104e-02 -7.461190552608747140e-02 4.536889967597651507e-01
-3.331092017357420443e-02 -1.200547619302052282e-01 5.380803376564301521e-01
-6.415261979936404124e-02 -9.178553958491544873e-02 4.638108007875830774e-01
-5.405007441620734987e-02 -9.518323106297747749e-02 4.672376734431353262e-01
-5.647683088941190394e-02 -6.066699394014101604e-02 4.487772006234564404e-01
-5.355539474267514283e-02 -1.057710270196302593e-01 4.805225507046420041e-01
-1.141560352658627653e-01 -1.133220678269127452e-01 5.101443929542339717e-01
-2.404557933039911874e-02 -1.230858321771649277e-01 5.202491220036835617e-01
-2.308254896341146653e-02 -1.156741008260788600e-01 4.861628338384459957e-01
-1.104096158701315805e-01 -1.137917104210602603e-01 5.129231287891039548e-01
-3.698258772048158838e-02 -1.196180048264317147e-01 5.138545009729633684e-01
-3.731085682433522843e-02 -1.169396793289814024e-01 5.000842997192452843e-01
-6.991358181266806027e-02 -1.172355741676754243e-01 5.223833295949715794e-01
-4.762215527201048987e-02 -1.180192122340348315e-01 5.125909484646532510e-01
-6.261959849322273897e-02 -1.034686075542452649e-01 4.767583416883902636e-01
-3.061313355284344881e-02 -1.140629094182138009e-01 5.499127140728354846e-01
-8.970250017683305266e-02 -1.109741441718305743e-01 5.292291544699165851e-01
-8.868261394659850139e-02 -7.374026266565902876e-02 4.548036052213839664e-01
-2.362841889716077448e-02 -1.145405118734297428e-01 4.843540666779737602e-01
-1.059304886437514026e-01 -1.110370882583164298e-01 4.823167439652737420e-01
-6.214842200772480868e-02 -7.677529675058633596e-02 4.550282423505559448e-01
-7.798929972401842659e-02 -1.168487527427623379e-01 5.056027197960228925e-01
-1.192796419576971356e-01 -1.043836936709675173e-01 4.915088232015986658e-01
-3.964576185117519441e-02 -7.904424492873982078e-02 4.539272655677352164e-01
-5.321043232630136635e-03 -1.266740930730631265e-01 5.315885828510285016e-01
-7.114141082805779115e-02 -1.168644562731689929e-01 5.251378853087977916e-01
-9.807272430274174835e-02 -1.152387971511236453e-01 5.183205258089720324e-01
-1.064413956795956379e-01 -1.155251277612926175e-01 5.120137647859045460e-01
-6.665689933252670618e-02 -1.174703968761336287e-01 5.216717736968542463e-01
-9.769831066119801996e-03 -1.227334567518656022e-01 5.422554929133454049e-01
-6.500760416543779896e-02 -6.206898704565112779e-02 4.495194939339896001e-01
-1.070328503410440807e-01 -9.038933626288538081e-02 4.721933084565003158e-01
-5.248313622033769915e-02 -1.156966034151917094e-01 5.025923304369352973e-01
-3.506969780860600978e-03 -1.277802526141477435e-01 5.271904638855021696e-01
-6.680107171195241722e-02 -6.896181182681616895e-02 4.516504171463573414e-01
-5.098282703196121285e-02 -7.141809535260569552e-02 4.523573874257841299e-01
-4.729384098248837903e-02 -1.086659222717616807e-01 5.441498052285680398e-01
-1.007909216459544344e-01 -9.298698498757383690e-02 4.686161124459039540e-01
-7.477318570367849637e-02 -1.171382575546820043e-01 5.068927056011094390e-01
-9.960263561412621702e-02 -1.180756447201273401e-01 4.911430212693049802e-01
-8.018103243448940209e-02 -1.064038936644784855e-01 5.337742824301868749e-01
-1.025139158715267923e-02 -1.163918184664074068e-01 5.582308300810785440e-01
-2.112701879083273004e-02 -1.013784887736493695e-01 5.601293648242151590e-01
-4.214539562684680579e-02 -1.073645163890805942e-01 5.461701004221630740e-01
-3.884209715272471386e-02 -1.060738693710000236e-01 4.782056496645297194e-01
-9.283307685158442846e-02 -9.446618714874834011e-02 4.680446310909627816e-01
-4.421480011044519320e-02 -9.465571869151802320e-02 4.665874001522334336e-01
-6.242969636584581178e-02 -7.160153952338224603e-02 4.528710893957846872e-01
-5.159572432308648371e-02 -1.106131640998509469e-01 4.881074103717920054e-01
-1.890405562962940711e-02 -1.234428894749819150e-01 5.073233121868253592e-01
-7.649732799209271739e-02 -1.098670337445787071e-01 4.871401914825200796e-01
-7.957597354462837835e-02 -8.314600001467201129e-02 4.571160924429614192e-01
-9.570786912163804783e-02 -1.168189885163087166e-01 5.117491557378008871e-01
-2.030490240744545899e-02 -1.170952672011374152e-01 4.876574935338722216e-01
-4.818622057581936624e-02 -1.173479295042642034e-01 5.082237775455160644e-01
-7.358086162668620034e-02 -6.246824128818829341e-02 4.492295563105980216e-01
-1.084777676878198593e-01 -1.008535765682544716e-01 4.765004038808300924e-01
-9.348485666187270060e-02 -9.758574309911988154e-02 4.702784336511900976e-01
-1.080373623766721879e-02 -1.170092351412852227e-01 5.573113582336631788e-01
-6.687922654274755518e-02 -9.945201989818366894e-02 4.715666943575299586e-01
-4.842335225730407672e-02 -1.161385210809842278e-01 5.020979870061287320e-01
-9.066045597867983252e-02 -1.070297385511607413e-01 4.787360105479022687e-01
-6.530608100204042532e-02 -6.875443858766763783e-02 4.516591702032914935e-01
-1.183432012021871788e-01 -9.697869193879356253e-02 4.877635695937637128e-01
-4.084578508575022193e-02 -1.195934689226272885e-01 5.268730136688547505e-01
-4.969264434932641611e-02 -1.157544833256972244e-01 5.378222052708827583e-01
-5.109447085926722976e-02 -1.095075250684925949e-01 4.863656925055006575e-01
-4.819366532729031302e-03 -1.271640101288674940e-01 5.302859952077202399e-01
-4.805584633816028378e-02 -1.044636203702297289e-01 4.777586504696216263e-01
-7.221224725419940482e-02 -1.147207080073379959e-01 4.995694655934191930e-01
-1.117254645751103309e-01 -9.828515831557524396e-02 4.768470973101754939e-01
-1.322721636156403736e-02 -1.154234471597626877e-01 5.596878666090129295e-01
-1.153744851987446862e-01 -1.128359481031146194e-01 4.975318832558399684e-01
-7.095082573566444117e-02 -1.134861460204452666e-01 5.334287397252106544e-01
-1.058297836636743448e-02 -1.248712427537331804e-01 5.047017287150020737e-01
-5.113225749438463780e-02 -1.021896608027038078e-01 4.750231986209964008e-01
-8.818821725801156974e-02 -1.138406580754275504e-01 4.896249901446217967e-01
-7.846731349711970338e-02 -7.344703005361921666e-02 4.524266430723422050e-01
-5.008823289505322934e-02 -1.182028987407131027e-01 5.295974338082103383e-01
-4.002235229505134162e-02 -1.067118838195445646e-01 4.794383082481497582e-01
-1.059843396367066287e-01 -1.078227355801779502e-01 5.217579558602462031e-01
-6.029233715525404713e-02 -1.067633462475887363e-01 4.817601608620615816e-01
-1.207688559725337701e-01 -1.037416114626073804e-01 4.943377606152742354e-01
-7.238501474471582819e-02 -1.177800654127089813e-01 5.154959229743090177e-01
-9.366099801742934494e-02 -1.178238962753455493e-01 4.979087274550335618e-01
-4.757871063819862217e-02 -1.166430596663772523e-01 5.378236839637023925e-01
-4.823883603514987628e-02 -1.151016042097783021e-01 4.986506515572490805e-01
-1.358405048111000282e-02 -1.066542757228182564e-01 5.665816112190861231e-01
-1.024665059924975419e-01 -1.159859493041693751e-01 4.877336665418658956e-01
-1.439160732099730930e-02 -1.178848516000490232e-01 4.869370761716526608e-01
-1.565662239018725255e-02 -1.194587639498507631e-01 5.519128510488678918e-01
-4.633765349399095179e-02 -9.028503258748553362e-02 4.630065129030167537e-01
-7.497040513100881876e-02 -1.177655673909380196e-01 5.115624189111074305e-01
-7.009560236168965730e-02 -1.149526723985713345e-01 5.005483817094604770e-01
-5.491995898552484712e-02 -1.167599399967889501e-01 5.089539520553391094e-01
-1.323724997780438561e-02 -1.251024689756648212e-01 5.328900652338680599e-01
-1.079121364314526849e-01 -9.454162685816064338e-02 4.730041340072259626e-01
-7.564298108550182587e-02 -1.049963855848979055e-01 4.790373024057322238e-01
-4.051754679520874064e-02 -9.753563345507666738e-02 4.690264408817961805e-01
-6.978772616926016970e-02 -1.168641757592772390e-01 5.075725532428759790e-01
-1.134994025168538506e-01 -1.143995508808135081e-01 5.047131683240833055e-01
-9.171615780582249855e-02 -1.074578419003843488e-01 4.792300063278668865e-01
-2.650642027455235930e-02 -1.052284840912840885e-01 5.544520160142384357e-01
-1.139953901747107895e-01 -1.093148690021550490e-01 4.887189384678775061e-01
-5.856680263151566035e-02 -1.054818748520667676e-01 4.799749343693747727e-01
-3.959271618943353485e-03 -1.205539301405737368e-01 5.441546339893517104e-01
-4.022629889034724099e-02 -1.111144368216164247e-01 4.870721561207755346e-01
-8.865135418632370812e-02 -1.022272834674293335e-01 4.747948306322486434e-01
-7.704606936098978842e-02 -8.792158336895769533e-02 4.609651839075149526e-01
-5.871924818159270087e-02 -1.098227858311171951e-01 4.879011920203587538e-01
-2.628295654749953497e-02 -1.043487121572256038e-01 5.547158060766569365e-01
-4.611165847405782753e-02 -1.175409098957661130e-01 5.080044993731706038e-01
-1.062524773106238857e-01 -1.127947468840653222e-01 5.180948774217793984e-01
-9.541306344016607655e-02 -8.116343282241399171e-02 4.627554574632159468e-01
-1.899131238804931121e-02 -1.099404051730668991e-01 5.618228368614266444e-01
-8.675227841056444567e-02 -1.164205965461094228e-01 5.015370791313765730e-01
-3.278990013319820623e-02 -1.101775754835501719e-01 5.491475979159422538e-01
-4.552090333474436562e-02 -1.161714641231083589e-01 5.394927181084284706e-01
-5.063609135911035369e-02 -1.101853015281767240e-01 5.420435672384573689e-01
-1.060746533566286759e-01 -1.171699294296433963e-01 4.925915951874679233e-01
-4.845493032643492272e-03 -1.152739507026486199e-01 5.593214802150541232e-01
-6.726898054537669425e-02 -1.059138995568164043e-01 4.801717998371631269e-01
-6.711258826867408378e-02 -1.114257616051272937e-01 4.914402596773644327e-01
-3.559417689904715437e-02 -1.124303950330659135e-01 4.885856507514646507e-01
-8.221148649179743639e-02 -1.099069315522866880e-01 5.319750454968049658e-01
-1.227747064438881874e-02 -1.262359567638991209e-01 5.202713697450761510e-01
-1.181979280624052553e-01 -1.024840612142152718e-01 4.870291779160102474e-01
-8.521949677263106204e-02 -1.161515742413293112e-01 5.024855983343611276e-01
-8.047896621891967306e-02 -1.130998064334433756e-01 5.309247061430063530e-01
-7.427226237369025097e-02 -1.148121980045819224e-01 5.310596857180837072e-01
-1.060893205379467158e-01 -1.152372947786664270e-01 4.894758918290098570e-01
-2.482858065553047652e-02 -1.181898707251780450e-01 4.939364295285605388e-01
-8.198153704936886332e-02 -6.162245440828174187e-02 4.508358871864669992e-01
-8.822834882995524153e-02 -1.141661364997805239e-01 5.263788947884713298e-01
-8.503851948503822478e-02 -1.159236997743300496e-01 5.238361060692718896e-01
-9.822849996917731863e-02 -1.160263730980096164e-01 5.152712420398558590e-01
-1.810142727694227793e-02 -1.210598209136965753e-01 4.964869525002124084e-01
-4.597566045547828162e-02 -1.187299236362307775e-01 5.275100965098080685e-01
-5.829313646609354110e-02 -1.174727849978602218e-01 5.225595453658297140e-01
-1.120576452053807445e-02 -1.228292011223610508e-01 5.419620922570453914e-01
-2.891514671772897616e-02 -1.170147513217079105e-01 4.947768595768976541e-01
-6.564039442033728355e-02 -1.021718651259723165e-01 4.747637414344779150e-01
-6.827687787955422083e-02 -1.080383867324466451e-01 4.842774624722621657e-01
-4.693682838249067096e-02 -1.128842117550466206e-01 5.420821907289132824e-01
-1.065357530576770961e-01 -1.179925034918504340e-01 5.039490918521108975e-01
-1.119437731622372062e-01 -1.146882566572441781e-01 5.086939597711421790e-01
-9.659129132451636790e-02 -1.087724750110913990e-01 5.271400305509977846e-01
-5.182056049385593000e-02 -8.244434963586633192e-02 4.576040550573833854e-01
-1.627998506863754039e-02 -1.225779883138095466e-01 5.430375182506489429e-01
-1.158286423433472212e-01 -1.130490364954872679e-01 5.032558943592724265e-01
-7.254529197010038677e-02 -1.128029912996322687e-01 4.951606508846319588e-01
-8.649210546406262135e-02 -1.078177442978180967e-01 5.312881317536511938e-01
-3.395492935813887447e-02 -1.005971611306413910e-01 4.696419973734557440e-01
-5.359631403414878703e-02 -6.423163728718819798e-02 4.496793439932380010e-01
-7.861742889067586948e-02 -1.124368083701549476e-01 4.911566425922975210e-01
-7.721462069346431145e-02 -1.154351849100034438e-01 5.011478771125382758e-01
-1.929173052355398488e-02 -1.232683539481294888e-01 5.069332312603865853e-01
-9.398179797654636347e-02 -8.217609395048085241e-02 4.610134179538064592e-01
-4.290068069451644789e-02 -9.932897984597584273e-02 4.711319233417203822e-01
-5.152587864750395041e-02 -9.375160853043160158e-02 4.659753798917753986e-01
-9.906912905972409256e-02 -1.098668704127601231e-01 4.811147947030455785e-01
-7.452122495658376755e-02 -1.099458804389681910e-01 4.875867289373606028e-01
-1.770583940613241342e-02 -1.167849278728258361e-01 4.858995383932165346e-01
-1.961735696063945239e-02 -1.138147352549523234e-01 5.590417579417366056e-01
-7.122427475867922075e-02 -1.175729597716518443e-01 5.116852030280386598e-01
-1.185167863589161041e-01 -9.742238705562553114e-02 4.879444696576118456e-01
-7.173155456471491664e-02 -1.012698322357854092e-01 4.737412290347380872e-01
-8.657663571046997353e-02 -1.130773380631597130e-01 4.893219916584483076e-01
-2.427430827512210357e-02 -1.177517220361460615e-01 5.511230339317039206e-01
-1.318325393389509388e-02 -1.195101908324227025e-01 5.524812975169592910e-01
-6.928456613579192513e-02 -1.084117506328108327e-01 5.380460735850161047e-01
-7.697336076457959864e-02 -1.172712626572252198e-01 5.204693915144071870e-01
-7.250472354291174516e-03 -1.274277187797578925e-01 5.209953027357930866e-01
-8.328729297954236277e-02 -6.667132148372517664e-02 4.508326203104960905e-01
-8.065508930911710617e-02 -1.129389603003613379e-01 4.914342211303454611e-01
-1.123654176047435976e-01 -1.148318267219040623e-01 5.053329706817704103e-01
-4.394440847529489103e-02 -1.139748704018637288e-01 5.427262172374150984e-01
-1.080757002314193804e-01 -9.518931415321285616e-02 4.731218621718513706e-01
-4.773882495761733874e-02 -1.134955068212950696e-01 5.414394815123948490e-01
-9.283843781704419207e-02 -9.332431314233818886e-02 4.672288395020706697e-01
-4.192767442238064246e-02 -1.187224610388425972e-01 5.122247739527345800e-01
-3.448207001385380360e-02 -1.193818871051144231e-01 5.086138873993538700e-01
-1.060563705544873177e-02 -1.237777730127534170e-01 5.383022253945934921e-01
-1.777779845361147221e-02 -1.247380804174332558e-01 5.174261817943714981e-01
-3.534738359208262903e-02 -1.199621194038739402e-01 5.144295188421829090e-01
-7.767710390210785798e-02 -7.566624572305487295e-02 4.533188285798723793e-01
-5.505380077637606756e-02 -1.179288279719985927e-01 5.229477790823893191e-01
-4.988617851423859939e-02 -1.103817685167532842e-01 4.875512872275954979e-01
-1.056789526973612031e-01 -1.109533862367059615e-01 4.821196327186200725e-01
-2.346699402098480214e-02 -1.205150462714604104e-01 5.002406129555957426e-01
-3.389635210727918319e-02 -1.074475263712167533e-01 4.788982483181696281e-01
-7.869413985161002878e-02 -8.946732366875173592e-02 4.625780576441058667e-01
-9.236094631491814644e-02 -9.243002992583024269e-02 4.665609208416687803e-01
-1.074065602277196746e-01 -1.135779034664960163e-01 5.159225012131737342e-01
-5.116463644522857568e-02 -1.185174141875216802e-01 5.222529239261896050e-01
-1.643609763714170766e-02 -1.200901807910215724e-01 5.504591800470823859e-01
-3.832892707427348888e-02 -1.184983564822651020e-01 5.071703749624112412e-01
-2.773486241966617930e-02 -1.186339200309698139e-01 4.981257858716651166e-01
-7.930728857910603058e-02 -8.155790479966452955e-02 4.560398730745870988e-01
-2.762541286105351518e-02 -1.196839820277237759e-01 5.015854575822076278e-01
-7.816146393726063069e-02 -7.950830321869754858e-02 4.550046456435183351e-01
-1.029000862126390747e-01 -1.200962813550106312e-01 4.963243075021790962e-01
-1.006232681374941013e-01 -1.020606670558174139e-01 4.752076432095616587e-01
-1.127301231437477375e-01 -1.023589366027143482e-01 4.798115301456392090e-01
-6.723722962025296956e-02 -1.141323131624767118e-01 5.324092211370711203e-01
-2.309095922591041308e-02 -1.151741465068407549e-01 5.555355722404846652e-01
-8.630563704279121950e-02 -9.303773770778557550e-02 4.664673463587932223e-01
-8.613809294764328273e-02 -9.496974434936039655e-02 4.682265223892321249e-01
-4.258610554260440495e-02 -8.695466513564864552e-02 4.598694192431502792e-01
-6.013366072721854083e-02 -1.166484802837622625e-01 5.296764023478641725e-01
-9.705136068953798545e-02 -9.431630717489478122e-02 4.684733691018098667e-01
-2.997353586918261037e-02 -9.696783964659325128e-02 4.640034609523752684e-01
-9.220462177753956101e-02 -1.186900310983380613e-01 5.030492002966305831e-01
-9.329148340014574436e-02 -1.115343991478105479e-01 5.279339309482371512e-01
-7.003098222841630527e-02 -1.132084699161871738e-01 5.339015882093667287e-01
-7.126377804264216742e-02 -1.111134617105061229e-01 5.365092754346131310e-01
-5.590875463237386656e-02 -9.065133637089178853e-02 4.631820171511212281e-01
-1.029736895120933055e-01 -8.514424763017316988e-02 4.698454528509561912e-01
-3.355280984656891508e-02 -1.086147884925903750e-01 5.487418750905114218e-01
-8.973538370559680510e-02 -1.098166690938636170e-01 4.831405550563434015e-01
-2.571952486717981115e-02 -1.148077309526288614e-01 4.865285187591987248e-01
-4.685465319120302174e-02 -7.769391638450537374e-02 4.548563406287956523e-01
-1.547277062044874821e-02 -1.029961221848648273e-01 5.666441503605122998e-01
-4.718789624045715420e-02 -8.747256428306851572e-02 4.608040626167288489e-01
-6.598636607576754964e-02 -1.168799474808484423e-01 5.266311923300273090e-01
-9.181895635495634228e-03 -1.254401286959321571e-01 5.332744726553519943e-01
-3.028256977163173644e-02 -1.017020525899523242e-01 4.689918342988504962e-01
-4.827026124773909493e-02 -1.151458083882473810e-01 4.988054848732141888e-01
-3.270519576467104117e-02 -1.201474368253094421e-01 5.382822727477618585e-01
-5.340623982276142961e-02 -9.052350067767510333e-02 4.631738434445463737e-01
-5.975280326347113397e-02 -1.120986091320533284e-01 4.931118175555786465e-01
-1.546333999952932171e-02 -1.222558981332527717e-01 4.984503538713581094e-01
-5.947263630299653991e-02 -1.087584522480103261e-01 5.394980947528201787e-01
-6.145598585840990336e-02 -1.168690257251323861e-01 5.284122513330916648e-01
-6.536636213173420418e-02 -1.056504085932129244e-01 4.795123614819691849e-01
-9.165893819797464592e-02 -1.166989758799836241e-01 5.147770643056878148e-01
-8.538321725574522791e-02 -8.497574401977334158e-02 4.597303492834601268e-01
-2.226894571548741070e-02 -1.215629230683812761e-01 5.424433795200187536e-01
-1.105613308566830710e-01 -1.088833161605569921e-01 5.194588213281976508e-01
-5.102813681693945530e-02 -1.084348417131710401e-01 4.846408991277715295e-01
-7.586881215442242699e-02 -9.043135221975016902e-02 4.630279066559824797e-01
-5.261566633576911234e-02 -1.059201220031612684e-01 4.808618331214470354e-01
-4.305641604230999592e-02 -9.517555028767354930e-02 4.670292772023694194e-01
-4.761778581812288469e-02 -1.183631067016356481e-01 5.150383257956928640e-01
-9.078496781184086650e-02 -1.165559236159734308e-01 5.161568050337850266e-01
-8.932062009845873410e-03 -1.269799111629718591e-01 5.245112186229252682e-01
-7.380259174177837556e-02 -6.707019791716514745e-02 4.502541087147834964e-01
-1.402962277166342440e-02 -1.219103277766459825e-01 4.962947185826185881e-01
-2.794781811888673306e-02 -1.220686570103870633e-01 5.283705352851605364e-01
-9.313392680251178501e-02 -9.902393039263415742e-02 4.714953799375396493e-01
-7.344978111998931580e-02 -1.091047980705679016e-01 5.372385429718783412e-01
-1.101712160264674556e-01 -9.719258250540895039e-02 4.754864855070589647e-01
-5.856680951554982945e-02 -7.685713101483039600e-02 4.551510933481982546e-01
-1.889635746207516190e-02 -1.244952225871726603e-01 5.190723641289284318e-01
-8.440226865641278775e-02 -9.911654355958579576e-02 4.720080253898260580e-01
-1.128617698000334291e-01 -1.100363691026766538e-01 4.881499012008203575e-01
-4.867020707874823715e-02 -1.075116250218098729e-01 4.827655838356616491e-01
-2.759848699285445683e-02 -1.216719963983119157e-01 5.123551345504887555e-01
-3.597757946226914916e-02 -1.203674257352837507e-01 5.263654761652729608e-01
-6.775995256508980658e-02 -1.160067839298427883e-01 5.046057442118142555e-01
-6.568539209089048481e-02 -1.068388119765882188e-01 4.817605134355462115e-01
-5.345117604848015347e-02 -1.131483602847297293e-01 4.945655399708759892e-01
-1.123897362211832701e-01 -1.133016840050249940e-01 5.121493919110322590e-01
-6.887485072408938702e-02 -6.779996583549480205e-02 4.509921801751782255e-01
-2.742635257938544346e-02 -1.205721840152958607e-01 5.045250527320619405e-01
-1.165066931811478829e-01 -1.052138181309803383e-01 4.862007105289028464e-01
-1.128322656255968670e-01 -9.400490798568657269e-02 4.772613781509888464e-01
-1.060983822956758187e-02 -1.007176851630990910e-01 5.682871031933660610e-01
-1.735266794472541813e-02 -1.247416091859854942e-01 5.128841757861473116e-01
-2.205264026920911169e-02 -1.096101339299236505e-01 5.593467395377920148e-01
-6.118361127513238795e-02 -1.173645462788291266e-01 5.141565054627875719e-01
-7.265239817884548701e-02 -1.138706852724779561e-01 4.975352402159606835e-01
-1.051967088609621209e-01 -9.205866647854804574e-02 4.705367475981519498e-01
-1.150408780954813026e-01 -1.112812243297834208e-01 4.929996049255214730e-01
-6.764048847233117279e-02 -1.075286836698075010e-01 4.831587545672502704e-01
-1.211344006919667232e-02 -1.170370386712829142e-01 5.571796980712221403e-01
-6.011937579653436198e-02 -6.234156700386921796e-02 4.494364025096681536e-01
-1.444047797634765568e-02 -1.171060022125003514e-01 5.565840975300019311e-01
-2.236460338489559135e-02 -1.228401431055920340e-01 5.092232192198076213e-01
-7.584746885043314180e-02 -5.965450712066706213e-02 4.499663840926344527e-01
-5.164867006517007836e-02 -1.015648859316579250e-01 4.742204387097670448e-01
-6.157556243800053897e-02 -6.215394484749550003e-02 4.494534277531893607e-01
-5.644461498299788854e-02 -1.177158532656488038e-01 5.231244449672277641e-01
-1.087751900732354809e-01 -1.128478421096343887e-01 5.164242324700567544e-01
-2.065033016075077180e-02 -1.166016139671973983e-01 5.551158486703865469e-01
-5.076624083582487873e-02 -1.182725023874660886e-01 5.179891753117908948e-01
-6.254359066356852959e-02 -1.125972448829243994e-01 4.941866249323375593e-01
-1.134586323490272414e-01 -1.087151544149829313e-01 4.871571613337251638e-01
-3.651061542637632894e-03 -1.275976185236868399e-01 5.293332957917549209e-01
-1.039882100635165924e-01 -1.191652462860616074e-01 5.009688372033790360e-01
-9.908792000454152982e-02 -1.147901680202764035e-01 5.194779619766736189e-01
-4.202632664505713544e-02 -1.148821369382445334e-01 4.959126431691231462e-01
-8.608333158129419238e-02 -1.154890817929806746e-01 4.949754519853318269e-01
-5.400174563086025670e-02 -8.818787085336594889e-02 4.613551163784600506e-01
-5.492168646690224337e-02 -1.055291935091437483e-01 4.800863544372938607e-01
-1.116437180686509767e-01 -1.149272137296876994e-01 5.079433728744316978e-01
-6.972775796003345683e-02 -6.836867443838250125e-02 4.510775171932589478e-01
-5.414683666584508941e-03 -9.842638625720270817e-02 5.706817819203376940e-01
-9.519396594013270277e-03 -1.243159603878162822e-01 5.021938942321166888e-01
-4.717920158612777526e-02 -1.047893715919919339e-01 5.452255706485295006e-01
-4.682847526742178919e-03 -9.918466434465490755e-02 5.704640693216818104e-01
-5.056301300707642665e-02 -7.380843759610493382e-02 4.534381718794717742e-01
-3.969763175144075396e-02 -9.475917924535491588e-02 4.662760994320712671e-01
-4.139073542670536170e-03 -1.178140239961005531e-01 5.546020552724494346e-01
-1.014389718020297926e-01 -1.169867147003193220e-01 4.891477480390106769e-01
-7.996319669819995646e-02 -1.083325779516066262e-01 4.839640319579090466e-01
-5.956480299265046185e-02 -6.057728308962984087e-02 4.489351740548253589e-01
-1.058881886571865077e-01 -1.037088781655536029e-01 4.775487135369392844e-01
-6.280675484468208059e-02 -1.033992110060464181e-01 4.766422002528070134e-01
-9.300089003249147057e-02 -1.175897388963887819e-01 4.980622113244372873e-01
-5.725994145993172635e-02 -1.168552804063061612e-01 5.304297950068855849e-01
-7.424856968257935452e-02 -1.127702187536152867e-01 5.334584790325181958e-01
-7.648238137974218420e-02 -1.111909138228721200e-01 4.894025272842194574e-01
-1.663447864324021919e-02 -1.251399729714468001e-01 5.250350237417318322e-01
-4.983811046282991819e-02 -9.879372496016618210e-02 4.707412821861812757e-01
-4.121735066122267366e-02 -1.138345712821922373e-01 4.932875339949874260e-01
-3.732751871175025299e-02 -9.960053751838332525e-02 4.699823696984573584e-01
-4.822044701843818809e-02 -1.087247760612847503e-01 4.846404836709448660e-01
-8.324528146964391487e-03 -1.178854604684147211e-01 5.555374284741113611e-01
-4.270263453515128066e-02 -1.113819776412417056e-01 4.882777226420557115e-01
-1.337272685036925389e-02 -1.256502866431357668e-01 5.277856124931397108e-01
-8.613089160376266595e-02 -7.756474671457161407e-02 4.550320715745587163e-01
-2.508928577883212316e-02 -1.211408716166280236e-01 5.041838022732044733e-01
-5.247163270159702075e-02 -1.096368488213203818e-01 4.867392270158104051e-01
-5.052477876004437402e-02 -1.130333723309605715e-01 4.934830934102377720e-01
-2.350157637806492630e-02 -1.230971636675057684e-01 5.158436853001270306e-01
-1.170079404088592533e-02 -1.103827299751803798e-01 5.647821265678000247e-01
-2.950537485742637384e-02 -1.213394796209031345e-01 5.342210173955775909e-01
-2.256886236649049277e-02 -1.026232828922919033e-01 5.585605542149344460e-01
-1.169439598906548555e-01 -1.056784968160527777e-01 4.872964819021741723e-01
-6.948037633621904907e-02 -1.018338170961282929e-01 4.743222714489936376e-01
-4.270860221072814156e-02 -9.537357421527822843e-02 4.672114970441564874e-01
-1.600375666690352291e-02 -1.109079357773415236e-01 5.629539630684070595e-01
-9.978377017794455572e-02 -1.156130849891614659e-01 5.161983401450346287e-01
-2.198587634665762416e-02 -1.235628949554155864e-01 5.164557824437937539e-01
-7.554274892838719335e-02 -7.838317284941925811e-02 4.545820491098827021e-01
-4.135708758864938689e-02 -1.004572542383787848e-01 4.722552666060965687e-01
-1.383386062719100737e-02 -1.080981431613119853e-01 5.659847284457023564e-01
-1.920494970799336773e-02 -1.233268962232694776e-01 5.375911674770216253e-01
-5.630865689737539481e-02 -1.166700083645795943e-01 5.317928651606358414e-01
-4.680441751403013190e-02 -1.176012526590097945e-01 5.087213995408302880e-01
-1.079451210615753054e-01 -1.114995237336980083e-01 4.854185840545408581e-01
-4.465441196229503334e-02 -1.188840686242794709e-01 5.280957174440392699e-01
-8.387267732519587682e-02 -1.085864487260605749e-01 5.317333091724826266e-01
-3.520182866470759897e-02 -1.187624765510415376e-01 5.062870925735306615e-01
-3.114878791694117646e-02 -9.397943013715211180e-02 4.621950305567441020e-01
-7.319387696534018772e-02 -8.474983498710084162e-02 4.584620642835104953e-01
-1.172520656223557389e-01 -1.091460597641645269e-01 4.931661369344695345e-01
-2.964362637805566941e-02 -1.215162382286100046e-01 5.176524496237542294e-01
-4.555467400987267546e-02 -8.374644789001378653e-02 4.580117314301954123e-01
-4.525134246225323217e-03 -1.223563604521887421e-01 5.408033960455060907e-01
-8.411389209272775169e-02 -1.166244259914387543e-01 5.200182518988591962e-01
-1.073575035249669657e-01 -1.144960932234845713e-01 5.138267054910755638e-01
-1.183604490448418728e-01 -1.060584442054258725e-01 5.106580963663028827e-01
-4.991622366655646542e-02 -1.111302530108186221e-01 5.418183317046501024e-01
-2.191670531230903093e-02 -1.122962498406142734e-01 4.794924659905492881e-01
-6.368201445144075490e-02 -9.268668750831032810e-02 4.645607001800335367e-01
-6.499610684673594319e-02 -1.111657070294905653e-01 4.912186906553186461e-01
-1.055989864646948578e-01 -1.176679015677077611e-01 5.058411343981751296e-01
-1.246235790008312638e-02 -1.173326815410284385e-01 5.566129781242135088e-01
-9.540047392736697440e-02 -1.015752436626656541e-01 4.741155997250984799e-01
-1.206396126287860582e-01 -1.040054663684256697e-01 4.989121655250082776e-01
-4.980727345826944930e-02 -1.074207460664943076e-01 4.828083582535320217e-01
-8.898420088507003056e-02 -1.071550716025947564e-01 4.794948122321521233e-01
-9.437788134144693697e-02 -1.113406633592774059e-01 5.275721170837388563e-01
-1.027494782017597391e-01 -1.195193663013623814e-01 4.946360979861728624e-01
-7.385790409599199413e-02 -1.170729463692699590e-01 5.062186059874889121e-01
-7.708856375074912837e-02 -1.161787087586978601e-01 5.032196693683352873e-01
-1.040344996543348111e-01 -9.744180949472291964e-02 4.723868827948623506e-01
-4.841529906599906230e-02 -7.660604273150407872e-02 4.545990862068909344e-01
-7.770554873249274630e-02 -1.141512715611503193e-01 4.976941916486245510e-01
-8.408590509420844905e-02 -1.165558023346887073e-01 5.205355625814095388e-01
-1.653996355240758970e-02 -1.251556698022850411e-01 5.236524147586970601e-01
-2.555335531024694601e-02 -1.158615650541714170e-01 5.525447898349129527e-01
-6.125773479246739150e-02 -9.734263558200181854e-02 4.689480238287465630e-01
-1.156481878151178061e-01 -1.006104464081740563e-01 4.818668644528940059e-01
-6.459091081092729891e-02 -1.012505430541447704e-01 4.736473809036812477e-01
-3.969936404967418925e-02 -1.118914852822945338e-01 5.453651995298417487e-01
-1.107299378296624642e-01 -9.967348550895449577e-02 4.768942052178511970e-01
-1.717243581869713417e-02 -1.248010399248048879e-01 5.133360672585305373e-01
-5.866375596724840435e-02 -8.495272248614101074e-02 4.591295177358926116e-01
-7.142510905882903938e-02 -1.169120590653398850e-01 5.067731394000241085e-01
-8.444519581062627511e-02 -1.160086888594756144e-01 5.030406147540334993e-01
-1.075091281180156899e-01 -1.107780270344487367e-01 4.840365202628452157e-01
-6.315601244085031207e-02 -5.993897412334835834e-02 4.489339883950122512e-01
-2.616893998936061644e-02 -1.011207650687781234e-01 4.659651830334492484e-01
-1.524376001903841350e-02 -1.097132316147027414e-01 5.643693949935367771e-01
-3.227700040348531474e-02 -1.130957545588461011e-01 4.883435523050975724e-01
-3.856603941548363695e-02 -1.173276894848163943e-01 5.020607083282964123e-01
-9.834545341636762028e-02 -1.099351972835603541e-01 5.247907935310125449e-01
-3.056301536167487648e-02 -1.184110174126862119e-01 4.997447547216451458e-01
-4.145284030310449758e-02 -1.193644880992028312e-01 5.171342651571563254e-01
-9.277908113082453112e-02 -8.844429585616271627e-02 4.640651926911821268e-01
