-1.983638199531905302e-02 -1.047509073925441125e-01 5.619150999975027760e-01
-7.827453909028930096e-03 -1.243646624361243042e-01 5.021776168178462285e-01
-1.769744126871969359e-02 -1.246113083592136489e-01 5.284013669055765972e-01
-1.661691563051308218e-02 -1.218885338456778544e-01 4.990047434616656785e-01
-5.611196212190632665e-02 -8.354850839798572126e-02 4.591395348777723151e-01
-9.611575694454564667e-02 -1.148155492268507771e-01 5.212223560456522575e-01
-1.025723948612307784e-01 -1.172699571367035454e-01 5.096198311860010710e-01
-8.418117516897739849e-02 -8.114727311304240076e-02 4.579090752959827926e-01
-6.852270197047947986e-02 -1.114887110110173163e-01 4.931594536673362117e-01
-4.073407519664931642e-02 -1.165038164988619618e-01 5.431492301761616792e-01
-4.704167356822649970e-02 -1.092561255066781811e-01 4.863440375431616891e-01
-6.466675210598250845e-02 -7.410176233585669126e-02 4.547649980352805876e-01
-7.944531532469498170e-02 -8.227973016482344193e-02 4.577161957675709436e-01
-2.046234533187323706e-02 -9.901464499160299304e-02 5.600674583359385172e-01
-1.170073773575918546e-01 -1.076470153748606551e-01 5.151671667924551112e-01
-1.725348435061991453e-02 -1.056528408925025558e-01 5.648673669696304689e-01
-1.154464351539301326e-01 -9.709128762548355218e-02 4.832917537385530427e-01
-5.880998101310884463e-02 -1.049089912515588641e-01 4.803785649119673984e-01
-1.091481890773232794e-01 -8.980072251158331686e-02 4.775130952598732326e-01
-4.341310869928075022e-02 -1.189983234428806380e-01 5.215259822733462336e-01
-7.987993308504745538e-02 -1.004317069941389196e-01 4.751309445603500436e-01
-4.780834112138469122e-02 -8.824931487020658272e-02 4.622915926888578331e-01
-7.422895795558034915e-02 -9.609274788329390249e-02 4.699190793844727487e-01
-1.138177082137369484e-01 -1.082379763372210146e-01 4.894577943549979770e-01
-2.872497232011011342e-02 -1.203036213836357476e-01 5.065109883433960292e-01
-4.075239837553751299e-02 -9.662838966324333034e-02 4.690566846305517235e-01
-3.019842657312485357e-02 -1.106484988886408949e-01 5.511327916013141204e-01
-3.129187128319245448e-02 -9.336439024738041326e-02 4.623469954285589489e-01
-5.912145409113628985e-02 -1.149630464175298711e-01 5.040567649482842194e-01
-1.659537010402097751e-02 -1.118922648379621632e-01 5.620439766142658611e-01
-6.472995248103247112e-02 -1.074717972428712032e-01 4.846692656779023611e-01
-1.206779468356657531e-01 -1.033523537672173254e-01 4.995334229807754101e-01
-3.775432808280655000e-02 -1.130152767521548224e-01 4.913390490492871576e-01
-6.512477400061258970e-02 -1.111322569887090994e-01 4.926394941532373783e-01
-7.783509930493416606e-02 -8.831939891589832281e-02 4.627117424294972525e-01
-1.938117041602814561e-02 -1.148258720794611415e-01 5.584977814609591862e-01
-4.371867082693776246e-02 -9.743799404995631686e-02 4.700404839581441840e-01
-1.084526017925110247e-01 -1.178530020156244584e-01 5.001741159676562631e-01
-7.281099006384929122e-03 -1.237093087111194312e-01 4.995552114001257094e-01
-2.914919794768738512e-02 -1.212834868569959562e-01 5.153878365819318796e-01
-3.098286960270509732e-02 -9.926106048065178045e-02 4.672115386570914186e-01
-6.491649290479009626e-02 -9.178099613518139743e-02 4.649302432190272061e-01
-5.727021152846925589e-02 -7.177856535183556319e-02 4.537923997744437998e-01
-3.844104950315155311e-02 -1.151777306842695914e-01 5.449349338765060446e-01
-1.070497032839786422e-01 -1.120769381212398247e-01 5.203138963818252360e-01
-2.668969732238860026e-02 -1.072661960543743048e-01 4.753300624758127757e-01
-6.204517946441015508e-02 -1.155441845264073703e-01 5.329544487110514650e-01
-4.173263714798113727e-02 -1.172354904423706240e-01 5.422164508722580045e-01
-1.362220100624747174e-02 -1.257063824993656376e-01 5.269799343982090045e-01
-6.821768294896456142e-02 -1.067476802554978288e-01 4.831750295656092598e-01
-9.040919031643304682e-02 -9.897852649283551962e-02 4.734631018954968962e-01
-2.631342802882481735e-02 -1.107269128272833220e-01 5.544373821304177108e-01
-9.909320476100801078e-02 -1.106230816191362681e-01 4.841913773797177911e-01
-1.339592746171297402e-03 -1.276750124693646626e-01 5.171869655330976201e-01
-9.420030413408590764e-02 -9.288595151169595776e-02 4.687322176202303736e-01
-1.091260962165622739e-01 -1.156544803294483476e-01 5.095234700807177441e-01
-9.442609059623861822e-02 -1.170950661139763538e-01 4.970434472024443662e-01
-1.364373509226413442e-02 -1.233236581546822835e-01 5.396037722507602830e-01
-3.627621981280696600e-02 -1.200626847618611881e-01 5.215558781411484546e-01
-1.237196440885113442e-02 -9.790338409581993140e-02 5.683982858556922979e-01
-7.816661179685188698e-02 -1.173412719716177277e-01 5.183162365124315274e-01
-7.310955601981941610e-02 -1.151512107519026273e-01 5.310360008470353943e-01
-9.044442045194417412e-02 -1.168929933748837774e-01 5.139964708595389231e-01
-2.763503167294849294e-02 -1.206715672356956232e-01 5.407003102573221254e-01
-8.403455956680692951e-02 -1.170874951372553319e-01 5.154221561749716685e-01
-2.702266726802766278e-02 -1.090039340782772009e-01 4.783019602523668756e-01
-5.873997235740217870e-02 -1.123265863784497359e-01 5.386188520926288303e-01
-1.208982510855245301e-01 -1.021336742742016274e-01 4.959198033148193852e-01
-7.790195991346417909e-03 -1.245114521483704911e-01 5.365245495060508851e-01
-1.140787599064098379e-01 -1.129244018294456170e-01 5.124164211938379010e-01
-7.229492384796307181e-02 -1.164980139310337615e-01 5.064834135164116846e-01
-5.475772383070925953e-02 -1.121876781633272258e-01 4.938668371457851647e-01
-3.567715494690996275e-02 -1.182175885955248917e-01 5.052454774579305807e-01
-2.991252881021391405e-02 -1.201691470635020131e-01 5.404838831811864530e-01
-3.975993045469446152e-02 -1.051296353763537389e-01 4.779020292345801946e-01
-9.519388395843321471e-02 -1.171125143864116536e-01 5.105150195331715768e-01
-1.116195377293977414e-01 -1.117099002333668267e-01 5.178992181856989507e-01
-1.011438863503314328e-01 -1.164938941898340796e-01 5.125020407473019901e-01
-9.150424812649568529e-02 -7.113996664865619712e-02 4.598863668118225445e-01
-9.024799595049939893e-02 -1.022169084022165053e-01 4.764370556074750129e-01
-3.426996923297267322e-02 -1.164934502179707093e-01 4.979077526435793377e-01
-1.045454747503318932e-01 -1.195009595418184134e-01 5.021998595137212584e-01
-5.055924321034114405e-02 -1.180397656030453546e-01 5.178468220742939998e-01
-7.629261393384317858e-02 -7.057557037936726396e-02 4.525140926684161902e-01
-2.778881968015751644e-02 -1.130169628883053307e-01 4.859190387030066227e-01
-5.878668959268788796e-02 -8.863828450545420401e-02 4.625623637548433864e-01
-3.098654271694812820e-02 -1.211719210775360767e-01 5.288247510814335639e-01
-4.587419574523451948e-02 -8.933276132375528311e-02 4.629458990505556093e-01
-1.552582621315961101e-02 -1.201561449836958256e-01 4.931638886694908464e-01
-6.859377434123556383e-02 -1.165054236963925932e-01 5.282110888021326334e-01
-7.732426568207950712e-02 -7.515092635197195836e-02 4.543404413087998028e-01
-2.988106617143355265e-02 -1.200791223976624689e-01 5.069899684042860066e-01
-2.926099235432116918e-02 -1.190143383840387703e-01 5.017491751305583891e-01
-2.245507169084210580e-02 -1.205150920308778323e-01 5.462000230234211884e-01
-6.663917675515516892e-02 -9.462022096423691742e-02 4.677340480673854439e-01
-4.923774178834316312e-02 -1.184407013572843503e-01 5.248177535162897867e-01
-4.303564099841487162e-02 -1.149151104839526427e-01 4.975514820236149882e-01
-1.112383001193015530e-01 -1.157649422216116136e-01 4.996643551181845222e-01
-8.105438163018546804e-02 -1.037336548588727175e-01 4.788799595424637068e-01
-8.050859495510402641e-02 -1.169173524196238795e-01 5.212350961618804623e-01
-8.051474540040465255e-02 -7.260579681196384361e-02 4.534985555181604289e-01
-1.655492557924578834e-02 -1.182739681602710813e-01 4.893577114686783469e-01
-2.357749247788531316e-02 -1.229312255550717020e-01 5.170332341696727285e-01
-1.541968841439403382e-02 -1.188745539631534121e-01 4.902014407736648982e-01
-8.186175553954498640e-02 -1.128238127578540945e-01 5.318485443568449211e-01
-2.821024891407454202e-02 -1.217711544965476983e-01 5.301124452760344052e-01
-1.408446812175909342e-02 -1.086856833618291968e-01 5.657702627809969576e-01
-2.962840153080315009e-02 -1.123556727202573852e-01 5.515182673332315044e-01
-8.567461043686980249e-02 -1.172820964602830085e-01 5.139766095417552805e-01
-6.740124529577119772e-02 -7.339141871768206649e-02 4.542631174039255537e-01
-3.526789737143525005e-02 -1.064422554921277131e-01 5.488763476279164832e-01
-2.637200139501122073e-02 -1.193749992850751535e-01 5.003633072027364737e-01
-1.040692030144065583e-01 -1.066431879988943565e-01 5.247045197668239735e-01
-6.929281367176547135e-02 -9.794102893976630586e-02 4.712858444548287395e-01
-9.096783276412372110e-02 -1.047481034396649247e-01 4.785859126394427787e-01
-5.356755502338953617e-02 -7.353497445776863151e-02 4.543416212673886956e-01
-9.494992694556826651e-02 -1.119323104110369616e-01 4.864140997248461717e-01
-1.332759909990075507e-02 -1.231171429993833250e-01 5.404423243659436382e-01
-7.457715569124463706e-02 -7.779658972359827784e-02 4.555885234280401819e-01
-5.159789114373579400e-02 -1.062996960022950244e-01 4.823995271830738840e-01
-1.057107700348493690e-01 -1.025446976049492198e-01 4.786307929865577515e-01
-2.505336117654797037e-02 -1.091138054252926426e-01 4.770910641581518896e-01
-5.950793820545638435e-02 -1.009044289175086845e-01 4.742746845537997857e-01
-2.704741811355353132e-02 -1.206760256365831813e-01 5.058899115800046253e-01
-7.717966826091754440e-02 -1.169186526715357971e-01 5.226883455501443176e-01
-5.712773492708226632e-03 -1.112348811901111012e-01 5.644083109139542698e-01
-7.082325357157895351e-02 -1.111923307198409705e-01 4.920958857047168511e-01
-6.007941429923885357e-02 -1.119242180494967875e-01 4.941591101605565250e-01
-5.198645462701850101e-02 -1.174098377713716640e-01 5.136408896079041053e-01
-6.242100370235688367e-02 -1.102464715630205178e-01 4.908837913963272626e-01
-8.393664538550217602e-02 -1.134504621749388709e-01 4.933141887101503698e-01
-7.840664029507317390e-02 -6.590922829310658093e-02 4.510894544021771813e-01
-5.482129180289772863e-02 -9.132794495791016209e-02 4.647342064625802349e-01
-7.862954352269110880e-02 -1.140897166923688089e-01 4.994549383461983627e-01
-1.031157652793189272e-01 -1.090010739807294460e-01 5.243894707396425936e-01
-1.179280048674140463e-01 -1.079057335890792613e-01 4.953752223326876591e-01
-6.331412597176175328e-02 -6.127070794908408280e-02 4.501442108016442956e-01
-4.688115346022898866e-02 -1.104347704482682019e-01 4.882156880665873833e-01
-9.398415023880317409e-02 -1.166661425015412673e-01 4.960360576777889108e-01
-7.687586559244949380e-02 -6.567549704971868685e-02 4.508657651854463544e-01
-3.861582800591683434e-02 -1.127496595662090123e-01 4.910024573479080390e-01
-3.956141859561310842e-02 -1.196109282314207073e-01 5.268720373149338165e-01
-3.794531085472620247e-02 -1.198198397110618041e-01 5.287234744500672878e-01
-1.385625672687238429e-02 -1.231289048122877344e-01 5.011752663474734470e-01
-3.215304604207411959e-02 -1.209937686934062506e-01 5.255807615784054976e-01
-7.912606383865067317e-03 -1.269672784087437778e-01 5.170508778267076666e-01
-3.175934209486930976e-02 -1.154679058691327198e-01 5.479950868631221494e-01
-6.813520897442956747e-02 -9.335499650268162808e-02 4.665949872471089055e-01
-6.880506809947277425e-02 -9.906907857484997804e-02 4.725088438011593728e-01
-7.325727108786735109e-02 -9.546595455654446893e-02 4.691316818961606128e-01
-7.071125264473383798e-02 -1.004549662937667120e-01 4.741017605007503133e-01
-8.543807042088993886e-02 -1.141665498612223634e-01 4.943805746916600796e-01
-9.359010008848842044e-02 -1.083378077005108242e-01 4.823632011901170524e-01
-1.060130053524916544e-01 -8.609915532848548547e-02 4.757038659195518826e-01
-6.451049580750506385e-02 -8.603837605126087029e-02 4.606813700790982069e-01
-8.495074747050562758e-02 -9.208573760810863373e-02 4.670381386724747341e-01
-1.011482314079321931e-01 -1.077206043543552094e-01 5.254307113809346674e-01
-3.214652861481475526e-02 -1.092292925669864495e-01 4.820478088234515512e-01
-6.235370057453014370e-02 -9.628232453921412026e-02 4.690771488560744884e-01
-2.026082771941553271e-02 -1.026022664243976257e-01 5.615131469447089962e-01
-2.456247118860084219e-02 -1.184981610737980556e-01 4.954837124645480317e-01
-2.406978606462118614e-02 -1.228862781696848649e-01 5.271939159237728489e-01
-4.009545268319512218e-02 -1.194455263210628393e-01 5.308244246187837634e-01
-2.692317792479996530e-02 -1.180902117958634867e-01 5.486937121478155932e-01
-8.262618713438853180e-02 -9.516874590833492020e-02 4.698130254871119571e-01
-3.419077551175690732e-02 -9.859902127536167293e-02 4.683245594355532337e-01
-7.148713960528953193e-02 -1.175056126160924502e-01 5.190977227251667436e-01
-5.465564085986050757e-03 -1.216305896555488902e-01 5.439948949081939711e-01
-1.927918400132814375e-02 -1.240981525891534931e-01 5.154898725686801741e-01
-5.763685977708683794e-02 -1.167718525224813869e-01 5.134444636960310282e-01
-9.404555405371696486e-02 -8.390365864245635796e-02 4.630089156460994726e-01
-2.609746977670422685e-02 -1.165503593700330381e-01 5.520149429048203382e-01
-1.136915911166813259e-01 -1.020308222669077114e-01 4.823646030049726918e-01
-6.033519029662486044e-02 -1.123565391112945899e-01 5.377650129801545553e-01
-6.297523646456760701e-03 -1.273060970713738305e-01 5.269982919571827296e-01
-3.093688604956535554e-02 -1.125362851755376814e-01 4.871672652993969677e-01
-9.748372693619793139e-02 -1.042650603226819295e-01 5.286881869142669998e-01
-4.206892750946902848e-02 -1.191177728969487759e-01 5.315544696041069050e-01
-4.629609998801215154e-02 -1.051987518178127134e-01 4.793866000999786325e-01
-4.081912205324267351e-02 -1.183297322975423449e-01 5.401980938878132577e-01
-1.049558470373965907e-01 -1.156194208555572367e-01 4.918645043741187162e-01
-9.086514687145691438e-02 -7.738048350890125437e-02 4.589931617663666197e-01
-4.402599314468970404e-02 -1.124524656548465257e-01 4.916420792048923905e-01
-1.204130139208413677e-02 -1.197521721121017763e-01 5.524369442097281091e-01
-4.564112443002261293e-02 -1.185331062217421655e-01 5.168963006244685632e-01
-9.238800678646706677e-02 -1.158228357932516717e-01 4.946053913765070531e-01
-1.207823114251847657e-01 -9.966706139296342692e-02 4.943311915229078868e-01
-4.129286091154008020e-02 -1.172431696683021718e-01 5.424390388963842291e-01
-6.948994286125166620e-02 -1.099015680002375234e-01 4.897242139055188459e-01
-9.302261305436486383e-02 -1.049854636795303359e-01 4.790004583515792835e-01
-7.526593548937076175e-03 -1.213688971306091935e-01 5.462209424462485252e-01
-9.942785084236341331e-02 -1.077410005688357597e-01 5.260176944347469963e-01
-2.621017934191701912e-02 -1.098548338693167425e-01 4.791504807563166102e-01
-8.762317464548449730e-02 -1.108416713348452237e-01 4.872124838740772845e-01
-6.319755007776076128e-02 -7.915425829606069497e-02 4.570420763663756714e-01
-1.181403190216497173e-01 -9.662655072713627336e-02 4.895691202004516240e-01
-8.700958074023497357e-02 -1.043501681286122945e-01 4.786078033645055907e-01
-6.344148460601770068e-02 -1.024385295946508290e-01 4.764860373311290975e-01
-9.158551819488915113e-02 -1.165859557406006275e-01 5.155306891515104573e-01
-6.958129708138074965e-02 -1.077382725936504165e-01 5.395269850693724667e-01
-5.555061978706821342e-03 -1.081432138300591483e-01 5.668356518671455735e-01
-7.247407351210263804e-02 -1.051496575310892356e-01 4.810230702666194458e-01
-4.883397704564440556e-02 -8.315099325289387888e-02 4.587737688109101430e-01
-9.402798116021031383e-02 -7.404673671912319344e-02 4.629539892693396719e-01
-1.670643022396807106e-02 -1.221440773127586837e-01 5.000494640471265795e-01
-9.567214405267104871e-02 -1.100670214505798800e-01 5.286244344229015235e-01
-8.027833093764188965e-02 -1.152829451348486994e-01 5.028127256183756444e-01
-2.665452179197370930e-02 -1.178084390693407979e-01 5.493288735154165936e-01
-1.138065860116487388e-01 -1.064745934027558072e-01 4.874005714554083823e-01
-3.497075293229702335e-03 -9.166264770515221427e-02 5.736386339588261940e-01
-4.725644786363566302e-02 -1.021037152662498809e-01 4.755900435446979713e-01
-1.102450392941710933e-01 -9.504577115028740864e-02 4.777923026601910705e-01
-7.713678453456462858e-02 -1.063318906062098446e-01 4.824693284016666750e-01
-5.606785306769283828e-02 -1.174681724206271538e-01 5.254539589220041940e-01
-9.526951565941041075e-03 -1.257074424103904464e-01 5.313104176105131193e-01
-8.228627458331029543e-02 -8.487267456536576327e-02 4.603253872002328606e-01
-5.810526199830677585e-02 -8.261869889733931827e-02 4.588022151937425352e-01
-7.945451928052604806e-02 -5.978253692642288702e-02 4.518766754736315283e-01
-3.574529470782301238e-02 -1.099163243670681078e-01 4.844184780564466108e-01
-1.155354799390728576e-01 -1.123150128604577802e-01 5.113707548792065793e-01
-7.172153886360978226e-02 -1.172699532838159947e-01 5.219429487938734846e-01
-4.445368421843758078e-02 -1.187821900261709501e-01 5.275323026348922584e-01
-5.930256887212673189e-02 -1.171746688777501322e-01 5.161709951730816259e-01
-1.231185484139432282e-02 -1.119571822135057432e-01 5.637942202096287714e-01
-4.697005411293859317e-02 -1.185368311711429284e-01 5.264923902329802230e-01
-5.789668989070338723e-02 -7.936239278323836688e-02 4.572762629931293454e-01
-5.007148252646100028e-02 -8.249347343811061495e-02 4.584532106160014719e-01
-8.034258012166249630e-02 -1.172542218874837727e-01 5.180447600435276190e-01
-1.137325629806426736e-01 -1.142088421648006086e-01 5.021008436745318937e-01
-2.719197394859349318e-02 -1.220542329036666401e-01 5.288354086693713985e-01
-7.467040876646177661e-02 -1.166365478407251216e-01 5.255333831276196577e-01
-1.545875513667111607e-03 -1.278591816376815904e-01 5.205855596793040885e-01
-2.344125696592827893e-02 -1.156530575980696668e-01 4.870563143509777926e-01
-4.558228498296986592e-02 -1.185828242785052916e-01 5.174984611826112246e-01
-7.426878358967504978e-02 -1.119648137899142692e-01 5.352106587814264849e-01
-5.807954744964295007e-02 -9.069063152036895004e-02 4.641572623253735763e-01
-5.593808308169249954e-02 -1.153579641815793977e-01 5.046226641595530360e-01
-4.647379587059675965e-02 -1.171483685025388466e-01 5.078540064479665217e-01
-3.546568947644547498e-02 -1.156460299694353072e-01 5.459624954129965735e-01
-1.031390005554012473e-01 -9.502977657605836403e-02 4.723287847530847627e-01
-1.009835561428643474e-01 -1.152710306119948402e-01 5.175218024223621205e-01
-6.937984220420281845e-02 -1.131490181347078322e-01 5.350640975503651031e-01
-4.895322604230148422e-02 -1.181858954896046754e-01 5.175180203888133379e-01
-1.188644289140337179e-01 -1.077319211185611830e-01 4.974612250908832523e-01
-8.400261703561523463e-02 -9.672904786944058753e-02 4.713794878802212707e-01
-5.957313398258991255e-02 -1.166503599227435711e-01 5.125239779590569089e-01
-2.745686076347875204e-02 -1.219822030302129545e-01 5.290729429543600260e-01
-4.165386978797300244e-02 -9.855091622527888118e-02 4.711345574373425604e-01
-5.204507096195769983e-02 -1.180573610054983791e-01 5.255358730002580581e-01
-8.918680370546171188e-02 -7.930273898170100977e-02 4.583037540977717428e-01
-7.511269484080060344e-02 -7.456491166209583410e-02 4.541793295013279441e-01
-2.861300580910815239e-02 -1.216154409387632251e-01 5.195329070381635717e-01
-8.306500961417362383e-02 -1.064788507141408574e-01 5.343005367821321849e-01
-7.098978300971789390e-02 -1.124073817608847725e-01 4.961065057647155441e-01
-2.354014143663662670e-02 -1.099485196377523455e-01 4.774383589693591001e-01
-6.156812127576640620e-02 -7.546721768536622521e-02 4.554369162824459805e-01
-7.028381626234528334e-02 -1.163974296242066830e-01 5.069417584413736799e-01
-1.150228611136837054e-01 -1.125639679129830928e-01 5.116532865763910864e-01
-1.030732720167018696e-01 -8.596198100251548069e-02 4.706446675329654661e-01
-7.656562062168988103e-02 -1.167145298924876229e-01 5.243410148995634179e-01
-1.725367968132421673e-02 -1.097189779377295282e-01 5.635982487024968624e-01
-9.740810459289317436e-02 -1.085523283647075593e-01 5.276690973507240923e-01
-6.965114942702607670e-02 -1.155164495105445999e-01 5.040077211276420277e-01
-5.616799725950307604e-02 -7.410412892480733316e-02 4.548208967288580595e-01
-5.757053939164542139e-02 -1.137713511698327240e-01 4.990671804848020865e-01
-5.203746900430987476e-02 -8.549536838969033770e-02 4.604125886300367565e-01
-1.778448869412715960e-02 -1.233626129409489264e-01 5.381856515523454343e-01
-3.592771971295818934e-02 -9.680531724913778169e-02 4.675081824095962402e-01
-7.800588780712898462e-02 -7.862780492449587821e-02 4.557966585524659830e-01
-5.606507328358558556e-02 -1.099974358280450676e-01 4.890638637237821884e-01
-9.267763619611350812e-02 -8.925727032203568945e-02 4.661001311012367698e-01
-6.493294128750126161e-03 -1.133102089887987329e-01 5.622941016018488947e-01
-1.163044730643418290e-01 -1.119820157631845059e-01 5.101562631803718828e-01
-1.053136839054676505e-01 -1.045215110787493518e-01 4.801467608476329696e-01
-9.958423927176619783e-02 -1.077744136129511754e-01 4.809725107794307064e-01
-9.013605492232425881e-03 -1.253384060337924266e-01 5.062151332995653563e-01
-1.622459272240065267e-02 -1.012434357578278210e-01 5.664640257548200220e-01
-3.006719034640163019e-02 -9.767992575567527314e-02 4.652708547408155315e-01
-1.174123350396124726e-01 -1.081812421478445113e-01 4.946978088922984740e-01
-9.899323617211067128e-02 -1.004139583788927065e-01 4.757898667680130478e-01
-6.517859800912426116e-02 -9.695008684112220443e-02 4.699128349051381326e-01
-1.097534551622552368e-01 -1.142885638814179899e-01 4.939697379023650359e-01
-3.219109480366080800e-02 -1.186026200909402473e-01 5.438616036821553035e-01
-6.621566190109141881e-02 -1.062336774045874871e-01 4.820038460680757253e-01
-4.979133131665124112e-02 -6.703880005275451859e-02 4.511599818711452548e-01
-4.344258156684165789e-02 -1.189429961577391920e-01 5.197790300251946549e-01
-2.592579235843548921e-02 -1.191447097372765607e-01 4.989822854971552868e-01
-1.081753229177038755e-01 -1.111712276048429787e-01 5.212877509426445677e-01
-9.373741831843906969e-02 -1.107056815067705563e-01 5.297065067312070052e-01
-2.486038111888322355e-02 -1.198732287192538909e-01 5.464441269318254246e-01
-5.125523088710863540e-02 -8.193373107815202228e-02 4.581947749944261794e-01
-1.039567652458489588e-02 -1.260513382731055509e-01 5.120502764226279035e-01
-8.452699148333447932e-02 -9.493852613042562394e-02 4.697016873868253839e-01
-4.748715184353702323e-02 -1.052230524525264443e-01 4.797320879095144375e-01
-2.751267583732245475e-02 -1.204951669449630253e-01 5.056123546618451758e-01
-3.872500276032913441e-02 -9.309390330044232942e-02 4.652913756505115406e-01
-9.636703999537578336e-02 -1.157529289276463536e-01 4.898954123856664733e-01
-1.197763939444595055e-01 -1.017389738801577626e-01 5.067206426469604841e-01
-6.422226489980630004e-02 -7.522033333802427557e-02 4.552932550945332779e-01
-2.746553694130526163e-02 -1.105356151655538244e-01 4.812419811333409903e-01
-4.640924467684003768e-02 -1.175138721300209299e-01 5.097315384799813165e-01
-6.342254209733695636e-02 -9.003763545826895531e-02 4.635666686294176997e-01
-5.567272109191162555e-02 -8.714426478036024770e-02 4.615227934868405546e-01
-8.073648243575848316e-02 -1.013007865875553692e-01 4.761255488331754271e-01
-9.242861369881548439e-02 -1.131825558761882233e-01 5.280803260724131754e-01
-1.643926243211137408e-02 -1.246074121909807181e-01 5.323813615051103953e-01
-7.032279272837714534e-02 -9.238896081199803045e-02 4.657904641115435673e-01
-8.253915703434522300e-02 -1.011740384956947014e-01 4.759255970253472023e-01
-4.320822752687182577e-02 -1.178050533640454256e-01 5.391412709077655352e-01
-4.479985298659207305e-02 -1.105921135899238100e-01 5.446602978868262390e-01
-8.264549045222482904e-02 -8.749741758047879792e-02 4.627557333865692790e-01
-9.222487676075663554e-02 -1.184351886527834907e-01 5.045831258737868419e-01
-1.381429491406614696e-02 -1.250308726266899650e-01 5.321118682275933764e-01
-1.314757757886303099e-02 -1.088590648686430240e-01 5.659146440514595255e-01
-5.953066035447962534e-02 -1.061543865210464871e-01 4.821120040176942179e-01
-3.286619432568826937e-02 -1.086441155216219950e-01 5.495725705010819917e-01
-9.411220441022620856e-03 -1.143766218693068881e-01 5.614106027092857776e-01
-4.513217381879752743e-02 -8.033930790482066153e-02 4.565459495280186353e-01
-2.048179089483612506e-02 -1.239222339175849452e-01 5.248626618020370005e-01
-8.733920140584850236e-03 -1.239975506986702863e-01 5.382582307864571813e-01
-2.709814814969811400e-02 -1.220153910327113622e-01 5.309280234119807540e-01
-4.752850973022942904e-02 -1.154763211441099113e-01 5.009904098139129625e-01
-7.034438579099548672e-02 -1.109183249014944195e-01 5.380372064477365601e-01
-1.003212400848976366e-01 -1.154360969081300592e-01 5.172530889849807911e-01
-5.382519625664225482e-02 -1.147948470135654320e-01 5.010805818893755426e-01
-1.687368194580570607e-02 -1.221387323326755675e-01 5.442422591290597689e-01
-2.539752739279377280e-02 -1.134037463017549263e-01 4.844920805232632022e-01
-2.152439157839827755e-02 -1.222875046155381257e-01 5.398781876060677609e-01
-4.991916766189512245e-02 -9.198220690048818093e-02 4.654430430425307019e-01
-7.516877005951459745e-02 -1.106887901723285772e-01 5.359911166379281999e-01
-8.814600816493572966e-02 -9.204327163638946485e-02 4.673118754220650928e-01
-1.006702305311190648e-01 -8.835046033596039017e-02 4.687904143294232551e-01
-1.049445818426394533e-01 -1.048914983411826096e-01 4.803201932159328336e-01
-4.402086555187151307e-02 -8.366495219617900436e-02 4.584757725177026066e-01
-8.490403151686844174e-02 -1.128823732147175712e-01 4.921912647976405264e-01
-8.067744698758906596e-02 -6.869961722044468089e-02 4.516753080229499173e-01
-7.748741681662937864e-02 -1.070944180035475896e-01 5.359206283548466621e-01
-4.243818369620087905e-02 -1.178212626198768681e-01 5.402918228557413993e-01
-7.680283338325755160e-02 -7.767649667740786357e-02 4.554329866126043402e-01
-9.355140474898769598e-02 -7.655142638921605402e-02 4.616742251159311472e-01
-9.421397907023443263e-02 -7.774395856859526999e-02 4.625275089017724661e-01
-7.694937188152883856e-02 -8.610145973422872467e-02 4.607282476234503821e-01
-4.766689775678208119e-02 -1.184674953729746710e-01 5.264871022081536456e-01
-8.622710826195705003e-02 -1.170066353887154603e-01 5.156316357462987776e-01
-3.572640427286699616e-02 -1.191487009071728886e-01 5.105139638709512706e-01
-7.821795592392986884e-02 -8.789577881097820899e-02 4.624043947302723945e-01
-6.527501785000264234e-02 -8.952416322642481328e-02 4.631319487317595573e-01
-1.164397613938767256e-01 -1.120449238459621938e-01 5.076447365527165800e-01
-5.509070212594475296e-02 -1.082982686355635077e-01 5.417681812875436709e-01
-3.796290190840249240e-02 -1.115746710813738524e-01 5.469505337003289780e-01
-1.195269520713337502e-01 -9.663374933929226585e-02 4.950767703293308397e-01
-3.525620851693712227e-02 -1.132006436402445276e-01 5.477617428017473866e-01
-6.479769168047463945e-02 -8.217060066097402193e-02 4.584633134486360562e-01
-3.040519115748268469e-02 -1.145627742617262579e-01 4.911096707471531708e-01
-4.380193477773536986e-02 -1.108151774005248502e-01 4.883923827416857821e-01
-7.846250901455273374e-02 -8.786296667372198166e-02 4.624193798303785075e-01
-6.493289805150138927e-02 -9.003156884715654562e-02 4.635402670830262029e-01
-2.201122486187960525e-02 -1.127405892893121042e-01 5.581834836589344429e-01
-9.913709946243001725e-02 -1.161082234656764939e-01 4.894814900296472482e-01
-3.988508371125635416e-03 -9.754068908733086463e-02 5.713942886531299115e-01
-4.813771259463858754e-02 -9.005928997578867279e-02 4.637738925241773336e-01
-5.070692456372211110e-02 -1.177195533485800583e-01 5.148825664507279409e-01
-6.817571262707711188e-02 -6.370623704893314809e-02 4.508140618968309865e-01
-7.373327483917803404e-02 -7.781778623072765910e-02 4.556401812194200152e-01
-2.974976385215014757e-02 -1.199785780764830029e-01 5.061718438393084663e-01
-1.020050813112478860e-02 -1.259432414729805549e-01 5.295505190514205873e-01
-1.204198678497460720e-02 -1.261336706787809514e-01 5.219419924584871584e-01
-1.085300636128397334e-01 -1.159051064820861843e-01 5.095886578962287583e-01
-9.792862917951850044e-02 -1.063193297385787994e-01 5.276762871624646190e-01
-4.314283195779217150e-02 -1.040860975351030060e-01 4.773696985065167819e-01
-1.783240153171178344e-02 -1.209748359684798547e-01 4.968093752447133582e-01
-6.132765872211672076e-02 -8.853444509378091687e-02 4.624257822916235661e-01
-1.558960853416538860e-02 -1.156696076659201738e-01 4.831927913310891665e-01
-1.017001379482851270e-01 -1.180975839398536037e-01 5.062558555236142954e-01
-6.378632462138626724e-02 -8.426019250873188760e-02 4.594619620524476034e-01
-1.144580245259358975e-01 -1.133010687119213600e-01 5.075995695187212053e-01
-2.382254507792350151e-02 -1.081834387822321331e-01 5.577455457835354125e-01
-9.195940442257458103e-02 -1.053855940117419815e-01 4.791993480114757342e-01
-2.373955088888139373e-02 -1.026826574593394797e-01 5.570875413337349480e-01
-7.370956677300249948e-02 -1.074851064733068629e-01 5.392477981481954563e-01
-7.828736775165263950e-02 -9.732318929896895121e-02 4.716177326136318237e-01
-1.173223520693105898e-01 -1.112787448624649872e-01 5.057577302168222433e-01
-3.642100845789621177e-02 -1.076412838754425005e-01 5.486221427570892040e-01
-4.985885925130525281e-02 -1.056547304209275312e-01 5.446205307749892865e-01
-4.518022966559397113e-02 -1.109111962599332035e-01 5.444200536433645432e-01
-6.516679924486332154e-02 -1.069925875259614273e-01 4.836457188870704194e-01
-9.081678275500440489e-02 -1.084630857261133230e-01 4.826899376459552471e-01
-1.356653368072401923e-02 -1.184309134373663086e-01 4.884513397814571611e-01
-3.079269287866983826e-02 -1.005985972348302365e-01 4.685103133344982185e-01
-9.788420780706127977e-02 -8.105252958983874545e-02 4.661626807711103382e-01
-6.672358334026079474e-02 -8.767731489275465417e-02 4.618000871152412312e-01
-4.994517310333900645e-02 -1.121056753746096368e-01 5.420166919106831349e-01
-2.607932057987738528e-02 -1.205680069845384700e-01 5.042043491446068781e-01
-6.404753170352561753e-02 -5.916163150463461112e-02 4.496054849824387967e-01
-1.081270212065632008e-01 -1.152581260674119534e-01 5.124655219531094597e-01
-2.967074541577288671e-02 -1.047568142131043017e-01 4.735918762141990146e-01
-2.970654284494411018e-02 -1.203555432679420667e-01 5.400863701325490096e-01
-6.421479442567398777e-02 -1.085611002399039099e-01 4.870229821929790703e-01
-5.347261912171027282e-02 -7.315030257841359518e-02 4.541525985627967166e-01
-3.661600808450962002e-02 -1.016644616248368882e-01 4.726369500246899724e-01
-5.149957211097898335e-02 -8.492884966871182273e-02 4.600285440878471577e-01
-1.105324559762207309e-01 -1.152925007962934401e-01 5.070159419704325376e-01
-8.917526936475064780e-02 -1.151075475971117534e-01 4.947976569017091264e-01
-9.204570178272315772e-03 -1.261450943649199130e-01 5.112814387616841927e-01
-6.040368796149195307e-02 -1.105218721985257585e-01 4.911696719304615710e-01
-7.680781404596845330e-02 -7.075346635921798966e-02 4.525575724792321175e-01
-9.961431510287109548e-02 -9.790005550088448638e-02 4.737023102063818714e-01
-8.508618576944343426e-02 -8.757173963018127782e-02 4.631454796171450283e-01
-3.436345198980635118e-02 -1.158171224242113551e-01 4.964317997890551615e-01
-2.279492384560256185e-02 -1.217495201620898970e-01 5.051360262818638258e-01
-2.716987222511835914e-02 -1.211619069120091902e-01 5.091696498584276087e-01
-1.105554254240915524e-01 -1.155017815308437001e-01 5.063860010881735541e-01
-3.822470787043594220e-02 -9.154938017694722041e-02 4.636226165509356179e-01
-1.147697112235407518e-01 -1.117843039467801419e-01 5.147868455046559211e-01
-1.122563940811787259e-01 -1.095939572798777101e-01 5.187851632149360626e-01
-1.187165618794476935e-01 -1.081743030682322804e-01 4.996789664825855293e-01
-6.708238915850599227e-02 -1.172565790359749727e-01 5.161575237276104788e-01
-1.172397912954417226e-01 -1.092379869562712241e-01 5.141415125339620085e-01
-1.206058544867420063e-02 -1.258821011731081907e-01 5.278537463821237896e-01
-1.926750526074106143e-02 -1.193334368248972627e-01 5.508173762248036454e-01
-2.237551156421054011e-02 -1.100402771706433941e-01 4.767989210535591993e-01
-8.603722680711063664e-02 -1.162281512934895678e-01 5.023336136515332839e-01
-7.776409887666839438e-02 -1.079506808621731040e-01 5.357893315557591407e-01
-1.160231837503308827e-01 -1.109927658356641700e-01 5.150896801511192225e-01
-4.653048765189245900e-02 -1.171213615021475113e-01 5.368501895713186922e-01
-7.819006842330045864e-03 -1.257478502833289935e-01 5.329416166227860518e-01
-3.997955745730998045e-02 -8.906195325587643041e-02 4.621036493099586195e-01
-4.090834942905988841e-02 -1.149343889976527505e-01 5.440780511852278956e-01
-5.413478590687088865e-02 -1.164598561647548214e-01 5.337324122677985505e-01
-1.206706211479658258e-01 -1.033523973849994199e-01 5.011315383998015127e-01
-9.352474692728841854e-02 -8.057614200440280094e-02 4.617649356116651505e-01
-6.738473194617544682e-02 -9.827504792372290798e-02 4.715843587015218219e-01
-1.181920391853172603e-01 -1.087397145344341787e-01 4.977674280904253457e-01
-1.077890243984215568e-01 -1.072525397241377298e-01 4.838649149711908848e-01
-7.202192860426141763e-02 -1.169192772946442693e-01 5.242741285930727635e-01
-8.881358724140740735e-02 -7.825872919178902820e-02 4.574808278250755977e-01
-1.710173642051014686e-02 -1.159932382731344580e-01 4.845842586019575848e-01
-6.490002843331735272e-02 -1.149134893914866701e-01 5.326945535154866684e-01
-1.024170826777906357e-01 -1.137971079952472542e-01 5.202315390070813006e-01
-6.268161502671104612e-02 -7.324697137873015240e-02 4.544777423513989278e-01
-6.986356044228396456e-02 -1.155298787387339376e-01 5.040163211534016696e-01
-3.936697632361631227e-02 -1.124473772789826853e-01 4.905467521314990087e-01
-1.152978476640566519e-01 -1.129710975030408654e-01 5.021991768370687170e-01
-8.437640314004730968e-02 -9.160066315986144236e-02 4.665344990859442986e-01
-2.484543881409969138e-02 -1.225550055762955198e-01 5.302431161366464307e-01
-8.819613639450937792e-02 -1.122502618914162642e-01 4.888858753114034283e-01
-7.791437607576207069e-02 -1.159590355209463575e-01 5.279513381229421487e-01
-9.562963522946918427e-02 -1.145034724718790864e-01 5.224145417417687121e-01
-7.567740094308409923e-03 -1.262400087683626659e-01 5.100215074642122648e-01
-1.007217076305594455e-01 -1.176396899566946597e-01 5.077717685134977010e-01
-1.152300736989007590e-01 -1.062598232065277704e-01 4.885208926879114344e-01
-7.726652774759008857e-02 -9.708686473919399262e-02 4.712978718533542555e-01
-7.288967738688301168e-02 -1.154617493485896595e-01 5.302381409500970255e-01
-1.486332880910965978e-02 -1.228698787291434558e-01 5.413682163624915500e-01
-3.994091514624449613e-02 -9.083461892586790210e-02 4.634876866470621359e-01
-2.211295643432806962e-02 -1.030848735553030332e-01 5.592405080143010299e-01
-9.451704736341967616e-02 -9.960326685766943133e-02 4.739660446729243026e-01
-9.212453515675265991e-02 -9.336427279521031242e-02 4.688869615495203091e-01
-3.642503634356712011e-02 -1.118840175088748889e-01 4.885497315844253285e-01
-4.058555858913755893e-02 -8.017962168109475651e-02 4.555514015917715431e-01
-5.124020931690943109e-02 -1.181130247178450582e-01 5.265331402371253855e-01
-6.955192796821633994e-02 -8.361730297294582559e-02 4.590909197905213013e-01
-1.093250173682724091e-01 -1.127974999786970633e-01 4.910079151755027960e-01
-9.103161862639298774e-02 -1.169386902299113518e-01 4.997634670664243273e-01
-1.059408493218110328e-02 -1.182889854395102608e-01 5.555076075834038951e-01
-6.665000081279039146e-02 -1.168114115025925409e-01 5.263117308439595465e-01
-7.613540240496825817e-02 -6.083694436173816417e-02 4.507276526791788029e-01
-9.216265279352345297e-02 -1.125956478921379122e-01 4.878075096494444707e-01
-7.214033450367321465e-02 -1.174672148467748450e-01 5.201948956875237506e-01
-1.139603331863857372e-01 -1.077828632392782704e-01 4.890236289444124806e-01
-7.084521632588204609e-02 -6.036739141717530066e-02 4.498970353871813987e-01
-1.071309727692396907e-01 -1.153726571280075108e-01 4.932124002201890289e-01
-1.559375905191611421e-02 -9.717167128831033507e-02 5.668126409355054296e-01
-1.170779315966218870e-01 -1.094444273089485026e-01 5.145356878267747236e-01
-4.972364907868070602e-03 -1.168265345770670149e-01 5.570681513202448976e-01
-9.650710029337580820e-03 -1.231455918451108411e-01 4.988258288736404089e-01
-7.871052421708951696e-02 -1.014126963000818449e-01 4.761622070447155131e-01
-1.020727099674540589e-02 -1.243517598429201704e-01 5.035697899494427920e-01
-6.359269481470966601e-02 -1.033566542412064776e-01 4.778061817394274602e-01
-3.862704660811763085e-02 -1.069481376482812468e-01 4.802543701957477928e-01
-6.034272229340299776e-02 -8.091027658056647309e-02 4.579325554907562323e-01
-1.205927500273780290e-01 -1.034683637082684238e-01 4.964044785950065264e-01
-8.966884436309312256e-02 -8.462864722497491499e-02 4.618080593805515277e-01
-5.307455812934168404e-02 -1.032733612655988426e-01 4.778136101053654938e-01
-8.227191648363292586e-02 -8.292613819066622927e-02 4.586785480389113934e-01
-3.012161280380809200e-02 -1.155905887287868167e-01 4.934529498526614155e-01
-1.072773125254976832e-02 -1.192240536010839014e-01 5.537285338749431407e-01
-9.191199512989986498e-02 -1.000451680327459070e-01 4.743471678032147865e-01
-5.682940111105636710e-02 -9.152676081914540296e-02 4.648368130026707679e-01
-9.544496619651458846e-02 -1.051077854034647985e-01 4.794410111131005570e-01
-5.788581293654604387e-02 -1.155013558780096927e-01 5.060637728089688592e-01
-5.383269770575378060e-02 -8.631915351525754065e-02 4.609672906271500281e-01
-1.110521541535270940e-01 -1.154261137557393430e-01 4.982272363667279436e-01
-1.005816175195439061e-01 -1.188058348578652779e-01 5.043963811966810651e-01
-6.906814388352285061e-02 -9.722228517902600786e-02 4.704803680283814460e-01
-3.987780695761090899e-02 -1.150668442987232559e-01 4.966777441515723424e-01
-6.541170932236069213e-02 -9.650954127233678237e-02 4.694198201924488778e-01
-4.665696955176835969e-02 -9.935613496067291495e-02 4.721009286131025440e-01
-2.709138973733015918e-02 -1.110458830596027097e-01 5.537570529664842534e-01
-1.178099821453077733e-01 -1.073985800751738190e-01 5.132933192546478285e-01
